136.26,138.17,140.10,141.62,142.79,143.57,144.18,145.06,146.69,148.96,151.56,154.27,156.74,159.19,162.26,166.06,170.09,174.40,178.61,182.45,185.51,187.91,189.19,189.63,189.41,188.88,188.01,186.59,184.82,183.24,181.63,180.02,178.20,176.02,173.78,171.27,168.69,166.06,163.17,159.60,153.72,146.83,141.11,135.40,129.76,124.07,118.17,111.91,105.84,101.12,98.28,97.97,99.98,106.74,116.27,126.88,139.04,146.29,152.33,158.16,161.35,164.05,166.08,167.23,167.19,167.02,165.70,163.27,159.84,156.08,152.43,148.88,145.41,142.01,139.18,137.10,135.52,134.25,133.19,132.50,131.99,131.59,131.42,131.38,131.25,130.97,130.63,130.77,131.14,131.48,131.66,131.79,131.84,131.71,131.41,130.96,130.43,129.92,129.51,129.26,129.10,128.82,128.65,128.75,129.23,130.24,131.46,132.74,134.03,135.41,136.50,137.49,138.52,139.75,142.47,145.85,149.62,154.03,158.62,162.34,165.53,168.72,171.88,175.14,178.54,182.21,186.52,191.84,197.44,202.57,206.39,210.39,214.53,219.04,224.17,229.91,236.92,243.47,248.82,252.86,256.80,261.36,266.53,272.12,277.61,283.41,289.21,295.01,301.43,308.21,314.00,319.24,325.13,329.71,331.91,333.67,336.84,342.14,348.64,354.89,360.29,364.63,367.90,370.45,372.83,375.52,378.65,382.82,387.59,392.64,397.74,404.21,412.10,420.80,428.50,429.87,427.18,421.91,414.55,406.69,400.24,395.15,391.11,387.48,383.97,380.57,376.78,372.09,368.19,364.24,360.15,355.96,351.78,348.51,347.51,349.36,354.72,360.61,366.72,374.14,383.30,390.43,397.17,401.65,402.89,401.09,398.12,393.42,388.15,383.99,380.37,379.26,380.18,382.55,384.77,387.25,390.88,395.81,401.64,406.04,410.55,415.36,420.49,426.58,432.17,437.31,442.34,447.83,452.19,453.25,451.91,450.28,451.26,453.81,457.13,460.93,464.90,469.01,473.22,477.45,481.60,486.41,492.05,498.18,504.21,508.95,511.62,513.05,513.68,513.76,512.78,511.70,510.41,508.12,504.23,500.07
142.52,145.37,147.27,148.78,149.91,150.72,151.39,152.27,153.66,155.87,158.45,161.04,163.80,166.84,170.36,174.29,178.22,182.30,186.23,189.75,192.50,194.71,196.01,196.56,196.35,195.60,194.60,193.22,191.52,189.64,187.74,185.95,184.10,181.89,179.22,176.17,173.09,170.03,166.71,163.16,157.90,151.67,145.84,139.82,134.29,129.03,123.69,117.75,111.44,105.64,101.02,98.68,98.93,103.41,110.95,120.65,131.66,141.05,148.93,155.34,160.16,163.69,166.81,169.24,170.09,170.35,169.87,168.41,165.72,162.10,158.09,154.44,151.22,148.16,145.10,142.33,139.91,137.97,136.79,136.18,136.07,136.27,136.08,136.17,136.27,136.30,136.28,136.51,136.75,136.89,136.88,136.72,136.53,136.18,135.69,135.13,134.46,133.86,133.36,132.92,132.40,131.58,130.77,130.18,130.02,130.42,131.28,132.46,133.80,135.00,136.07,137.12,138.25,139.37,141.47,144.31,147.65,151.34,155.89,160.11,163.82,167.14,170.39,173.76,177.21,180.90,185.24,189.75,195.09,200.55,204.64,208.60,212.70,217.00,221.79,227.93,235.01,241.40,246.62,251.01,255.23,259.88,265.10,270.77,275.76,280.77,285.88,291.09,296.41,302.29,307.93,313.23,318.31,322.46,325.40,329.07,334.98,341.77,348.67,354.52,358.99,362.40,364.89,367.03,369.23,371.87,375.04,379.01,383.86,389.50,395.08,400.85,407.83,416.18,425.09,429.34,429.28,426.00,419.89,412.47,405.33,399.38,394.81,391.16,387.68,384.54,381.28,377.25,373.09,368.94,364.48,359.81,356.11,353.24,351.76,352.36,356.42,361.64,367.28,374.37,383.35,389.98,397.17,402.40,404.60,404.48,402.54,398.86,394.23,389.64,385.95,385.06,386.56,389.78,392.35,393.92,395.85,398.63,402.36,406.45,411.19,416.46,422.29,428.85,434.96,440.63,445.99,451.29,455.70,457.38,456.74,455.07,455.50,457.81,461.08,464.90,469.07,473.60,478.10,482.45,486.76,492.21,498.09,503.76,508.57,511.93,513.87,514.63,514.36,513.52,512.27,511.06,509.30,505.85,501.58,496.88
149.16,152.64,154.41,155.83,156.94,157.82,158.64,159.66,160.93,163.19,165.84,168.46,171.57,175.01,178.64,182.37,186.06,189.92,193.54,196.75,199.31,201.48,202.93,203.65,203.56,202.87,201.69,200.17,198.33,196.11,193.89,191.85,189.83,187.54,184.50,180.99,177.44,173.91,170.11,166.33,161.82,156.61,150.88,144.66,139.06,133.95,129.00,123.48,117.28,110.72,104.58,100.47,99.05,101.06,106.42,115.07,124.15,135.18,144.81,151.93,158.19,162.59,166.84,170.57,172.45,173.39,173.62,172.96,171.06,167.93,163.94,160.28,157.24,154.57,151.50,148.21,145.03,142.47,141.16,140.63,140.84,141.48,141.34,141.51,141.77,142.04,142.28,142.52,142.55,142.46,142.24,141.76,141.32,140.81,140.23,139.62,138.93,138.34,137.80,137.16,136.32,135.04,133.70,132.54,131.73,131.46,131.79,132.58,133.62,134.66,135.73,136.88,138.06,139.17,140.84,143.29,146.28,149.27,153.48,158.09,162.35,165.74,169.03,172.45,175.99,179.73,183.98,187.85,192.79,198.29,202.83,206.81,210.84,214.99,219.63,226.05,233.04,239.24,244.40,249.00,253.46,258.13,263.31,269.07,273.85,278.20,282.52,286.93,291.43,296.05,301.26,306.69,311.42,315.80,319.95,325.69,334.02,341.53,348.52,353.76,357.09,359.45,361.22,363.13,365.40,368.13,371.50,375.34,380.17,386.16,392.33,397.58,403.55,411.09,420.53,427.43,430.19,429.36,425.05,418.51,411.22,404.54,399.08,395.00,391.29,388.04,385.02,381.78,377.54,373.33,368.78,363.97,360.37,358.05,356.62,356.48,359.00,363.14,368.25,374.86,383.11,389.25,396.79,402.71,405.88,407.28,406.30,403.80,400.16,395.61,392.29,391.65,393.39,396.93,399.72,400.81,401.62,402.65,404.10,407.24,411.83,417.42,423.86,430.80,437.48,443.75,449.51,454.66,459.06,461.27,461.34,459.89,460.08,462.26,465.46,469.22,473.47,478.26,482.91,487.34,492.09,498.11,503.98,508.92,512.31,514.42,515.68,515.66,514.33,512.64,511.04,509.43,506.94,502.39,497.79,492.65
155.40,158.50,160.52,162.01,163.45,164.65,165.78,167.34,169.44,172.27,175.03,177.22,179.75,182.51,185.59,189.11,193.14,197.19,200.65,203.58,206.20,208.42,209.78,210.39,210.46,210.69,209.53,207.57,205.23,202.78,200.62,198.38,195.96,193.18,189.74,185.68,181.58,177.64,173.72,169.71,165.46,160.90,155.92,150.20,144.17,138.52,133.63,128.99,122.84,115.93,109.18,103.99,100.41,99.84,103.06,110.60,118.76,129.35,139.59,148.04,154.57,160.02,165.68,170.78,173.70,176.28,177.03,176.50,175.07,173.17,170.52,167.31,163.88,160.79,157.89,154.81,151.68,148.95,147.46,146.98,147.05,147.37,147.51,147.58,147.67,147.77,147.81,147.76,147.56,147.23,146.74,146.10,145.51,145.01,144.55,144.01,143.53,143.10,142.56,141.74,140.78,139.41,137.88,136.38,135.08,134.27,133.89,133.69,133.55,134.54,135.71,136.84,137.94,139.04,140.68,143.00,145.75,148.38,152.08,156.76,161.33,164.75,167.86,171.27,174.90,178.69,182.63,186.40,190.75,195.74,200.99,205.12,209.00,213.09,217.87,223.91,230.74,237.05,242.38,246.91,251.38,255.97,261.04,266.80,271.83,275.87,279.35,282.71,286.65,290.29,294.57,299.48,304.61,310.49,316.25,323.55,332.99,339.92,347.11,352.11,354.41,355.68,356.79,358.71,361.39,364.63,368.28,372.30,376.92,382.50,389.13,394.40,399.81,406.48,415.50,423.54,428.67,430.62,428.85,423.91,417.96,411.41,404.75,399.21,395.17,391.78,388.57,385.19,381.19,376.95,372.92,369.32,366.25,364.08,362.48,361.64,362.37,364.77,369.31,375.50,382.75,389.00,396.68,403.03,407.13,409.91,409.93,408.00,404.98,401.64,399.40,398.94,400.00,402.28,404.60,406.11,407.44,408.48,408.68,409.71,413.14,418.38,424.90,432.29,439.54,446.36,452.58,457.97,461.89,464.25,465.22,465.07,465.91,467.93,470.76,474.27,478.33,482.85,487.45,492.35,498.24,504.30,509.36,513.18,515.56,517.11,516.82,515.26,513.01,511.17,508.80,505.71,501.85,497.06,492.30,487.18
160.40,163.51,165.78,167.46,168.91,170.43,172.18,174.41,177.20,180.19,182.86,184.93,187.10,189.56,192.46,195.79,199.46,203.21,206.66,209.77,212.56,214.78,216.15,216.91,217.26,217.68,216.74,214.82,212.21,209.00,206.40,203.90,201.30,198.40,194.93,190.25,185.42,180.90,176.65,172.61,168.57,164.42,159.90,154.39,148.04,142.02,136.97,132.30,126.41,119.75,113.01,107.30,102.73,100.45,101.57,107.24,114.61,124.41,134.82,144.32,150.96,156.74,162.67,168.45,173.24,177.66,179.49,179.62,178.75,177.46,175.44,172.82,169.95,167.47,165.21,162.82,160.00,156.76,154.50,153.69,153.60,153.84,154.09,154.27,154.21,154.00,153.77,153.49,153.16,152.64,151.85,151.08,150.40,150.04,149.88,149.56,149.24,148.72,147.90,146.69,145.47,143.93,142.15,140.17,138.13,136.86,135.96,135.24,134.76,135.05,135.83,136.84,137.95,139.06,140.73,143.03,145.72,148.27,151.54,155.84,160.23,163.67,166.74,169.92,173.44,177.34,181.25,184.92,188.78,193.29,198.87,203.30,207.18,211.15,215.72,221.21,228.25,234.69,239.89,244.44,248.88,253.36,258.28,263.97,269.45,273.42,276.52,279.29,282.56,286.04,290.31,295.21,300.49,307.27,314.06,321.74,330.49,336.62,342.61,347.12,349.59,350.46,351.60,353.91,357.13,360.84,364.71,369.27,374.18,379.49,385.84,391.31,396.49,402.35,410.38,418.64,425.28,429.66,430.76,427.79,422.93,416.98,410.33,403.88,399.33,395.68,392.31,388.80,384.82,380.70,377.08,374.28,371.89,370.32,369.06,368.04,367.65,368.33,371.56,376.75,383.24,389.66,397.15,403.60,408.22,411.48,412.68,411.61,409.18,406.53,404.60,404.19,405.01,406.87,409.13,411.10,412.81,413.99,414.04,413.99,415.56,419.32,425.68,433.22,440.75,447.86,454.34,459.89,464.05,467.13,469.33,470.74,472.49,474.43,476.79,479.83,483.51,487.91,492.75,498.18,504.60,509.83,514.04,517.09,518.56,519.02,517.06,514.16,511.09,508.23,504.86,500.69,495.94,491.00,486.22,481.74
164.92,168.09,170.50,172.33,173.76,175.61,178.02,180.91,184.26,187.33,189.95,192.08,194.07,196.43,199.22,202.35,205.44,208.85,212.30,215.59,218.41,220.59,222.02,223.03,223.72,224.11,223.36,221.61,218.84,214.93,211.81,208.97,206.14,203.15,199.74,194.59,189.03,183.76,179.10,175.08,171.22,167.31,163.05,157.71,151.09,144.72,139.41,134.43,128.93,122.75,116.26,110.32,105.34,101.97,101.24,104.60,111.12,120.05,130.28,140.37,147.24,153.14,158.83,164.76,171.16,177.23,180.56,181.89,181.87,181.19,179.55,177.52,175.50,173.88,172.38,170.82,168.57,165.23,162.52,161.37,161.06,161.19,161.34,161.51,161.24,160.63,160.05,159.53,159.09,158.44,157.51,156.71,156.11,155.98,156.19,156.09,155.84,155.10,153.86,152.19,150.59,148.77,146.59,144.00,141.15,139.36,137.99,136.93,136.40,135.87,136.13,136.95,138.08,139.18,140.98,143.36,146.06,148.67,151.61,155.34,159.25,162.61,165.65,168.54,171.88,175.83,179.82,183.42,186.91,191.00,196.57,201.41,205.37,209.15,213.37,218.34,225.47,232.00,237.14,241.75,246.13,250.45,255.16,260.74,266.60,270.69,273.70,276.21,278.94,282.63,287.40,292.73,298.04,305.21,312.50,319.87,327.16,332.45,336.84,340.63,343.43,344.31,345.84,348.75,352.63,356.86,361.00,366.14,371.46,376.68,382.51,388.13,393.25,398.51,405.41,413.28,420.66,426.85,430.72,430.40,426.90,421.82,415.71,408.85,403.75,399.76,396.21,392.51,388.47,384.54,381.34,379.14,377.44,376.53,375.74,374.82,373.75,372.96,374.51,378.32,384.13,390.66,397.83,404.15,409.02,412.58,415.00,415.02,413.38,411.26,409.27,408.73,409.43,411.19,413.55,415.98,418.01,419.37,419.68,419.22,419.02,420.93,426.55,433.83,441.44,448.78,455.54,461.31,466.04,470.03,473.44,476.29,478.89,480.86,482.93,485.67,489.13,493.56,498.66,504.41,510.69,514.84,518.16,520.48,521.09,520.34,516.76,512.61,508.75,504.67,500.18,495.08,489.75,484.76,480.16,476.45
169.46,172.34,174.46,176.17,177.91,180.13,182.88,186.17,189.84,193.29,196.32,198.78,200.88,203.26,205.82,208.50,211.31,214.88,218.16,220.95,223.24,225.25,226.76,228.02,229.07,229.59,228.78,226.90,224.12,220.52,217.28,213.86,210.34,206.85,203.27,198.27,192.21,185.83,180.76,176.67,172.91,169.06,164.71,159.81,152.89,146.03,140.48,135.49,130.56,124.82,118.48,112.65,107.64,104.24,102.45,103.06,108.32,116.52,125.92,135.36,143.10,149.37,154.69,159.83,165.70,172.38,177.90,181.63,183.34,184.18,183.07,181.48,179.99,178.68,177.60,176.67,175.58,174.18,173.04,172.04,171.34,170.89,170.30,169.92,169.17,168.05,166.84,166.01,165.40,164.84,164.28,163.79,163.73,164.08,164.56,164.51,164.07,162.96,161.30,159.20,156.99,154.54,151.58,148.09,144.54,141.81,139.85,138.52,137.72,137.00,136.89,137.41,138.45,139.51,141.64,144.28,147.08,149.82,152.69,155.79,158.88,161.69,164.58,167.36,170.47,174.14,178.21,181.86,185.33,189.13,194.03,199.42,203.53,207.02,210.79,215.66,221.97,228.36,234.10,238.69,243.05,247.15,251.51,256.87,262.64,267.09,270.49,273.18,276.00,280.06,285.94,292.50,297.81,304.38,310.99,317.31,323.01,327.59,330.93,333.50,335.45,336.82,339.08,342.81,347.54,352.60,357.25,362.60,368.17,373.69,379.17,384.50,389.71,395.06,401.04,407.70,414.22,420.52,426.35,430.66,429.73,425.94,420.52,414.24,408.69,404.29,400.43,396.35,392.26,388.62,385.87,384.22,383.01,382.30,381.78,381.18,380.10,378.76,378.33,380.12,385.20,391.58,398.39,404.28,409.05,413.57,417.05,418.56,418.44,417.06,414.73,413.63,413.97,415.71,418.17,420.86,423.19,424.81,425.32,425.34,424.72,425.01,428.09,434.12,441.51,449.21,456.59,462.88,468.47,473.23,477.28,480.64,483.56,485.86,488.42,491.84,495.89,500.63,505.74,510.91,515.61,518.88,521.19,522.47,522.26,520.62,515.78,510.42,505.65,500.99,495.17,489.20,483.63,478.96,475.09,471.76
174.23,176.74,178.78,180.63,182.59,184.89,187.68,191.24,195.05,198.55,201.72,204.48,206.67,209.01,211.49,214.09,216.81,220.02,222.98,225.57,227.84,229.92,231.50,232.84,233.91,234.08,233.00,231.00,228.27,224.84,221.38,217.60,213.63,209.60,205.48,200.42,194.13,187.24,181.96,177.57,173.58,169.54,164.98,160.06,153.36,146.62,141.01,136.17,131.64,126.26,120.19,114.57,109.53,106.11,103.75,102.74,106.42,113.34,121.70,130.56,138.74,145.14,150.39,155.24,160.53,166.81,173.35,178.93,182.73,185.34,186.02,185.53,184.42,183.24,182.42,181.90,181.51,181.13,180.72,180.02,179.23,178.43,177.51,176.73,175.73,174.53,173.35,172.73,172.31,172.03,171.90,171.82,172.02,172.33,172.51,172.10,171.20,169.66,167.67,165.30,162.55,159.67,156.26,152.10,147.49,144.11,141.59,139.78,138.79,138.19,138.06,138.38,139.16,140.31,142.56,145.26,148.05,150.67,153.24,155.80,158.31,160.79,163.55,166.28,169.13,172.38,176.42,180.20,183.75,187.32,191.47,196.77,201.20,204.88,208.32,212.50,218.11,224.34,230.44,235.38,239.92,244.01,248.13,252.91,258.47,263.19,266.99,270.14,273.79,278.95,285.78,292.84,297.82,303.54,309.18,314.40,318.95,322.63,325.08,326.87,328.43,330.44,333.69,338.08,343.11,348.31,353.28,358.71,364.43,370.19,375.52,380.84,386.17,391.55,397.16,403.03,408.73,414.35,420.02,425.66,428.88,428.56,424.81,419.35,414.05,409.49,405.30,400.94,396.63,393.27,390.99,389.75,388.87,388.20,387.69,387.15,386.13,384.51,383.01,383.14,386.42,392.14,398.68,404.36,409.05,414.20,418.69,421.59,422.87,422.38,420.27,418.89,418.90,420.54,423.15,425.91,428.44,430.50,431.63,432.02,431.39,430.81,431.75,435.51,442.07,449.72,457.47,464.46,470.89,476.30,480.76,484.47,487.85,490.86,494.36,498.75,503.08,507.53,512.05,516.37,519.79,522.22,523.80,524.10,522.48,519.82,514.11,508.04,502.65,497.12,490.83,484.48,478.58,473.76,469.94,466.60
179.32,181.47,183.47,185.52,187.56,189.75,192.41,196.08,199.88,203.25,206.36,209.30,211.58,213.89,216.39,219.08,221.83,224.46,227.14,229.85,232.43,234.72,236.32,237.59,238.42,237.92,236.44,234.31,231.61,228.14,224.41,220.40,216.16,211.63,206.82,201.46,195.08,188.19,182.84,178.06,173.69,169.37,164.58,159.45,153.27,147.01,141.46,136.75,132.42,127.33,121.58,116.21,111.16,107.67,105.06,103.26,105.14,110.45,117.75,126.18,134.43,140.72,146.04,150.97,155.79,161.15,167.78,174.56,180.48,185.00,188.19,189.34,188.75,187.69,187.22,187.15,187.20,187.12,186.83,186.35,185.56,184.46,183.40,182.34,181.27,180.24,179.46,179.28,179.24,179.30,179.50,179.80,180.08,180.10,179.73,178.81,177.30,175.32,173.05,170.44,167.14,163.94,160.32,155.72,149.86,146.12,143.24,141.00,139.93,139.55,139.53,139.70,140.16,141.48,143.68,146.28,148.94,151.29,153.45,155.56,157.71,160.00,162.62,165.31,167.92,170.70,174.55,178.47,182.14,185.56,188.99,193.71,198.49,202.67,205.97,209.24,214.16,220.08,226.29,231.78,236.59,240.92,244.97,249.07,254.25,259.12,263.33,267.13,271.94,278.69,286.30,293.27,297.70,302.49,307.05,311.26,314.97,317.75,319.49,320.83,322.37,325.00,329.29,334.18,339.16,344.05,349.18,354.65,360.41,366.26,371.59,377.08,382.55,387.99,393.53,398.99,404.03,408.66,412.98,417.69,424.90,429.05,428.18,424.02,419.44,414.99,410.63,406.19,401.78,398.75,396.86,395.88,395.18,394.39,393.69,392.98,391.88,390.12,388.24,387.13,388.11,392.60,398.75,404.31,409.04,414.61,420.01,424.12,426.65,427.14,425.70,424.38,424.21,425.70,428.36,431.00,433.70,436.34,438.33,439.03,438.61,437.71,437.14,438.27,443.48,450.53,458.27,466.06,473.31,479.21,483.96,487.99,491.96,495.99,500.62,505.86,510.14,513.91,517.57,520.98,523.50,525.16,526.07,525.33,522.03,518.23,511.95,505.56,499.76,493.31,487.14,480.75,474.49,469.25,464.97,461.18
185.31,187.29,188.75,190.43,192.18,194.19,196.71,200.18,203.80,207.15,210.18,212.89,215.39,217.82,220.31,222.89,225.62,228.40,231.53,234.74,237.56,239.97,241.44,242.35,242.63,241.59,239.67,237.18,234.17,230.53,226.54,222.26,217.75,212.98,207.83,201.80,195.25,188.74,183.39,178.57,174.08,169.69,165.10,160.18,154.33,148.38,142.91,137.86,133.30,128.30,122.86,117.64,112.72,109.13,106.39,104.32,104.21,108.00,114.62,123.03,130.95,136.80,141.95,146.86,151.50,156.40,162.47,169.31,176.44,182.88,188.25,191.53,192.60,192.12,192.84,194.01,194.87,194.87,194.54,193.69,192.24,190.33,188.59,187.30,186.20,185.25,184.58,184.34,184.36,184.48,184.63,184.86,185.25,185.39,185.07,184.14,182.17,179.82,177.19,174.00,169.90,166.22,162.42,157.66,150.89,147.14,144.79,143.14,142.21,141.54,141.23,141.20,141.60,142.97,144.96,147.31,149.72,151.80,153.75,155.68,157.64,159.71,162.02,164.63,167.13,169.59,172.81,176.66,180.39,183.80,187.00,190.69,195.50,200.18,203.79,206.95,210.67,215.61,221.54,227.30,232.49,237.39,241.91,245.92,250.25,254.99,259.69,264.32,269.79,278.22,286.31,292.63,296.54,300.64,304.42,307.86,310.90,313.41,314.92,316.13,317.66,320.51,325.23,330.42,335.40,339.97,345.20,350.78,356.36,361.82,367.24,372.77,378.52,384.31,389.75,395.03,399.87,404.14,407.76,411.35,417.09,423.59,428.52,427.56,423.83,419.93,416.19,412.35,409.00,406.42,404.62,403.56,402.70,401.63,400.50,399.18,397.25,395.50,393.57,392.01,391.78,393.81,398.55,403.73,408.87,415.03,420.94,425.85,429.39,430.88,430.45,429.93,430.21,431.59,433.46,435.77,438.79,442.15,444.75,445.90,445.87,445.20,444.39,444.38,447.40,452.48,459.31,467.80,475.71,481.83,486.74,491.45,496.04,501.51,506.99,511.68,515.34,518.59,521.75,524.73,527.00,528.25,527.82,525.51,521.06,515.87,509.47,503.05,496.89,490.38,484.48,478.19,471.80,466.27,461.22,456.03
190.54,192.38,193.58,195.04,196.65,198.59,201.02,204.22,207.59,210.77,213.65,216.21,218.80,221.34,223.85,226.47,229.51,232.66,236.24,239.88,242.93,245.30,246.54,246.99,246.59,244.97,242.56,239.69,236.39,232.46,228.16,223.59,218.85,213.92,208.56,202.21,195.55,189.20,184.04,179.56,175.34,171.20,167.00,162.36,156.76,150.81,144.91,139.30,134.41,129.46,124.28,119.25,114.61,110.90,107.91,105.51,103.85,106.47,112.23,120.08,127.89,133.61,138.45,142.98,147.45,152.12,157.62,164.09,171.53,179.11,185.84,190.88,193.96,195.15,197.45,199.96,201.68,201.85,201.55,200.59,199.00,196.96,195.14,193.77,192.66,191.75,191.10,190.59,190.47,190.48,190.46,190.47,190.60,190.50,190.02,189.03,186.74,184.04,180.99,177.17,172.40,167.86,163.49,158.48,151.34,147.82,146.07,145.04,144.32,143.62,143.16,142.91,143.11,144.49,146.23,148.19,150.28,152.26,154.16,156.03,157.93,159.88,161.91,164.21,166.45,168.59,171.20,174.94,178.71,182.16,185.29,188.47,192.86,197.54,201.56,204.79,207.89,211.99,217.17,222.64,227.87,233.07,238.10,242.59,246.58,251.03,255.91,261.27,267.40,276.44,284.50,290.43,294.26,297.88,301.07,303.91,306.44,308.69,310.16,311.40,312.98,315.81,320.72,326.08,331.25,336.06,341.29,346.83,352.22,357.32,362.65,368.10,373.82,379.66,385.25,390.60,395.43,399.63,403.07,406.09,410.30,416.93,424.73,428.79,428.06,425.12,421.61,418.58,416.26,414.36,412.89,411.88,410.95,409.60,408.12,406.48,404.39,402.56,400.26,397.84,396.07,396.04,398.96,403.33,408.67,415.16,421.36,426.76,430.93,433.17,434.23,435.05,436.23,437.88,439.32,441.37,444.56,448.44,451.69,453.59,454.13,453.86,453.18,452.62,453.52,456.27,461.43,469.56,477.69,484.02,489.29,494.88,500.30,506.42,512.09,516.46,519.97,523.07,525.79,528.09,529.73,530.30,528.77,525.25,519.79,513.43,507.02,500.58,494.19,488.15,482.64,476.34,469.77,464.08,458.05,451.88
194.90,196.62,197.91,199.38,201.03,203.02,205.42,208.33,211.39,214.24,216.91,219.43,222.00,224.61,227.24,230.10,233.76,237.39,241.28,245.14,248.31,250.47,251.38,251.30,250.19,247.97,245.05,241.83,238.31,234.05,229.39,224.54,219.61,214.57,209.08,202.81,196.13,189.72,184.91,181.14,177.54,173.88,170.10,165.74,160.34,154.13,147.41,141.10,135.84,130.88,125.93,121.15,116.91,113.07,109.65,106.78,104.11,105.88,110.53,117.24,125.19,131.12,135.55,139.43,143.65,148.27,153.28,159.08,166.11,174.08,181.29,187.58,192.79,196.57,200.72,204.50,207.06,207.61,207.46,206.80,205.68,204.24,202.96,201.63,200.47,199.54,198.83,197.95,197.53,197.34,197.15,196.88,196.40,195.66,194.70,193.45,190.94,187.91,184.37,179.97,174.69,169.06,163.72,158.30,151.36,148.28,147.07,146.52,146.02,145.56,145.11,144.66,144.55,145.87,147.33,148.87,150.60,152.68,154.68,156.61,158.54,160.44,162.28,164.13,165.97,167.81,169.92,173.49,177.24,180.71,183.88,187.10,190.74,194.90,199.32,202.69,205.82,209.33,213.40,218.05,222.95,228.09,233.45,238.84,243.12,247.27,252.05,257.84,264.61,273.20,280.80,286.67,290.83,294.24,297.02,299.44,301.64,303.60,305.10,306.48,308.13,310.80,315.74,321.17,326.66,332.25,337.44,342.82,348.01,352.91,357.97,363.22,368.54,374.06,379.99,385.59,390.56,394.91,398.59,401.66,405.12,410.10,417.42,427.21,431.46,430.32,426.96,424.69,423.11,421.99,421.08,420.28,419.40,417.90,416.22,414.56,412.96,410.96,408.00,404.39,400.87,399.38,400.32,403.44,408.54,414.98,421.31,426.91,431.33,434.07,436.93,439.45,441.91,444.28,445.92,447.91,451.17,455.38,459.22,462.03,463.26,463.48,463.10,462.35,461.41,461.79,464.75,471.43,479.25,485.82,491.66,498.22,504.58,510.48,515.78,520.30,524.15,527.37,529.65,531.02,531.60,531.18,528.87,524.56,518.16,511.02,504.64,498.19,491.70,486.51,481.44,475.06,468.26,462.51,455.42,448.87
199.09,200.90,202.38,203.90,205.64,207.70,210.09,212.75,215.42,217.99,220.43,222.79,225.41,228.19,231.23,234.68,238.65,242.77,246.65,250.05,252.62,254.29,254.80,254.30,252.73,250.10,246.88,243.47,239.79,235.40,230.63,225.64,220.53,215.34,209.85,203.64,196.94,190.61,186.57,183.49,180.46,177.07,173.06,168.64,163.39,157.28,150.40,143.69,137.96,132.77,127.97,123.67,119.78,115.76,111.76,108.14,105.18,105.86,109.22,114.94,122.75,128.84,133.26,136.84,140.63,144.97,149.46,154.75,161.56,170.06,177.11,183.88,190.55,196.31,202.16,207.03,210.27,211.40,211.84,212.00,211.65,210.74,209.56,207.93,206.48,205.27,204.16,203.26,202.87,202.72,202.61,202.33,201.46,200.12,198.37,196.21,193.30,190.00,186.12,181.22,175.69,169.66,163.54,157.34,151.06,148.83,148.00,147.44,146.89,146.35,145.84,145.41,145.33,146.22,147.48,148.92,150.66,153.01,155.37,157.46,159.38,161.25,163.03,164.81,166.52,168.21,170.16,173.19,176.55,179.88,183.05,186.24,189.43,193.09,197.36,200.95,204.17,207.30,210.65,214.72,218.83,223.36,228.36,233.81,238.96,243.64,248.41,253.75,260.29,268.61,275.96,281.74,286.14,289.78,292.56,294.95,297.19,298.89,300.31,301.59,303.15,306.00,310.88,316.32,321.97,327.92,333.68,338.96,344.01,349.00,354.00,358.82,363.61,368.60,374.16,379.83,385.08,389.70,393.56,396.98,400.66,405.27,411.54,420.42,428.79,432.94,433.07,430.31,428.47,427.39,426.63,425.99,425.26,424.11,422.54,420.67,418.67,416.37,413.54,410.25,406.77,404.18,403.96,405.46,408.82,414.84,420.95,426.58,431.27,434.53,437.99,441.80,445.68,449.35,452.38,455.08,458.85,463.41,467.19,470.02,471.57,472.10,471.66,470.46,468.72,467.87,469.15,474.11,480.82,487.50,494.05,500.95,507.49,513.22,518.50,523.42,527.51,530.14,531.87,532.78,532.45,531.24,527.98,522.75,515.74,508.67,502.24,495.81,489.60,484.98,480.09,473.89,467.20,461.22,453.63,447.14
203.25,205.25,207.01,208.66,210.51,212.60,214.91,217.39,219.67,221.94,224.17,226.39,229.18,232.22,235.59,239.35,243.49,247.69,251.38,254.42,256.64,257.92,257.95,256.95,254.90,251.88,248.33,244.71,240.97,236.66,231.84,226.81,221.74,216.60,211.17,205.17,198.80,192.81,189.08,186.37,183.55,180.11,175.66,170.81,165.63,159.83,153.28,146.60,140.46,135.07,130.42,126.41,122.69,118.54,114.06,109.65,106.38,106.00,108.19,113.03,120.39,126.49,131.04,134.63,138.05,141.94,145.96,150.80,157.33,165.88,173.25,180.48,187.86,194.99,201.89,207.50,211.35,213.15,214.65,215.99,216.71,216.49,215.30,213.42,211.64,210.09,208.72,207.87,207.52,207.44,207.41,207.03,205.75,203.73,201.13,198.07,194.71,191.09,186.88,181.63,175.88,169.57,162.84,156.08,150.69,149.12,148.52,147.93,147.34,146.76,146.23,145.90,145.93,146.46,147.56,148.91,150.63,153.20,155.85,158.17,160.21,162.10,163.90,165.66,167.32,168.96,171.01,173.64,176.61,179.70,182.75,185.80,188.71,192.01,196.01,199.75,202.94,205.80,208.66,212.07,215.58,219.51,223.95,229.02,234.34,239.81,244.96,249.86,255.71,263.23,270.35,276.37,281.04,284.86,287.81,290.41,292.89,294.66,296.16,297.49,299.06,301.90,306.47,311.76,317.42,323.47,329.77,335.15,340.17,345.20,350.23,354.73,359.01,363.39,368.41,374.08,379.58,384.48,388.55,392.34,396.38,401.03,406.66,414.00,423.98,431.93,435.79,434.38,433.01,432.06,431.47,431.13,430.60,429.76,428.31,426.35,424.18,421.72,418.86,415.67,412.28,409.15,408.12,408.29,410.01,415.03,420.54,425.94,430.76,434.57,438.53,443.37,448.41,453.15,457.54,461.25,465.62,470.43,474.12,476.65,478.41,479.42,479.31,477.92,475.85,474.27,474.28,477.50,482.73,489.05,495.95,503.06,509.59,515.24,520.74,526.13,530.10,532.24,533.52,533.98,532.79,530.95,526.86,520.82,513.41,506.45,499.87,493.57,487.89,483.66,478.80,472.77,466.25,460.01,452.26,445.89
207.44,209.71,211.87,213.72,215.73,217.78,219.92,222.28,224.23,226.23,228.25,230.42,233.46,236.88,240.30,243.81,248.00,251.67,255.01,258.07,260.56,261.67,261.17,259.50,256.80,253.38,249.39,245.52,241.85,237.88,233.00,228.09,223.33,218.58,213.27,207.79,202.22,196.90,192.69,189.82,186.72,182.82,177.79,172.13,166.89,161.62,155.88,149.78,143.40,137.90,133.38,129.32,125.50,121.31,116.54,111.36,107.52,106.23,107.51,111.57,118.13,123.97,128.78,132.70,135.92,139.21,142.77,147.24,153.31,161.18,169.76,177.60,184.80,192.46,199.40,205.31,209.71,212.26,215.33,218.23,220.34,221.13,220.06,218.15,216.06,214.16,212.82,211.97,211.62,211.56,211.52,210.81,208.97,206.19,202.73,199.03,195.20,191.15,186.59,181.18,175.17,168.56,161.46,154.63,150.33,149.00,148.46,147.96,147.42,146.92,146.50,146.31,146.47,146.88,147.83,149.00,150.55,153.20,155.94,158.56,160.94,162.96,164.78,166.52,168.17,169.92,172.34,174.91,177.62,180.42,183.18,185.94,188.73,191.90,195.63,199.35,202.28,204.96,207.58,210.18,213.50,217.07,220.87,225.10,229.38,235.63,241.65,246.46,251.25,257.14,263.92,270.63,275.65,279.48,282.74,285.79,288.69,291.04,292.92,294.63,296.42,298.87,302.75,307.63,313.11,319.02,325.59,331.35,336.51,341.42,346.50,350.95,354.84,358.60,363.06,368.61,374.24,379.38,383.76,387.85,392.23,397.17,402.91,409.82,417.90,426.24,433.06,436.06,436.59,436.22,436.02,436.22,435.97,435.18,433.77,432.00,430.21,427.90,424.52,420.64,416.92,413.91,412.38,411.81,412.52,415.75,420.15,424.96,429.70,434.10,438.71,444.30,450.00,455.33,460.63,465.54,470.55,475.42,479.16,481.21,483.14,484.95,485.89,484.83,482.82,480.98,480.20,481.81,485.26,490.54,497.14,504.41,510.87,516.63,522.55,528.40,531.73,533.75,534.79,534.64,532.63,530.38,525.68,519.08,511.50,504.40,497.54,491.52,486.67,482.64,477.62,471.69,465.32,458.86,451.29,445.00
211.97,214.58,216.97,219.03,221.06,223.11,225.25,227.60,229.64,231.67,233.74,235.94,238.59,241.58,244.71,247.99,251.68,255.08,258.50,261.84,264.48,265.40,264.49,262.14,258.56,254.53,250.26,246.37,242.85,239.17,234.34,229.59,225.16,220.91,216.29,211.35,206.24,201.23,196.96,193.65,190.26,186.14,180.73,175.00,169.55,164.35,159.24,153.75,147.52,141.63,136.54,132.40,128.28,123.95,118.81,112.76,108.40,106.39,107.15,110.82,116.41,121.69,126.37,130.40,133.66,136.73,139.84,143.87,149.60,156.97,165.73,174.00,181.41,188.42,194.92,201.07,206.11,209.37,213.00,216.90,220.35,222.79,223.58,222.64,220.59,218.27,216.63,215.80,215.40,215.08,214.53,213.23,210.77,207.35,203.26,198.96,194.82,190.41,185.59,180.07,173.38,166.69,159.79,153.38,150.14,149.09,148.60,148.13,147.63,147.12,146.87,146.87,147.07,147.34,148.18,149.32,150.90,153.43,156.13,158.78,161.23,163.38,165.46,167.35,169.23,171.34,173.98,176.58,179.50,182.56,185.33,188.01,190.90,193.94,197.07,200.21,202.89,205.14,207.15,209.49,212.86,216.51,220.10,223.50,227.00,231.63,237.12,242.85,247.30,252.22,257.97,264.07,269.51,273.97,277.66,281.06,284.33,287.08,289.81,292.17,294.25,296.66,299.70,303.83,309.06,315.26,321.10,326.86,332.29,337.31,342.21,346.70,350.86,354.88,359.13,364.22,369.44,374.52,379.27,383.75,389.02,394.50,400.16,406.65,414.10,422.23,429.75,434.88,437.93,439.31,440.28,441.25,441.48,440.76,439.34,437.59,435.83,433.64,430.44,426.57,422.42,418.70,416.75,415.93,416.08,417.53,420.22,424.02,428.40,432.89,437.67,443.71,450.03,456.05,462.00,467.90,473.53,478.41,481.61,483.96,486.28,488.73,490.79,490.69,489.07,487.32,486.40,487.33,489.50,493.34,498.71,505.46,512.25,518.44,524.48,530.02,532.91,535.15,535.87,534.87,532.36,529.25,524.12,517.41,509.74,502.16,495.12,489.49,485.41,481.62,476.47,470.60,464.38,457.76,450.49,444.76
216.48,219.27,221.82,224.10,226.32,228.60,230.95,233.31,235.40,237.36,239.34,241.45,243.67,246.20,249.05,252.16,255.36,258.54,262.12,265.66,268.17,268.90,267.64,264.69,260.27,255.66,251.15,247.27,243.92,240.47,235.92,231.38,227.18,223.35,219.49,215.11,210.33,205.45,201.15,197.33,193.61,189.36,183.88,178.32,172.70,167.41,162.63,157.69,151.75,145.58,139.87,135.47,131.00,126.43,121.00,114.37,109.29,106.69,107.01,110.18,114.78,119.48,123.92,127.94,131.30,134.28,137.09,140.74,146.01,152.88,161.36,169.84,177.53,183.78,189.60,195.50,200.99,205.41,209.50,213.97,218.51,222.78,226.20,226.74,225.21,222.81,220.83,219.85,219.18,218.38,217.09,215.02,211.90,207.88,203.22,198.44,194.05,189.27,184.10,178.43,171.32,164.74,158.16,152.24,149.97,149.18,148.73,148.29,147.84,147.39,147.32,147.47,147.68,147.87,148.59,149.77,151.42,153.78,156.33,158.89,161.36,163.67,166.03,168.14,170.36,172.89,175.69,178.52,181.84,185.41,188.58,191.54,194.45,197.17,199.60,202.10,204.50,206.32,207.80,210.06,213.43,217.16,220.61,223.38,226.26,229.37,233.98,239.95,244.17,248.40,253.04,258.15,263.62,268.61,272.81,276.61,280.20,283.23,286.70,289.76,292.24,294.69,297.15,300.47,305.26,311.79,317.02,322.47,327.90,333.00,337.62,342.13,346.76,351.43,355.89,360.56,365.34,370.22,375.17,379.99,385.97,391.93,397.60,403.73,410.83,418.80,426.75,433.50,438.72,442.01,444.39,446.19,446.96,446.35,444.93,443.09,441.16,438.99,436.15,432.57,428.24,423.82,421.42,420.41,420.30,420.58,421.71,424.21,427.68,431.68,436.41,442.48,449.11,455.75,462.06,468.79,475.10,480.19,482.91,485.67,488.50,491.70,494.98,495.86,494.86,493.47,492.59,493.16,494.64,497.30,501.32,507.14,514.04,520.53,526.61,531.85,534.55,536.76,537.01,535.24,532.27,528.23,522.72,516.01,508.29,500.15,493.07,487.86,484.39,480.82,475.52,469.66,463.60,457.26,450.64,445.66
220.67,223.26,225.87,228.44,231.33,234.40,237.39,239.70,241.41,242.85,244.29,245.93,248.06,250.58,253.42,256.51,259.55,262.50,266.13,269.56,271.24,271.82,270.33,266.93,261.94,257.00,252.23,248.29,245.03,241.77,237.94,233.66,229.48,225.87,222.51,218.73,214.24,209.26,204.70,200.38,196.23,191.92,186.99,181.72,176.14,170.63,165.57,161.02,155.50,149.46,143.49,138.39,133.60,128.62,123.07,116.73,110.36,107.40,107.20,109.31,113.01,117.29,121.46,125.32,128.77,131.73,134.66,138.05,142.50,148.74,156.50,164.79,172.65,178.63,183.58,188.05,193.37,200.21,205.10,209.50,214.54,220.67,227.39,230.04,229.96,228.37,226.18,224.56,223.17,221.56,219.34,216.16,212.36,207.72,202.49,197.55,192.97,187.71,181.94,175.94,169.36,163.17,156.84,151.25,149.74,149.12,148.73,148.38,148.00,147.81,147.90,148.09,148.27,148.50,149.12,150.32,152.09,154.28,156.48,158.89,161.43,163.93,166.50,168.88,171.48,174.43,177.38,180.83,184.76,189.01,193.35,197.38,200.03,201.91,203.65,205.72,207.77,209.34,210.70,212.93,216.00,219.48,222.75,225.33,227.84,231.28,235.10,238.94,242.73,246.50,250.34,254.38,258.84,263.75,268.51,272.93,276.77,279.88,283.55,287.15,290.27,292.72,295.33,297.94,301.89,308.60,314.16,318.80,323.48,328.41,332.63,337.09,342.26,347.93,353.38,358.01,362.57,367.17,371.83,376.84,382.68,388.78,394.84,400.76,407.39,415.67,424.90,433.59,439.63,444.46,448.33,450.99,452.27,451.88,450.44,448.40,446.10,443.69,441.14,438.13,434.27,429.72,426.70,425.35,425.42,426.08,426.44,427.18,428.54,430.93,435.39,440.67,446.89,453.93,460.08,467.30,474.50,480.38,483.13,486.04,489.54,493.86,498.51,500.00,500.02,499.33,498.52,498.96,500.81,503.23,506.25,510.61,516.74,523.00,529.13,534.60,537.59,538.93,538.41,536.22,532.72,527.89,522.01,515.26,507.49,498.82,492.00,487.20,483.97,480.57,475.07,469.06,463.31,458.19,453.07,448.90
223.19,225.98,228.95,232.00,235.54,239.21,242.55,244.91,246.74,248.24,249.70,251.38,253.37,255.88,258.63,261.40,264.00,266.68,269.79,272.57,273.77,273.61,271.69,268.24,263.52,258.74,254.18,250.16,246.69,243.60,240.30,236.40,232.32,228.54,225.27,221.90,217.82,212.89,207.58,203.06,198.67,194.12,189.22,184.08,178.59,173.01,167.67,163.13,157.94,152.15,146.16,140.68,135.50,130.20,124.68,118.68,111.49,108.24,107.47,108.51,111.36,115.20,119.01,122.49,125.67,128.72,132.00,135.62,139.90,145.54,152.50,160.04,167.52,173.90,178.62,182.64,187.41,194.05,201.02,206.33,211.82,218.46,225.97,230.62,232.58,232.46,230.66,228.73,226.73,224.36,221.21,216.98,212.21,206.73,200.97,196.09,191.39,185.96,180.08,174.13,168.03,162.04,155.86,150.56,149.53,149.04,148.64,148.25,147.92,147.93,148.18,148.50,148.77,149.08,149.68,150.93,152.75,154.73,156.77,159.08,161.62,164.28,166.94,169.60,172.51,175.72,178.92,183.19,187.88,192.71,197.45,201.16,203.69,205.67,207.58,209.84,211.88,213.55,215.08,217.21,219.83,222.73,225.72,228.84,232.89,236.55,239.57,242.10,244.84,248.15,251.92,255.91,259.82,263.96,268.11,272.29,276.31,279.40,282.76,286.03,289.02,291.75,294.69,297.33,300.86,306.67,311.82,316.15,320.32,324.58,328.56,332.73,337.98,344.19,350.53,355.28,359.70,364.13,368.64,373.50,379.09,385.26,391.68,397.73,404.38,412.91,423.25,434.38,441.63,447.44,452.33,455.86,457.10,456.89,455.59,453.50,450.88,447.96,445.16,442.31,439.00,435.01,431.98,430.71,431.11,431.81,431.89,431.61,431.71,433.25,436.24,439.99,445.20,451.88,457.50,464.11,471.35,478.03,482.09,485.46,489.48,494.53,500.09,502.93,504.31,504.79,504.81,505.47,507.59,510.03,512.69,516.12,521.00,526.41,532.11,537.47,540.31,541.10,540.29,537.92,533.52,528.19,522.06,515.17,507.38,498.86,492.08,487.34,484.23,480.89,475.49,469.91,465.00,461.14,457.39,453.55
224.51,227.67,231.13,234.69,238.93,243.20,246.95,249.45,251.69,253.52,255.25,257.16,259.13,261.64,264.18,266.55,268.83,271.40,273.78,275.57,276.17,275.14,272.75,269.37,265.16,260.74,256.55,252.50,248.74,245.73,242.76,239.26,235.35,231.32,227.93,224.79,221.10,216.36,210.42,205.62,200.95,196.08,190.96,185.83,180.48,174.87,169.24,164.45,159.47,154.00,148.19,142.56,137.02,131.49,126.08,120.55,113.23,109.45,107.88,107.94,109.92,113.15,116.48,119.56,122.42,125.59,129.27,133.28,137.65,142.76,149.03,155.78,162.75,169.56,174.40,178.50,182.88,188.74,197.57,204.09,210.10,216.77,224.13,230.30,234.21,235.75,234.70,232.50,229.86,226.66,222.56,217.38,211.65,205.39,199.20,194.43,189.63,184.19,178.38,172.57,166.87,160.97,154.97,150.07,149.36,148.94,148.51,148.07,147.76,147.93,148.32,148.75,149.14,149.54,150.23,151.56,153.38,155.18,157.13,159.36,161.87,164.66,167.41,170.33,173.49,176.90,180.49,185.53,190.90,196.13,200.87,204.00,206.59,209.04,211.52,214.16,216.33,218.24,220.09,222.11,224.38,226.83,229.64,233.36,238.80,242.51,245.12,247.23,249.33,252.38,256.25,260.36,263.81,266.99,270.16,273.69,277.54,280.49,283.41,286.15,288.81,291.76,294.96,297.85,301.12,305.71,310.17,314.32,318.11,321.67,325.52,329.30,334.36,340.74,347.61,352.45,356.80,361.13,365.60,370.33,375.73,381.88,388.49,394.73,401.71,410.63,421.96,435.27,443.66,450.17,455.78,460.02,461.33,461.40,460.38,458.41,455.56,452.06,448.80,445.83,442.97,439.73,437.12,436.31,437.22,437.95,437.83,436.77,436.00,437.14,438.75,440.99,444.85,450.48,455.40,461.07,467.91,475.15,480.83,484.84,489.25,494.64,500.71,504.91,507.71,509.49,510.61,511.90,514.32,516.96,519.61,522.44,526.03,530.46,535.47,540.35,542.92,543.30,542.27,539.69,534.54,528.88,522.58,515.60,507.86,499.74,492.99,488.13,484.94,481.60,476.55,471.66,467.65,464.80,462.10,458.47
223.74,227.41,231.50,235.41,240.41,245.64,250.23,253.08,256.11,258.56,260.69,262.89,265.30,267.81,269.92,271.87,274.74,277.74,279.38,279.63,278.76,277.16,274.44,270.99,267.10,263.14,259.34,255.43,251.58,248.27,245.22,242.01,238.37,234.28,230.58,227.19,223.66,219.50,213.94,208.29,202.95,197.68,192.12,186.86,181.62,176.00,170.00,164.64,159.46,154.38,149.26,143.81,138.14,132.56,127.37,122.59,116.96,111.77,108.66,108.09,109.03,111.05,113.68,116.55,119.44,122.58,126.55,130.93,135.45,140.25,146.33,152.89,159.53,166.00,171.41,176.15,181.17,187.58,195.94,203.41,210.29,217.05,224.11,230.29,235.11,238.13,238.24,235.60,231.98,227.66,222.48,216.70,210.44,203.87,197.56,192.69,187.80,182.51,176.84,170.95,165.47,159.56,153.97,149.89,149.28,148.84,148.39,147.94,147.65,147.95,148.35,148.77,149.22,149.69,150.69,152.17,153.96,155.75,157.57,159.68,162.16,165.07,168.00,171.15,174.46,178.03,182.33,187.75,193.30,198.48,202.80,206.20,209.22,212.31,215.60,218.59,220.91,223.12,225.34,227.39,229.84,232.65,235.81,239.39,243.35,246.69,250.14,253.95,257.53,261.12,264.78,268.26,271.02,273.45,275.86,278.36,280.91,283.34,286.07,288.72,291.26,294.00,296.92,299.83,302.91,306.49,310.26,314.06,317.65,321.07,324.92,328.28,332.78,338.56,344.81,349.47,353.88,358.31,362.88,368.00,373.60,379.55,385.70,391.91,399.68,409.50,421.65,435.60,444.50,451.40,457.21,461.67,464.12,464.82,464.40,462.95,460.09,456.21,452.34,448.84,445.85,443.19,441.75,442.22,444.14,445.28,444.62,442.64,441.23,442.60,444.76,446.38,448.43,451.70,455.79,460.67,466.69,473.56,480.33,485.34,489.76,494.68,500.48,505.14,509.13,512.10,514.31,517.14,520.14,523.30,526.36,529.01,531.75,535.56,539.59,543.04,545.49,545.62,543.95,540.75,535.91,530.11,523.77,516.94,509.51,501.82,495.32,490.20,486.33,482.89,478.77,474.69,471.13,468.45,465.76,462.53
220.66,224.79,229.20,233.51,238.77,244.21,249.16,252.86,256.67,260.22,263.55,266.66,269.50,271.89,273.85,275.92,279.49,283.45,285.11,284.56,282.50,279.90,276.57,272.92,269.22,265.59,262.06,258.46,254.81,251.22,247.84,244.48,240.90,236.95,233.18,229.50,225.86,221.92,216.85,210.54,204.61,198.89,192.69,187.22,182.15,176.64,170.46,164.73,159.46,154.64,149.94,144.69,139.25,133.94,129.08,124.81,120.41,115.01,110.75,108.72,108.74,109.84,111.77,114.24,117.06,120.05,124.22,128.98,133.86,138.71,144.52,150.90,157.54,164.14,169.97,175.23,180.73,187.40,195.46,203.45,211.08,218.38,225.57,231.62,236.58,239.85,239.88,236.75,232.37,227.37,221.75,215.53,208.75,202.12,196.15,191.30,186.28,180.97,175.39,169.60,164.18,157.96,152.73,149.70,149.13,148.68,148.23,147.83,147.60,147.95,148.39,148.82,149.29,149.78,151.02,152.65,154.42,156.20,157.98,160.12,162.68,165.66,168.66,171.93,175.31,178.97,183.70,189.22,194.83,200.06,204.35,208.13,211.81,215.50,219.13,222.40,225.22,228.30,231.56,234.08,236.25,238.59,241.25,244.33,247.76,251.74,256.07,260.61,265.04,268.94,272.41,275.49,278.09,280.12,282.02,283.89,285.79,287.89,290.30,292.66,294.87,297.05,299.70,302.55,305.47,308.46,311.67,315.23,319.08,323.18,327.31,331.16,335.79,341.02,345.69,349.16,352.91,357.10,361.80,367.51,373.55,379.64,385.72,391.98,399.92,409.98,422.00,435.21,444.38,451.50,457.50,462.45,466.18,467.90,468.14,467.18,464.73,460.18,455.71,451.87,448.84,446.60,446.14,447.36,449.58,450.79,450.22,448.43,447.06,448.10,450.06,451.28,452.47,454.36,457.38,462.25,468.42,475.27,481.86,487.27,492.11,496.87,501.68,505.71,509.85,513.59,516.92,520.60,524.25,527.75,531.00,533.84,536.67,540.04,543.38,546.17,548.09,547.90,545.70,541.93,537.09,531.38,525.23,518.74,511.81,504.54,498.13,492.62,488.11,484.58,481.26,478.06,475.04,472.26,469.15,465.78
215.99,220.50,225.13,229.84,234.99,240.15,245.10,249.70,254.17,258.94,263.71,268.05,271.68,274.17,276.37,279.11,283.50,288.72,290.73,289.70,286.78,283.00,278.93,275.01,271.46,268.07,264.74,261.48,258.15,254.42,250.56,246.82,243.13,239.40,235.66,231.71,227.78,223.80,219.16,212.34,205.94,199.78,192.89,187.21,182.34,177.03,170.85,165.00,159.75,155.11,150.67,145.63,140.58,135.69,131.14,127.10,123.45,118.64,113.72,109.92,108.94,109.30,110.53,112.47,115.22,117.99,122.16,127.21,132.61,137.69,143.21,149.39,156.19,163.24,169.40,175.11,180.97,187.65,195.68,203.90,212.13,220.25,227.88,233.79,238.42,241.17,240.37,236.76,231.77,226.33,220.65,214.18,206.93,200.40,194.96,190.14,184.95,179.52,173.95,168.31,162.81,156.21,151.38,149.49,148.95,148.49,148.07,147.72,147.59,147.97,148.43,148.89,149.35,149.87,151.30,153.03,154.82,156.60,158.38,160.66,163.37,166.39,169.40,172.68,176.05,179.76,184.71,190.17,195.77,201.12,205.65,209.92,214.32,218.52,222.18,225.70,229.35,233.56,237.95,241.02,242.72,244.32,246.25,248.84,252.50,257.50,262.68,267.47,272.02,275.95,279.26,282.18,284.90,286.80,288.43,290.01,291.67,293.55,295.59,297.56,299.31,300.86,303.20,305.85,308.55,311.19,313.94,317.37,321.75,326.90,331.52,336.53,341.65,346.23,349.03,350.88,353.58,357.22,361.93,368.24,374.86,381.38,387.71,394.13,401.76,411.50,422.81,434.51,443.76,450.95,457.12,462.69,467.75,470.66,471.59,471.05,469.18,464.09,459.02,454.86,451.91,450.02,450.33,451.94,454.00,455.12,454.99,453.93,452.98,453.41,454.77,455.82,456.80,458.08,460.07,465.14,471.81,478.75,484.49,490.05,495.49,500.27,503.85,506.85,510.54,514.62,518.83,522.87,527.06,530.78,534.12,537.35,540.79,543.93,546.87,549.39,550.61,550.00,547.39,543.16,538.06,532.63,526.83,520.75,514.39,507.51,501.05,495.15,490.12,486.57,483.99,481.63,479.11,476.13,472.44,468.61
210.00,214.67,219.96,224.86,229.71,234.47,239.06,243.45,248.05,253.26,258.53,263.67,269.98,273.93,277.49,281.82,287.43,293.86,295.67,293.69,290.26,285.89,281.21,277.05,273.75,270.64,267.46,264.30,261.11,257.61,253.41,249.25,245.34,241.65,237.79,233.61,229.36,225.10,220.42,213.21,206.59,200.29,193.01,187.27,182.54,177.55,171.80,166.28,161.22,156.73,152.51,147.86,142.95,138.27,133.72,129.27,125.59,121.76,117.27,112.62,109.89,109.41,109.89,111.28,114.13,116.83,120.30,125.12,131.19,136.45,141.86,147.86,154.62,162.22,168.77,175.06,181.27,187.72,196.10,204.47,213.07,221.95,230.28,236.25,240.33,242.28,240.82,236.80,231.22,225.31,219.53,213.14,205.80,199.39,194.14,189.11,183.68,178.05,172.33,166.56,160.69,154.25,150.17,149.24,148.76,148.34,147.91,147.59,147.63,148.02,148.49,148.95,149.44,150.09,151.63,153.45,155.28,157.10,158.88,161.31,164.19,167.21,170.28,173.47,176.71,180.31,185.32,190.75,196.33,201.75,206.61,211.68,216.55,220.88,224.51,228.33,233.36,238.32,242.46,245.27,246.94,249.02,251.59,254.61,258.93,263.95,269.72,275.55,278.94,282.20,285.45,288.59,291.33,293.34,295.19,296.86,298.31,299.90,301.68,303.35,304.85,306.28,308.03,309.96,312.08,314.46,316.90,320.41,325.19,330.94,336.21,343.04,348.32,351.57,353.50,354.60,356.34,359.07,363.26,369.54,376.83,384.11,391.11,398.07,404.83,413.65,423.99,434.37,443.20,450.22,456.48,462.60,468.79,472.84,474.36,473.98,472.44,468.23,462.47,457.45,454.93,453.56,454.22,455.94,457.95,459.13,459.13,458.43,457.77,458.00,459.21,460.53,461.78,463.05,464.78,469.07,475.00,481.39,486.80,493.00,498.69,503.28,506.49,509.51,512.76,516.30,520.18,524.39,528.52,532.36,535.99,539.62,543.43,547.00,549.90,551.81,552.69,551.46,548.51,544.17,538.69,533.66,528.38,522.75,516.74,510.08,503.42,497.27,492.20,489.05,487.16,485.25,482.85,479.76,475.87,471.68
204.10,209.49,214.91,219.98,224.56,228.93,233.19,237.36,241.94,247.28,252.93,258.85,266.41,272.20,277.51,283.30,290.11,296.91,298.75,296.65,292.98,288.81,284.25,280.01,276.49,273.38,270.15,266.91,263.67,260.27,256.03,251.59,247.39,243.59,239.62,235.17,230.58,225.97,221.13,213.85,207.21,200.95,193.82,188.08,183.41,178.68,173.48,168.74,164.09,159.62,155.24,150.69,145.82,141.18,136.54,131.76,127.66,124.17,120.16,115.57,111.86,110.34,109.97,110.74,113.29,115.84,118.71,123.06,129.22,134.75,140.10,145.82,152.46,160.65,167.54,174.46,181.13,187.48,196.09,204.61,213.35,222.59,231.92,238.14,241.79,243.01,241.03,236.64,230.59,224.31,218.41,212.11,204.66,198.30,193.16,187.71,181.85,176.02,170.24,164.37,158.12,152.60,149.52,149.06,148.60,148.18,147.74,147.44,147.63,148.06,148.54,149.02,149.54,150.34,152.02,153.94,155.84,157.72,159.72,162.32,165.28,168.25,171.28,174.38,177.55,181.15,186.08,191.43,196.96,202.39,207.41,213.10,218.22,222.50,226.05,230.13,236.15,241.71,246.07,249.77,252.49,255.25,258.23,261.84,267.96,273.21,278.43,283.51,285.96,288.86,291.93,294.83,297.14,299.04,300.94,302.67,304.11,305.78,307.40,308.84,310.12,311.36,312.59,314.02,315.87,318.39,321.05,324.28,328.90,335.07,341.37,348.32,353.19,356.03,358.21,359.38,360.75,362.75,365.95,371.35,378.76,386.58,394.38,402.40,410.03,418.47,427.33,435.70,443.53,450.24,456.59,463.08,469.95,475.04,477.36,477.43,476.09,472.33,466.40,460.92,458.12,457.10,458.31,460.43,462.58,463.80,463.88,463.43,463.01,463.29,464.64,466.24,467.74,469.06,470.45,473.52,478.10,483.46,488.64,495.42,501.39,506.11,509.60,512.83,515.96,519.31,522.97,526.82,530.62,534.39,538.16,542.00,545.96,549.88,552.89,554.32,554.33,552.50,549.39,545.06,539.26,534.44,529.50,524.20,518.40,511.84,505.26,499.32,494.65,492.11,490.67,488.91,486.45,483.13,479.02,474.63
198.77,205.24,210.29,215.44,219.78,223.79,227.76,231.89,236.47,241.76,247.71,254.37,261.70,269.31,276.53,283.48,291.19,297.79,300.05,298.61,295.04,291.70,287.91,283.83,279.75,276.23,272.75,269.29,265.86,262.38,258.38,253.78,249.22,245.18,241.08,236.34,231.38,226.42,221.37,214.33,207.85,201.85,195.38,189.75,185.13,180.63,175.99,172.20,168.12,163.58,158.75,153.99,149.05,144.28,139.50,134.51,129.78,125.98,122.31,118.42,114.56,112.03,110.75,110.81,112.60,114.90,117.35,121.09,126.70,132.59,137.88,143.30,149.74,158.39,165.69,173.22,180.42,186.84,195.47,204.16,212.81,221.99,232.47,239.19,242.59,243.26,240.97,236.19,229.83,223.30,217.26,210.99,203.44,197.09,191.95,185.86,179.46,173.47,167.70,161.75,155.24,151.27,149.38,148.93,148.46,148.01,147.55,147.30,147.62,148.06,148.57,149.07,149.63,150.61,152.47,154.52,156.51,158.50,160.87,163.68,166.65,169.54,172.50,175.49,178.68,182.37,187.11,192.30,197.71,203.03,208.04,214.13,219.30,223.43,226.87,231.20,237.76,243.85,249.01,254.65,259.21,262.74,265.96,270.29,278.71,284.41,288.28,291.10,292.98,295.75,298.48,300.72,302.26,303.92,305.73,307.50,309.18,311.21,312.79,314.07,315.16,316.08,316.91,318.08,319.99,323.06,326.37,329.16,333.24,339.58,346.88,352.38,356.46,359.85,363.24,365.34,366.97,368.47,370.31,373.95,380.69,388.63,397.13,406.49,416.51,425.18,432.31,438.31,444.81,451.13,457.53,464.31,471.46,477.41,480.76,481.63,480.43,476.57,470.88,465.26,461.58,460.78,462.69,465.41,467.88,469.13,469.38,469.17,468.99,469.45,471.08,472.82,474.45,475.84,476.75,478.40,481.26,485.21,490.16,497.31,503.61,508.77,513.00,516.56,519.98,523.58,527.24,530.32,533.62,537.18,540.91,544.77,548.83,552.89,555.93,556.95,555.66,553.28,550.13,545.87,539.80,534.95,530.15,525.05,519.41,512.80,506.62,501.36,497.52,495.68,494.42,492.59,489.92,486.27,481.88,477.46
195.68,202.18,207.04,211.55,215.54,219.18,222.86,227.31,232.50,237.90,243.84,250.72,258.07,266.25,274.49,282.29,289.24,296.92,300.12,299.43,296.87,293.86,290.98,287.75,283.75,278.87,274.88,271.27,267.75,264.17,260.36,255.53,250.51,246.10,241.88,236.78,231.46,226.23,221.01,214.51,208.53,203.13,197.78,192.70,188.58,184.44,179.88,175.88,172.10,167.77,162.83,157.59,152.36,147.30,142.21,136.95,131.94,127.73,123.87,120.09,116.35,114.09,112.49,111.55,111.94,113.88,116.22,119.27,123.72,129.93,135.28,140.54,146.66,154.90,163.21,171.27,178.65,185.36,193.71,202.35,210.77,219.59,230.57,238.31,241.96,242.45,240.39,235.03,228.58,222.13,215.95,209.48,202.28,196.07,190.49,183.37,176.86,170.87,164.95,158.75,152.68,150.12,149.16,148.74,148.28,147.85,147.41,147.19,147.60,148.06,148.57,149.08,149.66,150.79,152.93,155.22,157.34,159.45,162.29,165.33,168.35,171.33,174.39,177.28,180.49,184.33,188.77,193.58,198.48,203.30,208.19,214.46,219.67,223.72,227.18,231.88,238.91,245.63,251.69,258.54,263.80,268.44,273.17,278.70,285.84,291.64,295.62,297.79,299.29,301.27,303.23,304.97,306.45,308.21,310.48,312.88,315.06,317.08,318.65,320.01,321.14,321.79,322.30,323.27,325.32,329.03,332.85,336.27,340.59,346.32,352.20,356.71,360.69,364.88,369.93,373.99,376.54,377.86,378.31,379.39,383.53,390.00,398.19,407.49,419.17,428.42,435.20,440.91,447.11,453.02,459.41,466.69,474.11,480.54,484.97,487.06,486.11,482.20,475.96,469.66,465.62,465.38,467.62,470.46,473.03,474.73,475.80,476.24,476.34,476.61,477.81,479.26,480.75,482.09,482.79,483.69,485.30,487.89,492.19,498.99,505.56,511.19,515.76,520.11,524.43,528.51,532.09,534.86,537.91,541.26,544.79,548.58,553.61,557.20,559.15,559.26,557.35,554.50,551.03,546.53,540.17,535.06,530.17,525.23,519.94,513.26,507.58,503.50,501.10,499.60,498.09,496.00,493.13,489.29,484.84,480.55
192.32,198.25,203.28,207.52,211.25,214.72,218.42,223.24,229.19,234.91,240.85,247.69,254.93,262.94,271.60,280.13,286.79,294.73,299.13,299.97,298.45,295.96,293.66,290.98,287.07,281.14,276.63,272.79,269.12,265.40,261.66,256.78,251.55,246.82,242.38,237.02,231.45,226.05,220.82,215.10,209.80,204.99,200.48,196.00,192.32,188.60,184.30,179.90,175.92,171.58,166.62,161.01,155.45,150.05,144.58,138.92,133.75,129.23,125.18,121.49,118.05,116.05,114.32,112.72,111.94,113.01,115.12,117.71,121.18,127.09,132.50,137.71,143.44,151.00,159.78,168.45,176.24,182.99,191.11,199.69,207.76,215.83,226.26,235.43,240.21,241.13,239.14,233.50,227.09,220.68,214.31,207.83,201.10,195.00,188.92,180.94,174.31,168.25,162.08,155.70,150.88,149.39,148.96,148.54,148.08,147.67,147.29,147.15,147.62,148.08,148.58,149.08,149.68,150.90,153.24,155.78,158.19,160.70,163.91,167.15,170.32,173.51,176.74,179.74,183.07,186.90,190.81,195.11,199.44,203.75,208.33,214.28,219.45,223.57,227.06,231.84,239.41,246.79,253.48,260.94,266.65,272.33,278.41,284.79,290.93,296.64,300.82,303.04,304.54,306.12,307.75,309.39,311.04,312.94,315.53,318.32,320.87,323.08,324.95,326.66,328.03,328.50,328.64,329.18,330.91,334.68,338.94,343.18,347.80,352.92,357.78,361.89,366.06,370.79,376.51,381.88,385.28,386.74,386.38,385.47,386.59,390.93,398.26,406.98,419.60,429.70,436.92,442.80,448.80,454.50,460.86,468.38,476.14,483.19,488.68,492.04,491.90,488.05,481.20,474.19,469.90,470.04,472.42,475.42,478.31,480.50,482.27,483.25,483.56,483.60,484.35,485.43,486.66,487.84,488.40,488.89,489.75,491.40,494.86,500.81,507.23,513.10,518.09,523.36,528.62,533.22,536.91,539.82,542.96,546.27,549.70,553.38,558.08,560.86,561.79,561.02,558.86,555.64,551.82,547.08,540.55,535.07,530.05,525.28,520.41,514.09,509.27,506.43,505.19,503.78,501.85,499.21,495.90,491.92,487.61,483.63
188.02,192.81,198.38,203.00,206.71,210.41,214.56,219.72,226.46,232.69,238.75,245.28,252.16,259.35,267.72,276.80,284.27,291.11,296.86,300.29,299.68,298.09,295.91,293.13,289.18,282.88,277.90,273.70,269.81,265.91,262.06,257.40,252.35,247.42,242.67,237.22,231.57,226.10,221.13,216.39,211.91,207.62,203.45,199.44,196.00,192.71,189.02,184.29,179.50,174.76,169.80,164.01,158.16,152.43,146.52,140.33,135.06,130.38,126.30,122.85,119.87,117.76,116.00,114.34,112.86,112.43,114.02,116.46,119.42,124.13,129.58,134.84,140.16,146.89,155.20,164.56,173.09,179.57,187.54,196.12,203.79,210.69,219.35,230.25,237.19,239.29,237.00,231.64,225.37,218.81,212.20,206.08,199.85,193.75,187.18,178.75,171.93,165.61,159.11,152.80,150.08,149.23,148.81,148.36,147.89,147.44,147.17,147.21,147.68,148.14,148.61,149.08,149.67,150.90,153.33,156.11,159.01,162.29,165.73,169.15,172.58,176.12,179.56,183.00,186.56,190.12,193.22,196.92,200.73,204.56,208.63,213.65,218.66,222.98,226.48,230.91,239.07,247.06,253.98,261.42,267.53,274.02,280.83,287.42,293.93,299.37,303.55,306.39,308.46,310.46,312.50,314.55,316.48,318.46,321.01,323.77,326.46,329.19,331.73,334.06,335.85,336.27,335.99,335.76,336.56,339.59,344.17,349.03,353.85,358.65,363.79,368.26,372.86,377.71,382.55,387.90,391.82,393.83,393.56,391.76,389.94,391.70,397.58,405.30,417.96,429.08,437.45,443.58,449.30,455.02,461.36,468.70,476.87,484.84,491.35,495.87,497.28,493.76,486.49,478.92,474.34,474.46,476.88,480.25,483.79,486.39,488.50,489.74,490.18,490.03,490.48,491.22,492.11,492.99,493.50,493.87,494.57,495.88,498.34,502.96,508.62,514.39,519.92,526.20,532.23,537.36,541.46,545.07,548.70,552.19,555.67,559.18,561.58,563.23,563.52,562.06,559.98,556.51,552.40,547.51,541.00,535.04,529.91,525.36,520.98,515.69,512.22,510.50,509.80,508.20,505.68,502.16,498.10,494.05,490.11,486.61
184.28,188.13,192.66,197.17,201.89,206.72,211.76,217.44,224.08,230.50,236.71,242.94,249.33,255.91,263.45,271.82,279.70,286.67,293.50,298.75,299.97,299.40,297.38,294.44,290.27,283.81,278.43,273.95,269.97,266.11,262.25,257.69,252.73,247.83,243.24,238.00,232.46,227.04,222.44,218.17,214.23,210.53,206.93,202.92,199.28,195.88,192.38,187.95,182.84,177.51,171.98,165.97,160.14,154.32,148.16,141.67,136.42,131.67,127.68,124.53,121.78,119.49,117.56,115.79,114.06,112.91,113.34,115.01,117.76,121.37,126.59,131.91,137.11,143.15,151.18,159.96,168.35,175.69,183.18,191.61,199.61,206.87,214.66,225.25,232.83,235.94,234.11,229.46,223.23,216.45,209.82,204.23,198.41,191.88,184.50,176.38,169.60,162.85,156.29,151.10,149.59,149.01,148.59,148.16,147.70,147.27,147.07,147.17,147.64,148.10,148.56,149.03,149.62,150.81,153.46,156.50,159.72,163.68,167.49,171.19,174.86,178.66,182.85,186.65,190.05,193.09,195.86,199.03,202.33,205.74,209.48,213.79,218.33,222.53,226.22,230.52,238.23,246.00,252.98,260.53,267.19,274.09,281.13,287.90,294.45,300.04,304.81,308.87,312.52,315.55,318.14,320.36,322.12,323.94,326.62,329.81,333.13,336.06,338.65,340.96,342.61,342.69,342.33,342.15,342.90,345.51,349.14,353.16,357.80,363.36,369.74,375.47,380.99,385.99,389.56,393.19,397.05,400.15,401.13,399.17,396.31,396.23,399.85,405.96,417.25,428.01,436.63,442.98,448.87,454.61,460.68,467.56,475.79,484.66,492.20,497.61,499.81,498.02,491.57,483.78,478.24,477.86,481.35,485.61,489.27,491.76,493.71,494.99,495.66,495.87,496.33,496.87,497.46,498.07,498.58,499.03,499.65,500.65,502.47,505.79,510.54,515.88,521.45,528.24,534.91,540.71,545.48,549.66,553.60,557.19,560.47,563.22,564.67,565.38,564.82,562.75,560.55,557.07,553.01,548.16,541.47,535.28,530.11,525.84,522.30,518.69,516.76,515.46,514.01,511.67,508.57,504.56,500.13,496.08,492.59,489.45
180.63,184.12,187.90,192.33,198.04,203.91,209.72,215.77,221.97,228.26,234.42,240.31,246.16,252.19,258.76,266.03,273.89,281.45,289.41,296.38,299.81,299.99,298.14,295.19,290.95,284.51,278.84,274.16,270.18,266.37,262.51,258.05,253.20,248.37,244.04,239.24,233.96,228.62,224.24,220.28,216.69,213.39,210.18,206.20,202.39,198.82,195.28,191.00,185.57,179.63,173.47,167.25,161.69,155.95,149.79,143.39,138.20,133.49,129.53,126.41,123.78,121.30,119.11,117.15,115.36,113.82,113.09,113.81,116.23,119.03,123.72,128.98,134.30,139.93,147.59,155.56,163.58,171.69,178.92,187.23,195.80,203.93,211.18,220.99,228.76,232.69,231.40,227.10,220.76,213.88,207.49,202.32,196.72,189.76,181.76,174.09,167.19,160.02,153.68,150.04,149.26,148.81,148.38,147.98,147.53,147.11,146.97,147.15,147.61,148.06,148.51,148.97,149.49,150.47,153.40,156.81,160.42,164.95,169.17,173.20,177.18,181.33,186.13,190.10,193.32,196.01,198.61,201.34,204.20,207.27,210.75,214.58,218.64,222.64,226.55,230.94,237.92,245.09,251.93,259.42,266.40,273.48,280.57,287.40,293.88,299.82,305.42,310.80,315.98,320.16,323.59,326.45,328.75,330.64,333.28,336.52,340.01,343.06,345.58,347.64,348.93,348.71,348.41,348.45,349.32,351.61,354.25,357.27,361.40,367.25,374.76,381.53,387.85,393.20,396.18,398.36,401.80,405.61,408.00,406.64,403.65,402.17,403.37,407.36,416.63,426.45,435.02,441.69,447.84,453.49,459.09,465.31,473.55,483.07,491.62,498.06,501.07,501.08,496.00,488.70,482.69,482.10,486.23,490.94,494.49,496.71,498.43,499.72,500.67,501.34,502.02,502.54,503.00,503.48,504.04,504.53,504.97,505.55,506.76,509.00,512.76,517.45,522.88,529.89,536.88,543.25,548.81,553.67,557.91,561.66,564.76,566.75,567.55,567.41,566.08,563.51,561.04,557.56,553.67,548.96,542.08,535.79,530.62,526.62,523.90,521.80,520.93,519.74,517.53,514.53,510.96,506.66,502.07,497.97,494.77,491.78
176.86,181.16,185.84,190.56,196.55,202.72,208.76,214.78,220.27,225.87,231.50,236.97,242.24,247.71,253.35,259.38,266.48,274.90,284.28,293.23,299.21,299.39,297.72,295.14,291.26,285.19,279.41,274.69,270.81,266.96,263.10,258.78,254.10,249.31,245.22,241.15,236.39,231.09,226.60,222.82,219.33,215.97,212.65,209.03,205.38,201.77,197.95,193.10,187.08,180.56,173.95,167.67,162.67,157.28,151.56,145.99,140.86,136.40,132.27,128.57,125.89,123.30,120.72,118.40,116.69,115.07,113.59,113.30,114.92,117.53,121.14,126.10,131.95,137.64,144.67,152.02,159.64,167.67,175.38,183.75,192.98,202.23,209.10,218.34,226.15,230.54,229.50,224.47,217.76,211.13,205.43,200.32,194.60,187.50,179.47,172.09,164.59,157.09,151.46,149.68,149.13,148.69,148.26,147.85,147.40,146.94,146.90,147.21,147.67,148.07,148.51,148.93,149.25,149.60,152.85,156.93,161.20,166.09,170.74,175.13,179.57,184.38,189.13,192.88,196.09,198.99,201.45,203.91,206.51,209.36,212.69,216.37,220.10,223.91,227.99,232.90,239.09,245.38,251.64,258.65,265.30,272.29,279.35,285.98,292.26,298.80,305.48,312.03,317.96,323.24,328.07,332.81,337.55,340.11,342.26,344.41,346.74,349.88,352.43,354.14,354.91,354.60,354.49,354.69,355.52,357.47,359.85,362.38,365.41,369.94,377.71,384.48,391.07,397.19,401.28,403.68,406.28,409.61,413.09,413.63,411.38,409.07,407.98,409.05,415.67,424.07,432.39,439.64,445.94,451.30,456.12,461.37,469.71,479.36,488.84,496.84,501.12,502.25,499.09,493.69,488.75,488.86,492.06,495.88,499.12,501.02,502.63,504.05,505.30,506.37,507.49,508.31,509.03,509.73,510.38,510.70,510.68,510.57,511.01,512.67,515.37,519.10,524.30,531.15,537.84,544.42,550.87,556.71,561.39,565.43,568.62,570.11,570.16,569.30,567.48,564.64,561.67,558.11,554.44,549.97,543.01,536.74,531.62,527.85,525.69,524.26,523.31,521.95,519.74,516.55,512.74,508.45,503.93,499.59,496.28,493.01
175.53,181.18,186.50,191.77,197.53,203.13,208.43,213.51,218.27,223.09,227.82,232.34,237.05,242.38,247.92,253.68,260.31,268.52,278.00,287.49,294.65,296.42,296.05,294.34,291.09,286.14,280.66,275.97,272.05,268.11,264.42,260.33,255.74,250.83,246.66,242.94,238.78,233.97,229.10,225.29,221.78,218.32,214.88,211.33,207.72,204.05,199.99,194.63,188.37,181.68,174.88,168.50,163.64,158.65,153.44,148.37,143.64,139.57,135.52,131.50,128.25,125.30,122.28,119.50,117.57,115.84,114.28,113.41,113.94,116.41,119.35,123.81,129.57,135.42,142.02,149.25,156.87,164.71,172.55,181.56,191.57,201.43,208.32,216.94,223.64,227.08,226.09,221.55,215.37,209.07,203.31,197.84,191.97,185.13,177.51,169.90,162.09,155.02,150.31,149.44,149.00,148.59,148.18,147.78,147.36,146.93,146.86,147.11,147.49,147.78,148.05,148.30,148.47,148.68,152.17,157.00,162.20,167.43,172.15,176.62,181.34,186.56,191.11,194.84,198.22,201.34,203.88,206.33,208.95,211.83,215.05,218.56,222.03,225.64,229.78,235.14,241.13,247.31,253.69,260.66,267.57,274.47,281.00,286.82,292.86,299.40,306.19,312.95,319.42,325.49,331.85,338.03,342.66,345.97,348.65,351.31,354.28,357.42,359.85,361.66,362.67,362.33,362.02,361.78,361.97,363.18,365.22,367.97,371.24,375.28,380.62,385.70,391.88,398.61,403.98,407.88,411.08,414.34,417.72,419.64,418.42,416.52,415.23,415.37,418.23,423.11,429.39,436.61,443.39,449.12,454.34,459.88,467.55,476.68,485.80,494.11,500.42,503.55,501.92,497.84,494.02,493.88,496.45,499.68,502.59,504.54,506.28,508.06,509.79,511.26,512.56,513.58,514.53,515.45,516.04,516.17,515.94,515.64,515.80,516.93,519.18,522.41,526.84,532.75,539.00,545.45,552.06,558.53,563.64,567.65,570.64,572.13,571.87,570.69,568.69,565.85,562.60,559.07,555.54,551.55,545.80,538.83,533.51,529.94,527.83,526.49,524.78,522.85,520.63,517.53,513.42,508.92,504.27,499.64,495.87,492.20
175.27,182.11,187.87,193.58,198.94,203.71,207.96,211.86,215.85,219.87,223.66,227.22,231.51,236.88,242.72,248.78,255.16,262.84,271.84,281.12,288.80,292.70,293.92,293.31,291.03,287.49,282.55,277.88,273.77,269.78,266.21,262.33,257.87,252.85,248.29,244.70,241.13,236.97,231.90,227.84,224.18,220.58,216.96,213.40,209.80,206.02,201.68,196.00,189.85,183.25,176.40,169.95,165.06,160.42,155.67,150.90,146.50,142.73,138.87,134.71,130.75,127.27,123.75,120.52,118.28,116.50,115.06,113.84,113.38,115.49,117.95,121.85,127.23,133.23,139.61,146.88,154.59,162.26,170.03,179.57,190.26,200.68,207.83,215.69,221.13,223.50,222.56,218.67,213.12,207.06,201.04,195.13,189.17,182.66,175.44,167.45,159.56,153.31,149.66,149.26,148.87,148.47,148.08,147.70,147.31,146.92,146.82,146.99,147.30,147.52,147.67,147.80,147.94,148.19,151.76,157.16,163.23,168.72,173.40,177.91,182.81,188.28,192.59,196.38,199.99,203.36,206.10,208.82,211.60,214.47,217.52,220.84,224.12,227.61,231.84,237.52,243.51,249.90,256.72,263.81,271.34,278.22,284.27,289.63,295.10,301.10,307.38,313.91,320.76,327.51,334.97,341.99,346.06,350.11,353.66,357.31,361.36,364.58,366.93,368.90,370.27,370.07,369.65,369.06,368.70,369.19,370.88,373.91,377.62,381.40,384.19,387.33,392.56,399.30,405.67,411.29,415.66,419.27,422.46,425.42,425.42,424.50,423.74,423.56,423.08,424.24,427.69,433.89,440.83,447.13,453.26,459.78,467.16,475.75,484.08,491.99,499.69,504.61,504.39,501.53,498.70,498.04,500.15,503.00,505.64,507.84,509.86,512.07,514.28,516.07,517.48,518.65,519.79,520.85,521.31,521.31,521.03,520.71,520.75,521.46,523.58,526.60,530.26,535.05,540.67,546.72,553.13,559.83,565.26,569.20,572.00,573.67,573.27,571.88,569.84,567.08,563.68,560.29,556.93,553.42,549.00,541.48,535.98,532.52,530.22,528.56,525.93,523.26,520.78,517.65,513.26,508.45,503.55,498.70,494.48,490.46
175.84,182.80,188.50,194.04,199.03,203.11,206.38,209.20,212.36,215.62,218.75,221.88,226.20,231.74,238.32,245.47,252.10,259.34,267.34,275.55,283.03,289.13,291.70,292.36,291.87,289.81,285.84,281.11,276.43,272.57,268.75,264.98,260.84,255.88,250.25,246.49,243.38,240.00,235.52,230.77,226.60,222.80,218.88,215.28,211.71,207.67,202.85,197.50,192.19,186.13,179.42,172.93,168.03,163.50,158.91,154.21,149.44,145.54,141.90,138.02,133.44,129.08,124.97,121.39,118.88,117.30,115.96,114.67,113.83,114.80,117.01,120.39,125.00,131.10,137.61,144.96,152.72,160.36,167.70,176.73,187.66,199.09,206.83,213.56,218.44,221.03,220.26,216.26,210.65,204.51,198.34,192.28,186.39,179.95,172.63,164.40,156.73,151.85,149.51,149.13,148.74,148.31,147.89,147.51,147.12,146.74,146.72,147.00,147.38,147.76,148.10,148.44,148.82,149.29,152.43,157.69,164.03,169.63,174.36,179.01,184.02,189.38,193.54,197.45,201.30,204.98,208.10,211.73,214.74,217.20,219.88,223.01,226.21,229.85,234.46,240.06,246.05,252.89,260.37,267.68,276.37,283.49,289.84,296.52,300.43,304.61,309.51,315.31,322.25,329.62,336.72,343.00,347.81,352.48,356.92,361.41,365.95,369.73,372.29,374.12,375.35,375.80,376.01,376.09,376.13,376.35,377.75,380.46,383.78,387.21,390.00,392.20,395.52,400.38,406.69,413.32,419.18,424.09,428.03,431.51,433.09,433.66,433.58,432.90,431.70,430.75,430.82,433.25,438.98,445.76,453.22,461.56,470.82,479.59,487.08,493.57,499.68,504.75,505.96,504.56,502.23,501.30,503.21,505.92,508.59,511.27,513.86,516.45,518.87,520.78,522.33,523.62,524.75,525.68,526.06,526.10,526.00,525.80,525.61,526.23,528.57,531.86,535.39,539.32,543.82,548.98,554.76,560.76,566.19,570.21,573.16,575.20,574.63,573.03,570.93,568.30,564.97,561.93,558.93,555.68,551.48,544.77,539.43,535.72,533.08,530.39,526.99,523.47,519.97,516.06,511.51,506.24,500.87,496.25,491.93,487.92
175.21,182.00,187.58,192.76,197.20,200.79,203.61,205.81,208.65,211.88,215.12,218.36,222.64,228.05,234.67,242.05,248.78,255.79,263.13,270.52,277.60,284.58,289.07,291.48,292.08,291.30,289.00,285.11,280.31,275.95,271.91,268.00,263.91,259.24,253.55,248.98,245.43,242.39,238.57,233.72,229.20,225.05,220.91,217.05,213.33,209.22,204.46,199.55,194.79,189.54,183.44,176.40,171.58,167.24,162.77,158.00,152.99,148.50,144.47,140.49,135.64,130.80,126.27,122.29,119.34,117.77,116.45,115.19,114.22,114.26,116.27,119.25,123.26,129.37,136.09,143.68,151.54,159.01,166.16,174.82,185.00,195.84,204.67,210.82,215.03,217.39,216.90,213.13,207.37,201.21,195.38,189.47,183.45,176.70,169.09,161.02,154.15,150.64,149.38,148.96,148.57,148.15,147.74,147.35,146.97,146.61,146.67,147.05,147.44,147.86,148.29,148.71,149.15,149.69,152.75,158.08,164.66,170.39,175.24,180.03,185.08,190.25,194.37,198.39,202.43,206.48,210.59,215.08,218.41,220.71,222.99,225.66,228.76,232.41,236.98,242.84,249.24,256.36,264.10,272.04,281.02,288.99,295.92,301.81,305.33,308.62,312.44,317.31,323.87,330.81,337.38,343.37,348.69,353.58,358.64,363.92,369.17,373.70,376.85,379.23,381.11,382.57,383.68,384.17,384.12,383.80,384.45,386.55,389.64,393.18,395.96,397.72,399.81,403.05,408.44,415.29,422.33,428.68,433.72,437.72,440.39,442.15,443.07,442.82,441.73,440.00,438.23,437.68,441.14,447.29,455.30,464.98,475.51,484.01,490.89,496.65,501.64,506.42,508.20,507.54,505.45,504.25,505.99,508.81,511.81,514.80,517.89,520.77,523.29,525.27,527.10,528.61,529.89,530.87,531.22,531.28,531.19,530.92,530.46,530.89,533.37,536.93,540.62,544.26,548.14,552.61,557.64,562.62,567.46,571.62,574.93,576.95,576.54,574.77,572.45,569.77,566.60,563.75,560.98,557.98,554.09,548.60,543.15,538.55,535.07,531.39,527.48,523.52,519.48,514.95,510.04,504.54,499.17,495.01,490.96,486.98
173.69,180.00,185.28,189.86,193.59,196.83,199.63,201.83,204.91,208.58,212.34,215.97,220.16,225.28,231.52,238.56,245.34,252.17,259.11,266.04,272.80,279.80,286.16,290.46,292.05,292.55,292.00,289.28,284.73,279.66,275.37,271.17,266.98,262.67,257.56,252.01,247.56,244.41,241.12,236.58,231.89,227.36,223.02,218.80,214.82,210.74,206.32,201.86,197.43,192.94,187.57,180.04,175.19,171.07,166.77,161.96,156.88,151.67,146.90,142.50,137.49,132.35,127.49,123.12,119.70,118.05,116.75,115.57,114.61,113.95,115.68,118.30,121.85,127.88,134.79,142.66,150.62,157.91,165.05,173.33,182.23,191.60,201.36,207.38,211.01,212.92,212.64,209.16,203.44,197.46,192.13,186.40,180.05,172.86,165.07,157.58,151.95,149.70,149.21,148.78,148.39,148.00,147.60,147.22,146.84,146.54,146.67,147.10,147.50,147.89,148.33,148.76,149.16,149.71,152.96,158.53,165.31,171.16,176.12,181.08,186.15,191.09,195.23,199.34,203.49,207.91,213.31,218.54,222.23,224.61,226.55,228.64,231.56,235.13,239.53,245.80,252.72,259.98,267.68,276.27,285.19,294.03,301.38,305.71,309.47,312.54,315.69,319.69,325.48,331.49,337.50,343.43,349.05,353.95,359.46,365.50,371.67,377.11,381.11,384.43,387.40,390.06,391.99,392.58,392.12,391.14,390.91,392.33,395.19,398.94,401.66,403.30,404.70,406.77,411.04,417.88,425.85,433.40,439.39,443.93,447.40,450.09,451.88,452.37,451.65,449.93,447.45,444.93,445.84,450.67,458.68,469.31,480.32,488.31,494.78,500.29,504.61,508.85,510.79,510.50,508.45,506.95,508.62,511.70,515.19,518.50,522.01,525.12,527.70,529.80,531.90,533.74,535.34,536.54,536.91,536.94,536.69,536.14,535.38,535.55,538.06,541.82,545.72,549.32,552.92,556.89,561.18,565.14,569.26,573.50,577.15,578.98,578.84,576.98,574.38,571.50,568.45,565.67,563.04,560.28,556.79,552.53,546.99,541.33,536.64,532.11,527.85,523.71,519.45,514.53,509.31,503.74,498.54,494.76,491.06,487.09
171.18,176.44,180.57,183.83,186.75,189.75,193.07,197.06,201.50,205.91,210.14,214.17,218.21,223.17,228.86,235.23,242.18,248.49,255.39,262.75,269.86,276.38,282.99,288.65,292.52,294.81,294.72,292.53,288.64,283.50,278.66,274.15,269.87,265.70,261.39,255.73,250.46,246.36,243.00,238.99,234.50,229.84,225.25,220.64,216.45,212.35,208.16,203.95,199.67,195.18,190.00,183.38,177.91,173.73,169.89,165.54,160.79,155.28,149.80,144.54,139.00,133.38,128.21,123.59,119.91,118.37,117.25,116.19,115.19,114.29,115.35,117.47,120.75,126.46,133.37,141.22,149.19,156.63,163.88,171.43,179.04,186.90,195.76,202.22,206.01,207.63,207.11,203.35,198.59,193.55,188.20,182.05,174.97,167.62,160.53,154.56,150.87,149.41,148.98,148.58,148.24,147.83,147.41,147.03,146.66,146.51,146.70,147.12,147.56,147.95,148.39,148.82,149.22,149.79,153.54,159.54,166.46,172.24,177.20,182.33,187.53,192.30,196.51,200.59,204.68,209.29,215.71,221.43,225.53,228.29,230.30,231.94,234.34,237.78,242.60,248.99,255.97,263.05,270.39,278.78,288.26,296.59,303.14,307.68,311.54,314.96,318.42,322.27,326.85,332.16,337.79,343.51,349.07,354.15,359.95,366.67,374.09,380.69,385.75,390.13,394.21,397.95,399.73,399.84,398.84,397.33,396.77,397.83,400.19,403.38,406.06,407.82,409.30,411.32,415.57,423.14,431.69,439.25,444.75,449.76,454.17,457.23,458.72,458.97,458.08,456.59,454.65,452.51,452.13,455.27,462.68,473.81,483.53,491.01,497.44,503.04,507.25,510.79,513.15,513.40,511.06,509.31,511.26,514.72,518.63,522.59,526.49,529.78,532.57,535.05,537.12,539.43,541.69,543.39,543.84,543.65,542.90,541.74,540.60,540.50,542.81,546.43,550.18,553.45,556.99,560.80,564.69,568.34,572.42,576.49,579.88,581.59,581.58,579.78,577.02,573.74,570.43,567.67,565.13,562.54,559.55,555.63,550.67,544.81,538.45,533.55,529.12,524.87,520.61,515.92,511.05,505.54,500.06,495.78,491.87,487.89
167.51,172.08,175.55,178.20,181.01,184.32,188.31,193.30,198.58,203.49,208.02,212.28,216.48,221.41,226.78,232.79,240.07,246.27,253.09,260.58,268.13,274.75,281.48,287.87,293.30,296.99,297.71,296.00,292.23,286.56,281.23,276.52,272.27,268.31,264.44,259.38,253.88,248.72,244.95,241.09,236.76,232.13,227.46,222.55,218.01,213.71,209.51,205.43,201.30,196.78,191.66,185.80,180.08,175.79,172.11,168.07,163.52,158.08,152.23,146.20,140.12,134.06,128.60,123.83,120.07,118.67,117.69,116.70,115.69,114.73,115.20,116.89,119.89,124.89,131.63,139.41,147.48,155.21,162.15,168.73,175.12,181.71,189.23,195.47,199.29,200.88,200.20,196.74,192.38,187.60,182.29,176.14,169.19,162.52,156.64,152.05,150.01,149.19,148.76,148.36,148.01,147.62,147.22,146.83,146.48,146.49,146.75,147.16,147.62,148.01,148.45,148.89,149.28,149.89,154.66,161.22,167.99,173.61,178.66,183.90,189.06,193.60,197.81,201.95,206.23,211.26,218.30,224.28,228.72,231.90,234.12,235.46,237.55,240.95,245.99,252.10,258.76,265.44,272.32,280.30,289.59,297.53,303.82,308.72,312.88,316.70,320.52,324.45,328.52,333.75,339.24,344.67,350.10,355.36,361.57,368.69,376.47,383.97,389.87,395.10,400.06,404.50,406.38,406.33,405.06,403.13,402.16,402.78,404.71,407.64,410.59,412.54,414.21,416.52,421.22,428.99,437.12,444.41,450.36,455.93,460.58,463.61,464.90,465.02,464.29,463.19,461.83,460.31,459.39,461.12,467.22,477.44,485.81,493.02,499.60,505.44,509.90,513.35,515.83,516.41,514.38,512.42,514.09,517.59,521.97,526.74,530.95,534.53,537.72,540.67,543.05,545.39,547.59,549.25,549.70,549.50,548.68,547.37,545.97,545.72,547.57,550.65,554.07,557.28,560.93,564.72,568.44,572.07,576.06,579.84,582.97,584.72,584.74,582.81,579.76,576.16,572.75,569.89,567.26,564.68,561.88,558.41,553.86,547.86,540.55,535.14,530.67,526.42,522.10,517.50,512.80,507.43,501.84,496.90,492.22,487.93
162.80,167.08,170.50,173.37,176.72,180.77,185.42,190.56,196.08,201.25,205.98,210.38,215.00,220.03,225.34,231.39,239.25,245.77,252.43,259.71,267.59,274.81,281.62,288.26,294.46,299.07,300.90,299.63,295.49,288.92,283.20,278.38,274.24,270.56,266.80,262.74,257.54,251.57,247.08,243.02,238.74,234.23,229.62,224.49,219.53,214.84,210.45,206.40,202.41,197.88,192.76,187.32,181.72,177.30,173.50,169.57,165.06,159.91,153.98,147.38,140.81,134.39,128.74,123.90,120.20,118.92,118.01,117.05,116.08,115.18,115.18,116.51,119.14,123.13,129.50,137.13,145.35,153.52,159.83,165.27,170.57,176.08,182.12,187.54,191.19,192.82,192.13,189.43,184.97,179.94,174.83,169.14,163.16,157.83,153.42,150.03,149.21,148.89,148.52,148.10,147.71,147.37,147.01,146.63,146.31,146.48,146.83,147.23,147.69,148.09,148.53,148.96,149.38,150.16,156.29,163.46,169.80,175.21,180.40,185.66,190.66,194.96,199.17,203.46,208.17,213.82,221.10,227.19,231.92,235.53,238.07,239.37,241.37,244.69,249.57,255.09,261.12,267.23,273.56,280.96,289.35,297.16,303.82,309.02,313.64,317.92,322.11,326.30,330.63,336.28,341.77,346.92,352.29,357.72,364.31,371.50,378.93,386.95,393.43,399.29,404.88,409.71,412.04,412.25,410.98,408.77,407.29,407.38,408.98,411.94,415.40,417.63,419.63,422.50,427.88,435.19,442.23,449.19,456.31,462.31,466.55,469.27,470.59,470.82,470.66,470.16,469.41,468.50,467.64,468.33,472.52,480.44,487.42,494.47,501.30,507.54,512.49,516.47,518.99,519.84,518.67,516.50,517.33,520.51,525.39,530.88,535.30,539.26,542.96,546.33,549.21,551.24,552.81,553.98,554.43,554.40,553.91,552.93,551.50,551.15,552.32,554.57,557.59,561.00,564.86,568.71,572.43,576.16,579.94,583.38,586.26,588.07,588.08,585.89,582.54,578.74,575.36,572.29,569.43,566.66,563.80,560.84,556.49,550.46,542.98,536.83,532.36,528.19,523.74,519.03,514.26,509.01,503.36,497.61,491.84,487.04
157.21,161.56,165.59,169.68,173.95,178.43,183.20,188.40,193.96,199.33,204.34,209.05,214.18,219.60,225.23,231.85,241.04,248.06,254.61,261.51,269.06,276.46,283.13,289.93,296.82,301.55,303.66,302.49,298.16,291.21,285.21,280.19,276.00,272.49,268.91,265.02,260.50,255.27,249.72,245.22,240.81,236.26,231.59,226.38,221.04,216.01,211.52,207.38,203.36,198.72,193.44,187.96,182.48,177.96,174.01,170.00,165.38,160.15,154.19,147.58,140.87,134.31,128.67,123.91,120.22,118.95,118.08,117.22,116.35,115.50,115.11,116.07,118.24,121.05,126.60,133.65,141.88,150.76,156.69,161.25,165.62,170.20,175.12,179.84,182.94,184.20,183.41,180.95,176.94,172.39,167.81,163.02,158.42,154.19,150.67,148.63,148.21,148.16,148.07,147.86,147.45,147.08,146.70,146.37,146.25,146.55,146.95,147.35,147.81,148.21,148.65,149.08,149.68,151.36,158.44,165.78,171.62,176.75,181.96,187.19,192.16,196.59,200.97,205.45,210.68,217.00,224.07,230.30,235.45,239.59,242.63,244.72,246.78,249.37,252.97,257.77,263.11,268.60,274.26,280.48,288.03,295.97,303.16,308.60,313.57,318.70,323.66,328.43,333.83,339.63,345.02,350.26,356.19,361.70,367.79,374.53,381.92,389.81,396.55,402.85,408.85,413.88,417.03,417.96,417.10,414.91,412.99,412.67,413.92,416.70,420.44,423.43,426.44,430.27,435.91,442.05,448.92,456.03,462.69,467.94,471.57,474.08,475.65,476.39,477.27,477.99,478.38,478.24,477.89,478.08,480.11,484.36,488.96,495.17,502.20,509.10,514.56,519.50,523.26,525.36,525.06,522.48,522.08,524.63,529.66,535.00,539.41,543.54,547.40,550.61,553.20,555.07,556.60,557.83,558.45,558.68,558.57,558.10,557.26,556.61,557.00,558.59,561.54,565.13,568.99,572.81,576.48,580.02,583.57,586.74,589.23,590.48,590.43,588.48,585.31,581.45,577.96,574.73,571.53,568.37,565.45,562.42,558.31,552.96,546.22,538.75,533.92,529.77,525.27,520.40,515.18,509.46,503.06,495.89,489.85,484.94
152.19,157.06,161.69,166.68,171.54,176.34,181.22,186.44,192.03,197.71,203.27,208.71,214.61,220.59,226.87,234.27,244.06,251.06,257.44,264.12,271.39,278.60,284.88,291.80,299.44,304.29,306.43,305.23,300.81,293.57,287.33,282.16,277.88,274.37,270.83,267.01,263.03,258.56,252.67,247.60,242.84,238.16,233.40,228.15,222.62,217.37,212.71,208.31,204.22,199.53,194.13,188.41,182.99,178.20,173.81,169.49,164.66,159.39,153.54,147.11,140.49,134.03,128.50,123.85,120.21,118.95,118.12,117.32,116.57,115.79,115.18,115.80,117.50,119.50,123.91,129.86,137.39,146.36,152.91,157.11,160.71,164.43,168.34,172.42,175.09,176.08,175.28,173.09,169.51,165.54,161.72,157.86,154.32,151.12,148.54,147.39,147.11,147.17,147.30,147.31,147.05,146.75,146.43,146.19,146.31,146.69,147.04,147.32,147.62,148.08,148.61,149.13,150.17,153.80,160.99,167.84,173.28,178.25,183.39,188.59,193.67,198.44,203.15,207.88,213.29,219.68,226.59,233.18,238.83,243.45,246.96,249.58,251.57,253.51,256.04,260.15,264.88,269.91,275.14,280.64,287.58,295.39,302.68,308.17,313.52,319.40,325.21,330.81,336.99,342.78,348.31,353.90,359.94,365.22,370.95,377.51,384.97,392.33,399.05,405.64,412.06,417.57,421.71,423.47,423.11,421.04,419.02,418.61,419.74,422.44,426.33,430.15,434.10,438.57,444.10,449.51,455.99,462.66,468.46,473.06,476.47,479.18,481.34,482.93,484.69,486.30,487.48,487.95,488.10,488.22,488.78,490.16,492.34,496.80,503.07,510.05,516.14,522.51,527.80,531.03,531.14,528.63,527.49,529.22,533.63,538.50,543.02,547.27,551.11,554.19,556.68,558.69,560.38,561.67,562.32,562.60,562.58,562.29,561.79,561.14,561.20,562.48,565.36,569.07,572.95,576.73,580.32,583.74,586.96,589.66,591.64,592.53,592.24,590.52,587.68,584.01,580.41,576.98,573.48,570.00,566.90,563.69,559.83,555.11,548.96,540.40,535.22,531.02,526.46,521.45,515.66,509.16,501.73,493.35,487.61,482.87
148.33,154.20,159.26,164.46,169.41,174.46,179.65,184.89,190.53,196.64,203.07,209.72,216.64,223.24,230.45,238.79,248.00,254.31,260.42,267.12,274.32,280.92,286.61,293.59,302.00,307.17,309.17,307.95,303.56,296.04,289.58,284.35,279.98,276.22,272.53,268.83,265.11,261.03,255.84,250.12,244.78,239.86,234.99,229.72,224.23,218.94,214.03,209.19,204.98,200.33,194.91,188.82,183.41,178.09,172.93,168.01,162.89,157.75,152.17,146.03,139.78,133.66,128.31,123.75,120.21,118.97,118.17,117.42,116.73,116.08,115.47,115.78,117.01,118.74,121.73,126.05,132.01,140.04,148.31,152.81,155.93,158.92,161.92,165.43,167.86,168.83,168.18,166.39,163.12,159.70,156.84,153.81,150.81,148.56,147.12,146.17,145.90,145.95,146.12,146.31,146.40,146.35,146.21,146.12,146.50,146.91,147.10,147.11,147.08,147.68,148.37,149.04,150.83,157.48,163.85,169.55,174.76,179.71,184.68,189.88,195.22,200.52,205.69,210.75,215.92,221.62,228.56,235.72,241.90,246.93,250.77,253.40,255.20,256.78,258.78,262.19,266.48,271.26,276.39,281.93,288.60,295.88,302.63,307.91,313.68,320.08,326.73,333.39,339.74,345.40,351.38,357.55,363.00,367.68,373.44,380.30,387.81,394.35,400.78,407.52,414.45,420.84,426.12,428.76,428.96,427.20,425.54,425.37,426.66,429.45,433.35,437.90,442.49,447.08,452.05,457.42,462.99,468.36,473.19,477.62,481.40,484.81,487.94,490.65,492.95,494.83,496.21,496.96,497.53,497.93,498.13,498.11,498.19,499.97,504.25,510.37,517.15,525.37,532.30,536.30,536.27,534.49,533.31,534.07,537.01,541.20,546.02,550.32,554.00,557.20,560.03,562.50,564.46,565.66,566.13,566.19,565.86,565.26,564.65,564.41,564.80,566.17,568.95,572.68,576.62,580.37,583.86,587.26,590.09,592.04,593.41,594.36,593.58,591.91,589.50,586.28,582.63,578.89,575.18,571.56,568.13,564.75,561.12,556.77,550.72,541.58,536.14,531.83,527.19,522.07,515.65,508.13,499.58,490.52,485.65,481.29
146.54,153.04,158.46,163.76,169.03,174.79,180.79,186.30,191.98,198.47,205.52,212.76,219.63,225.89,233.44,242.45,250.74,256.62,262.77,269.61,276.56,282.48,288.00,294.81,302.91,308.34,310.21,309.62,306.23,298.49,291.76,286.52,282.06,277.90,274.02,270.14,266.36,262.54,258.05,252.28,246.71,241.48,236.26,230.79,225.47,220.27,215.14,210.01,205.59,200.90,195.50,189.22,183.84,178.28,172.60,167.06,161.62,156.54,151.34,145.89,140.38,134.46,129.03,124.25,120.41,119.17,118.42,117.72,117.07,116.45,115.87,115.82,116.51,118.10,120.11,123.47,128.08,134.06,141.68,146.80,150.76,154.20,156.90,159.57,161.46,162.32,161.84,160.42,157.92,155.19,152.74,150.29,147.90,146.25,145.34,144.67,144.60,144.75,144.95,145.13,145.29,145.50,145.77,146.14,146.64,147.09,147.32,147.40,147.53,147.98,148.16,148.47,150.69,159.20,165.77,171.16,176.12,180.98,185.84,191.29,197.04,202.61,207.91,213.37,218.87,224.60,231.45,238.67,244.94,250.01,253.78,256.62,258.85,260.62,262.13,264.50,268.15,272.64,277.79,283.62,290.23,297.00,303.05,307.81,313.56,320.55,327.90,335.01,341.35,347.19,353.52,359.84,364.69,369.43,375.19,381.97,389.29,395.47,401.79,408.74,416.29,423.85,430.19,434.02,435.56,435.10,434.16,433.87,434.83,437.40,441.27,445.56,450.06,454.48,458.39,462.70,467.42,472.13,476.63,481.55,485.96,489.93,493.53,496.66,498.95,500.73,502.03,502.75,503.42,503.98,504.38,504.55,504.42,505.02,507.19,511.25,517.95,526.80,535.01,540.14,540.48,539.11,538.06,538.38,540.44,544.06,548.50,552.72,556.61,560.30,563.77,566.46,568.34,569.37,569.82,569.71,569.10,568.22,567.56,567.53,568.33,570.00,572.75,576.53,580.22,583.76,587.14,590.30,592.71,594.44,595.64,596.14,594.96,593.19,590.93,587.94,584.16,580.19,576.33,572.60,568.97,565.49,561.99,557.70,551.45,542.37,536.70,532.19,527.44,522.07,515.39,507.29,498.50,490.47,485.97,481.50
145.23,152.12,158.01,163.55,169.33,176.00,182.96,188.73,194.40,201.03,208.34,215.77,222.35,228.32,236.05,245.35,252.79,258.45,264.65,271.49,278.08,283.34,288.57,295.16,303.01,308.63,310.59,310.69,308.36,301.00,294.23,288.91,284.26,279.65,275.49,271.31,267.33,263.55,259.50,253.96,248.36,242.97,237.51,231.72,226.47,221.41,216.21,210.90,206.25,201.49,196.12,189.77,184.33,178.69,172.79,166.91,161.40,156.37,151.39,146.39,141.51,135.79,130.23,125.16,121.04,119.51,118.71,118.06,117.46,116.88,116.31,115.97,116.19,117.52,118.88,121.38,124.78,129.06,135.10,140.30,144.91,148.96,151.95,154.18,155.63,156.29,155.96,154.87,153.05,150.92,148.75,146.74,144.95,143.87,143.39,143.07,143.30,143.56,143.76,143.95,144.24,144.71,145.34,146.08,146.69,147.24,147.59,147.84,148.15,148.27,148.06,148.56,151.73,160.59,167.25,172.55,177.34,182.15,186.95,192.66,198.75,204.49,209.91,215.76,221.66,227.70,234.75,242.00,248.06,252.83,256.63,259.87,262.63,264.75,266.15,267.88,270.83,274.78,279.64,285.60,292.38,298.58,303.75,307.94,313.54,320.89,328.63,335.91,342.17,348.12,354.63,360.99,365.54,370.54,376.39,382.99,389.99,396.07,402.44,409.67,417.90,426.74,434.19,439.06,441.68,442.36,442.15,442.04,442.95,445.39,449.07,452.75,456.69,460.59,463.70,467.05,471.07,475.42,479.99,485.41,490.38,494.74,498.53,501.80,504.00,505.83,507.34,508.30,509.38,510.35,511.22,511.86,511.92,511.98,512.40,514.14,519.31,527.53,536.27,542.50,544.00,543.59,542.96,542.99,544.20,547.15,550.92,554.94,559.06,563.23,567.20,569.97,571.77,572.77,573.32,573.18,572.52,571.63,571.09,571.17,572.18,574.00,576.70,580.29,583.70,587.02,590.30,593.26,595.41,596.99,597.95,597.85,596.36,594.46,592.17,589.23,585.36,581.20,577.14,573.23,569.45,565.91,562.49,558.09,551.40,542.69,536.96,532.29,527.48,522.01,515.38,507.17,498.60,491.87,487.50,482.79
143.84,150.80,157.47,163.55,170.12,177.87,185.81,191.74,197.27,203.57,210.50,217.60,223.94,230.28,238.15,247.08,253.99,259.74,265.83,272.30,278.46,283.11,287.60,293.96,302.25,307.94,310.41,311.00,309.37,303.65,297.31,291.80,286.74,281.67,276.96,272.43,268.13,264.03,259.83,254.78,249.48,244.19,238.87,232.54,227.19,222.28,217.27,211.94,207.11,202.26,196.90,190.58,184.94,179.41,173.79,168.16,163.16,158.18,152.99,147.75,143.04,137.60,131.97,126.67,122.47,120.08,119.01,118.41,117.86,117.37,116.79,116.32,116.24,117.03,118.21,119.69,122.08,125.92,129.71,133.69,137.85,142.18,146.43,149.19,150.53,150.90,150.65,149.83,148.27,146.44,144.60,142.86,141.64,141.16,141.25,141.42,142.01,142.37,142.56,142.86,143.55,144.28,145.03,145.80,146.60,147.34,147.89,148.31,148.63,148.18,148.17,150.28,155.62,162.34,168.28,173.51,178.31,183.17,188.02,193.87,200.10,205.89,211.67,217.77,223.96,230.51,238.42,245.94,251.37,255.36,259.51,263.52,266.66,269.17,271.29,273.33,275.63,278.52,282.38,288.02,295.32,300.82,304.75,308.49,313.86,321.04,328.65,335.82,341.93,347.69,354.08,360.46,365.29,370.71,376.81,383.25,389.77,396.07,402.70,410.35,419.33,429.48,438.19,443.65,446.45,447.39,447.73,448.60,450.30,452.91,456.12,458.99,461.77,464.63,467.68,470.81,474.46,478.78,483.90,489.50,494.69,499.13,502.82,506.02,508.25,510.64,513.07,515.05,517.34,519.33,520.86,521.76,521.88,521.90,521.48,521.00,522.03,527.60,535.45,542.51,546.50,548.42,548.69,548.43,548.61,550.67,553.50,557.11,561.29,565.76,569.77,572.51,574.40,575.69,576.49,576.62,576.36,576.00,575.89,575.97,576.75,578.34,580.79,583.75,586.95,590.18,593.33,596.29,598.53,599.85,600.23,599.43,597.80,595.77,593.28,590.09,586.19,581.91,577.54,573.27,569.39,565.85,562.41,557.66,550.27,542.23,536.77,532.13,527.34,522.13,516.03,508.41,500.62,494.89,490.36,485.37
142.06,148.89,155.97,162.68,169.37,177.52,186.18,192.53,198.00,204.06,210.63,217.37,224.03,231.14,239.17,247.47,253.83,259.13,264.59,270.26,275.72,280.57,285.13,291.46,299.88,306.33,309.87,311.06,310.11,306.40,300.41,294.70,289.27,283.68,278.13,273.28,268.75,264.34,259.83,254.93,249.91,244.88,239.70,233.17,227.80,223.05,218.23,213.03,208.08,203.17,197.98,192.05,186.55,181.49,176.51,171.38,166.56,161.65,156.31,150.67,145.52,140.07,134.35,128.86,124.49,121.29,119.69,118.88,118.34,117.83,117.27,116.78,116.49,116.72,117.63,118.77,120.58,123.60,126.78,129.70,132.80,136.43,140.75,143.66,145.25,145.91,145.87,145.10,143.81,142.52,141.52,140.56,139.92,139.72,139.87,140.17,140.80,141.32,141.77,142.33,143.14,143.93,144.70,145.49,146.33,147.12,147.83,148.47,148.99,148.90,149.76,152.55,157.69,163.28,168.83,174.00,178.87,183.85,188.90,194.73,200.91,206.86,212.85,219.17,225.83,233.08,241.54,248.58,253.55,257.53,262.32,266.88,270.58,273.78,276.70,279.27,281.46,284.16,288.02,293.72,298.83,302.79,306.09,309.61,314.56,321.22,328.32,335.14,341.26,346.84,352.95,359.29,364.81,370.55,376.89,383.28,389.41,396.00,402.82,410.59,419.79,430.60,440.85,447.58,451.41,453.43,454.45,455.43,456.81,458.77,461.13,463.31,465.65,468.39,471.77,475.00,479.22,484.00,488.83,493.67,498.56,503.00,506.95,510.92,514.08,516.84,519.53,522.40,525.66,528.23,530.01,530.97,531.23,531.03,530.32,529.24,528.46,530.67,535.71,541.78,547.22,550.87,552.46,553.04,553.46,554.87,556.80,559.82,563.71,568.02,571.78,574.68,576.85,578.38,579.71,580.30,580.39,580.28,580.36,580.79,581.62,582.96,584.99,587.48,590.30,593.31,596.39,599.28,601.59,602.87,602.98,601.66,599.62,597.22,594.31,590.72,586.62,582.18,577.51,572.83,568.69,565.13,561.23,555.90,548.46,541.32,535.99,531.37,526.87,522.19,516.62,509.94,503.06,497.35,492.43,487.08
140.03,146.62,153.88,161.12,167.76,175.93,184.91,191.88,197.44,203.28,209.47,215.93,223.35,231.24,239.22,246.74,252.65,257.33,261.90,266.54,271.16,276.30,281.37,287.99,296.59,304.15,309.03,310.97,310.67,308.84,303.38,297.54,291.75,285.66,279.21,274.04,269.29,264.54,259.74,254.91,250.08,245.25,240.18,233.67,228.37,223.78,219.20,214.16,209.10,204.13,199.11,193.75,188.71,184.34,180.14,175.63,170.84,165.90,160.27,154.03,148.29,142.74,136.96,131.36,126.76,123.03,120.82,119.57,118.87,118.31,117.77,117.29,116.88,116.67,117.19,118.17,119.64,121.82,124.78,126.91,129.00,131.68,135.36,138.17,140.06,141.20,141.53,140.96,140.03,139.36,139.22,138.97,138.79,138.72,138.78,139.13,139.73,140.43,141.18,141.99,142.84,143.66,144.47,145.28,146.12,146.91,147.72,148.54,149.31,149.93,151.70,154.72,158.98,163.91,169.13,174.21,179.16,184.29,189.52,195.27,201.33,207.40,213.57,220.15,227.26,235.14,243.93,250.38,255.02,259.18,264.53,269.52,273.77,277.69,281.48,284.79,287.23,290.11,294.15,299.46,302.16,304.67,307.59,311.02,315.60,321.61,328.10,334.54,340.64,346.03,351.88,358.19,364.40,370.47,377.02,383.33,389.10,396.00,402.95,410.69,419.85,431.10,442.82,450.90,455.84,458.90,460.50,461.41,462.38,463.73,465.33,467.00,469.28,472.34,476.16,479.72,484.63,489.78,494.02,497.78,502.16,506.61,511.03,515.79,519.81,522.87,525.85,529.81,533.79,536.69,538.63,539.68,540.17,539.89,539.19,538.08,536.34,535.55,537.65,542.13,548.09,552.69,555.43,557.13,558.24,559.27,560.57,562.98,566.38,570.38,573.88,576.97,579.46,581.30,583.09,584.06,584.43,584.50,584.73,585.55,586.49,587.63,589.21,591.31,593.73,596.51,599.53,602.32,604.66,605.91,605.83,604.07,601.53,598.58,595.18,591.17,586.79,582.15,577.11,571.97,567.60,564.02,559.30,553.28,546.30,540.07,534.81,530.21,526.08,521.96,516.76,510.95,504.96,499.19,493.81,488.09
137.62,143.80,150.85,158.18,165.03,172.65,180.96,188.82,194.88,200.52,206.23,212.69,221.71,230.01,237.31,243.75,249.61,253.68,257.06,260.31,263.88,268.80,275.01,282.72,291.95,301.12,307.64,310.60,310.92,310.13,305.90,300.21,294.03,287.55,280.31,274.83,269.77,264.62,259.76,255.00,250.15,245.20,240.03,233.96,228.90,224.52,220.28,215.35,210.19,205.08,200.13,195.55,191.62,188.26,184.97,181.10,176.25,170.95,164.53,157.27,151.07,145.31,139.64,134.12,129.19,125.77,123.00,120.82,119.44,118.83,118.28,117.85,117.51,117.23,117.13,117.85,119.18,120.94,123.21,125.27,127.18,129.07,131.04,133.34,135.39,137.02,138.10,138.35,138.08,138.00,138.30,138.06,137.93,137.85,137.89,138.29,139.02,139.87,140.77,141.72,142.63,143.58,144.51,145.39,146.24,147.08,147.88,148.69,149.60,151.04,153.19,156.01,159.66,164.33,169.08,173.98,179.06,184.28,189.53,195.16,201.03,206.98,213.43,220.36,227.73,235.75,244.53,250.78,255.30,259.48,264.92,270.13,274.74,279.23,283.92,288.38,291.69,295.16,298.93,301.98,304.27,306.55,309.26,312.83,317.25,322.63,328.56,334.75,340.60,345.79,351.56,357.98,364.47,370.96,377.65,383.76,389.14,396.30,403.26,410.75,419.69,431.27,444.00,452.94,458.37,461.53,463.15,464.38,465.80,467.51,469.03,470.54,473.33,477.23,481.40,485.72,490.69,495.42,498.97,501.65,505.35,509.95,515.06,519.84,523.64,526.95,530.98,536.76,540.92,543.88,546.03,547.49,548.48,548.72,548.40,547.35,545.09,543.17,543.85,546.77,551.20,554.90,557.90,560.39,562.35,563.67,565.08,566.99,569.66,573.32,576.81,580.02,582.85,585.16,586.95,587.89,588.32,588.58,589.13,590.09,591.10,592.16,593.43,595.13,597.31,599.96,602.90,605.50,607.81,608.92,608.55,606.37,603.30,599.57,595.53,591.26,586.54,581.55,575.95,570.27,565.92,562.26,556.15,549.28,543.67,538.13,532.91,528.42,524.67,520.87,515.54,510.01,504.72,499.56,493.76,487.76
134.97,140.77,147.33,154.44,161.02,168.04,175.65,183.45,190.07,196.30,202.59,209.69,219.15,227.31,233.91,239.30,244.27,248.05,250.95,253.51,256.59,262.04,269.49,278.34,288.44,299.23,306.32,309.91,311.04,310.69,307.64,302.46,296.16,289.23,281.60,275.50,270.01,264.73,259.85,255.14,250.30,245.28,240.03,234.49,229.70,225.45,221.38,216.77,211.94,207.04,202.35,198.41,195.36,192.78,190.06,186.53,181.70,176.03,169.23,161.45,153.93,148.10,142.90,137.97,133.40,129.65,126.28,123.28,120.90,119.47,118.73,118.41,118.31,118.08,117.70,117.85,118.67,120.22,122.16,124.01,125.74,127.29,128.56,130.21,132.10,133.94,135.30,136.14,136.29,136.49,137.03,137.09,137.04,137.10,137.38,137.98,138.78,139.67,140.63,141.72,142.72,143.72,144.74,145.73,146.58,147.46,148.30,149.19,150.39,152.11,154.36,156.96,160.11,164.44,168.97,173.76,178.80,183.99,189.29,194.78,200.42,206.25,212.62,219.49,226.88,234.91,243.51,249.91,254.48,258.40,263.25,268.65,273.51,278.14,282.94,287.92,291.77,295.52,299.20,301.82,304.34,307.06,310.31,314.48,319.18,324.39,330.10,336.09,341.58,346.53,352.13,358.62,365.86,372.73,379.25,385.08,390.41,397.41,404.20,411.55,420.32,431.56,444.24,453.27,458.76,461.88,463.93,466.05,468.27,470.43,472.17,474.07,476.94,480.69,484.96,489.75,494.88,499.49,502.86,505.38,509.20,514.01,519.26,523.95,527.65,531.87,537.00,542.77,546.87,549.64,551.69,553.31,554.81,555.77,556.16,555.84,554.51,553.33,553.49,554.82,557.01,559.10,561.56,564.02,566.27,568.20,570.11,572.06,574.40,577.52,580.67,583.80,586.60,588.79,590.40,591.60,592.35,592.93,593.88,594.92,595.79,596.65,597.74,599.19,601.15,603.64,606.39,608.58,610.49,611.12,610.28,607.82,604.13,599.87,595.43,590.81,585.60,580.43,574.59,568.52,563.60,558.03,551.60,545.42,540.44,535.24,530.48,526.33,522.63,518.44,513.12,507.96,503.07,497.98,492.22,486.37
131.98,137.54,143.49,150.14,156.30,162.74,169.77,177.41,184.79,192.01,199.34,207.22,216.32,223.91,229.75,234.11,237.82,241.36,244.21,246.74,250.06,256.52,265.16,274.93,285.70,297.62,304.80,308.97,311.03,310.84,308.79,304.23,297.96,290.57,282.83,276.13,270.23,264.95,260.09,255.43,250.63,245.59,240.32,235.26,230.73,226.58,222.62,218.43,214.09,209.60,205.27,201.82,199.41,197.35,194.98,191.57,186.78,180.86,173.97,166.03,157.19,151.35,146.65,142.38,138.44,134.18,130.26,126.56,123.05,120.31,119.19,119.00,119.19,119.16,118.64,118.12,118.25,119.58,121.32,122.93,124.47,125.94,127.17,128.38,130.00,131.77,133.06,134.21,134.65,135.00,135.64,136.09,136.21,136.50,137.13,137.97,138.81,139.67,140.65,141.84,142.94,143.98,145.06,146.14,147.04,147.97,148.87,149.89,151.38,153.13,155.29,157.69,160.46,164.46,168.87,173.55,178.45,183.55,188.87,194.20,199.62,205.30,211.36,217.93,225.09,232.93,241.15,247.85,252.66,256.34,260.36,265.70,270.52,274.94,279.45,284.63,289.05,293.19,297.09,300.26,303.36,306.83,310.97,315.99,321.26,326.66,332.34,338.15,343.26,348.04,353.46,360.01,368.05,375.15,381.33,386.96,392.47,399.07,405.61,412.94,421.63,432.12,443.88,452.36,457.61,460.68,463.34,466.45,469.51,472.10,474.16,476.63,479.48,482.79,487.01,492.19,497.58,502.35,505.89,509.01,513.44,518.46,523.55,528.23,531.97,537.13,543.01,547.89,551.79,554.43,556.42,558.17,560.12,561.73,562.83,563.44,563.57,563.74,563.84,563.85,563.84,564.29,565.93,568.05,570.39,573.06,575.67,577.98,580.18,582.61,585.13,587.87,590.33,592.16,593.57,595.12,596.33,597.34,598.64,599.70,600.39,601.06,602.08,603.40,605.17,607.45,609.93,611.61,612.74,612.57,611.12,608.35,604.13,599.57,594.89,589.91,584.18,578.95,573.11,566.77,560.85,552.98,546.70,541.70,536.95,531.95,527.72,523.89,519.98,515.12,509.92,505.13,500.44,495.14,489.69,484.25
128.13,133.91,139.32,145.18,151.20,157.34,164.28,173.35,182.21,190.44,198.37,206.32,214.34,220.66,225.41,228.83,231.56,234.44,237.50,241.23,246.63,254.57,263.87,273.62,283.74,294.65,302.23,307.56,310.79,310.80,309.18,304.94,298.65,290.90,283.44,276.74,270.80,265.57,260.81,256.20,251.50,246.57,241.37,236.56,232.14,228.11,224.38,220.62,216.61,212.50,208.55,205.28,203.02,201.01,198.60,195.12,190.29,184.57,177.96,170.32,161.94,156.06,151.19,146.89,143.21,139.01,134.85,130.63,126.17,121.59,119.87,119.68,120.16,120.59,119.77,118.79,118.38,119.02,120.34,121.77,123.21,124.73,126.56,128.40,129.90,131.05,131.94,132.74,133.35,133.91,134.54,135.12,135.66,136.34,137.19,138.13,138.95,139.81,140.81,141.99,143.13,144.25,145.36,146.45,147.52,148.52,149.52,150.66,152.18,154.01,155.98,158.15,160.84,164.71,168.88,173.32,178.05,183.04,188.20,193.34,198.53,203.94,209.59,215.69,222.20,229.17,236.60,243.50,248.93,253.10,256.70,260.86,264.70,268.45,272.64,278.04,283.81,289.44,294.48,298.34,302.29,306.48,311.30,317.20,323.39,329.40,335.25,340.82,345.70,350.63,356.21,362.82,370.79,377.50,383.49,389.28,395.22,401.34,407.66,415.17,424.04,433.62,442.99,449.79,454.39,457.69,460.91,464.22,467.48,470.40,472.51,475.14,478.42,482.19,486.39,492.17,498.15,503.41,507.65,512.55,517.84,522.95,527.89,533.10,537.09,541.88,547.05,551.31,554.88,558.08,560.90,563.27,565.37,566.84,568.02,569.03,569.68,569.96,570.03,569.80,569.31,569.42,570.74,572.86,575.63,578.96,582.45,585.24,587.29,588.73,590.12,591.57,593.18,594.89,596.40,598.08,599.77,601.35,602.65,603.71,604.47,605.24,606.35,607.84,609.47,611.37,613.38,614.68,614.21,612.63,610.21,606.80,602.65,598.20,593.49,588.30,582.20,577.03,571.49,565.07,557.71,549.66,543.28,538.21,533.69,529.05,524.74,520.56,516.16,510.93,505.96,501.36,496.61,491.12,486.18,481.27
124.63,130.50,136.04,141.63,148.49,155.36,162.80,172.78,182.38,191.08,198.90,205.84,212.13,216.93,220.72,223.67,225.85,228.86,232.81,237.96,245.05,253.82,263.40,272.88,282.05,291.44,299.27,305.68,310.05,310.58,309.30,305.16,298.81,291.04,284.03,277.65,271.78,266.49,261.94,257.43,252.84,248.03,242.92,238.20,233.92,230.03,226.44,222.93,219.31,215.61,211.94,208.54,206.12,203.98,201.47,197.92,193.01,187.44,181.37,174.73,167.50,162.05,157.02,152.25,148.08,143.56,138.92,134.20,129.31,124.15,121.88,121.43,121.86,122.12,120.99,119.68,118.78,118.73,119.60,120.85,122.34,124.14,126.44,128.70,130.17,131.01,131.70,132.36,133.03,133.71,134.35,134.97,135.69,136.50,137.39,138.32,139.15,140.06,141.10,142.23,143.39,144.53,145.65,146.76,147.91,148.97,150.13,151.42,152.89,154.73,156.58,158.54,161.01,164.80,168.81,173.07,177.61,182.38,187.35,192.35,197.38,202.52,207.77,213.25,218.92,224.93,231.58,238.23,243.93,248.52,252.13,255.93,259.53,263.26,267.60,272.90,279.39,286.10,292.16,296.53,301.19,305.93,311.24,317.77,324.79,331.62,337.83,343.23,348.06,353.23,359.15,365.90,373.29,379.68,385.68,391.73,397.90,403.70,410.10,417.63,426.11,434.53,441.94,447.17,450.87,453.99,457.40,460.65,463.87,466.92,469.16,471.86,475.25,479.14,483.40,489.35,496.00,502.24,507.69,514.22,520.64,526.50,531.91,537.25,541.02,545.14,549.59,553.62,557.27,561.22,565.11,568.62,571.58,573.18,574.33,575.34,576.06,576.10,575.78,575.23,574.61,574.60,575.86,578.25,581.54,585.06,588.36,590.96,592.74,593.66,594.43,595.11,596.12,597.68,599.49,601.31,603.24,605.08,606.38,607.63,608.54,609.39,610.50,612.02,613.69,615.39,616.76,616.86,614.73,611.76,608.40,604.57,600.40,596.06,591.25,585.75,579.91,575.03,569.81,563.43,555.24,547.28,540.96,535.88,531.46,526.82,522.14,517.35,512.26,506.52,501.19,496.52,491.97,486.87,482.35,477.79
