455.13,457.71,459.89,461.88,463.39,464.71,466.74,469.60,472.83,476.28,480.18,485.38,490.23,492.46,490.87,485.76,478.90,470.81,462.21,454.08,447.26,441.65,436.55,431.41,425.44,420.45,415.94,411.40,406.15,400.11,393.68,386.84,379.85,375.09,371.75,369.59,368.44,367.37,366.68,365.64,363.90,361.09,357.85,355.00,352.66,351.04,350.64,351.19,351.54,351.38,350.86,350.07,349.22,348.09,346.26,343.45,339.09,333.71,327.94,323.23,318.44,314.83,312.31,310.21,308.35,306.73,305.25,304.06,303.84,304.65,305.46,305.71,304.91,303.31,301.30,298.38,293.89,289.40,285.19,280.64,275.29,269.02,262.56,256.75,251.48,246.25,241.28,237.26,233.53,229.19,223.16,216.95,210.48,203.96,198.26,193.94,190.18,186.76,184.03,183.00,184.55,188.07,192.96,197.48,201.27,204.75,208.09,211.25,213.73,213.05,210.56,207.49,204.03,200.61,197.73,195.80,195.30,195.61,195.97,196.13,196.04,195.70,195.01,194.03,192.69,190.78,188.75,186.82,185.08,183.64,182.08,180.02,177.64,175.10,172.41,169.87,167.58,165.53,163.55,161.68,159.83,158.15,156.81,155.37,153.22,150.57,147.62,144.63,140.91,136.87,132.85,129.24,125.75,122.39,119.08,115.65,111.94,108.18,104.40,100.63,97.01,93.48,88.97,84.00,80.13,79.09,78.47,77.83,77.22,76.60,76.10,76.17,76.79,77.59,78.44,80.97,88.04,100.06,103.12,104.86,106.60,108.86,113.22,122.26,133.90,145.44,153.91,161.18,168.05,174.35,179.26,181.42,182.91,181.44,177.30,173.09,169.06,164.86,160.66,156.51,151.39,147.56,144.11,140.02,133.91,126.65,120.64,115.89,111.69,108.91,106.62,104.42,102.20,99.62,91.86,84.34,79.69,78.73,77.88,77.01,76.15,75.41,75.08,75.76,76.76,77.77,79.03,83.83,89.10,93.32,95.65,98.00,102.51,109.16,117.62,125.99,133.19,141.00,149.63,157.86,165.66,172.07,177.86,184.15,190.92,196.60,200.46,202.04,201.54,200.28,199.06,198.63,200.20,203.30,207.19,210.74
459.26,462.21,464.87,466.76,468.06,469.05,470.31,472.34,475.17,478.63,482.85,488.27,492.17,492.46,488.50,482.07,474.68,466.26,457.58,450.01,443.59,437.97,432.75,427.52,421.60,416.47,411.88,407.18,401.30,395.02,388.45,381.77,375.45,370.70,366.78,364.31,363.41,362.74,361.89,360.43,358.38,355.86,353.35,350.75,348.15,345.84,344.67,344.77,344.84,344.46,343.83,342.81,341.78,340.68,339.18,336.72,332.73,328.64,324.93,320.73,315.79,311.73,308.52,305.47,302.97,301.11,299.53,298.21,297.81,298.96,300.41,301.51,301.89,301.31,299.58,296.53,292.00,287.86,283.86,279.37,274.00,267.78,261.38,255.72,250.57,245.11,240.17,236.37,232.96,229.09,224.00,218.06,211.80,205.47,199.36,194.72,190.62,186.70,183.03,180.15,180.78,183.84,188.32,192.39,195.65,198.95,202.94,208.12,211.51,211.94,210.35,207.42,203.81,200.15,196.59,193.64,192.55,192.77,193.18,193.40,193.36,193.16,192.49,191.44,189.91,187.46,184.67,182.23,180.29,178.81,177.57,176.07,174.22,171.96,169.22,166.74,164.47,162.35,160.27,158.21,156.34,154.72,153.33,151.83,149.55,146.89,144.15,141.21,137.35,133.11,129.06,125.88,122.63,119.70,116.81,113.62,110.37,107.16,103.83,100.39,97.10,93.93,90.17,85.66,80.93,79.54,78.82,78.17,77.55,76.94,76.33,76.07,76.33,77.13,77.98,79.03,84.81,97.56,101.74,103.78,105.59,107.56,110.14,117.72,129.15,141.44,150.85,158.40,165.56,172.21,177.53,180.38,181.93,180.79,177.24,173.22,169.72,166.00,162.50,159.34,154.05,149.56,145.49,141.16,135.49,128.88,122.70,117.25,112.54,109.03,106.46,104.22,101.75,98.21,90.28,83.34,79.49,78.64,77.80,76.91,76.04,75.36,75.22,75.94,76.95,77.95,79.35,86.13,91.21,93.81,96.13,98.46,103.45,110.52,118.79,126.46,132.89,139.63,147.16,155.22,163.16,170.10,176.16,181.94,189.30,195.51,200.37,203.71,205.48,206.30,205.75,204.76,205.29,206.91,209.06,211.26
463.68,466.92,469.38,470.96,472.04,472.80,473.45,474.88,477.27,480.64,485.14,490.17,492.13,490.50,485.40,478.60,471.15,463.04,454.75,447.10,440.38,434.49,428.86,423.17,417.59,412.40,407.46,402.38,396.38,390.25,383.98,377.53,371.20,366.47,362.43,359.81,358.72,357.55,356.46,355.08,353.32,351.15,348.74,346.14,343.43,340.80,338.85,337.51,336.64,336.19,336.05,335.51,334.62,333.58,332.48,330.86,328.29,325.36,322.14,317.87,312.23,306.32,301.34,298.87,296.80,295.03,293.46,292.25,291.88,293.25,295.10,296.65,297.25,296.92,295.25,292.46,288.79,285.15,281.53,277.47,272.59,266.82,260.79,255.40,250.40,244.92,240.04,236.36,233.19,229.69,224.97,219.51,213.62,207.38,200.92,195.76,191.12,186.71,182.53,178.52,177.80,179.78,183.66,187.31,190.22,193.55,197.94,203.95,209.25,210.96,209.99,207.22,203.56,199.63,195.66,192.04,189.77,189.66,190.10,190.41,190.40,190.28,189.36,187.85,185.81,183.15,180.40,177.90,175.72,173.98,172.85,171.64,170.11,168.10,165.61,163.33,161.20,159.13,157.05,154.92,152.98,151.21,149.47,147.61,145.24,142.65,139.96,136.84,133.06,129.19,125.59,122.52,119.67,117.09,114.42,111.45,108.92,106.13,103.09,99.99,97.17,94.44,91.60,88.20,83.84,80.55,79.18,78.56,77.99,77.37,76.71,76.20,76.05,76.66,77.47,78.32,81.00,87.91,98.67,102.81,104.67,106.61,108.79,114.00,123.93,136.06,146.22,154.55,162.02,168.74,174.33,178.31,180.05,179.31,176.56,173.00,169.76,166.76,163.92,160.93,156.41,151.47,146.65,141.78,135.89,129.55,123.53,117.90,112.67,108.99,106.36,104.05,101.34,96.92,88.83,82.40,79.29,78.46,77.62,76.78,75.96,75.27,75.30,76.08,77.08,78.09,79.51,86.62,91.72,94.10,96.47,98.84,103.91,110.95,119.00,126.48,132.56,138.58,145.28,153.01,160.85,168.20,174.68,180.28,187.47,193.69,198.95,203.37,207.16,209.76,210.51,210.22,210.50,211.19,212.09,213.36
467.85,471.06,473.37,474.82,475.78,476.36,476.60,477.54,479.65,482.94,487.37,491.80,491.73,488.39,482.63,475.64,468.45,460.86,452.96,445.08,438.04,431.80,425.80,419.84,414.41,409.11,403.86,398.49,392.48,386.13,379.75,373.47,367.55,362.91,358.89,355.94,354.14,352.46,351.02,349.64,348.11,346.04,343.37,340.57,337.95,335.70,333.71,331.75,330.45,329.94,329.98,329.79,329.20,328.40,327.57,326.45,324.69,322.22,318.88,314.44,307.97,300.93,295.08,292.73,290.97,289.32,287.79,286.68,286.51,287.95,289.90,291.57,292.17,291.75,290.11,287.70,284.89,281.75,278.44,274.79,270.51,265.32,259.91,254.94,250.16,244.94,240.19,236.63,233.63,230.43,226.02,220.77,214.97,208.73,202.24,196.67,191.59,186.84,182.41,177.81,175.25,175.56,178.75,182.40,185.36,188.88,193.56,199.75,205.82,208.39,208.10,205.72,202.39,198.57,194.51,190.44,187.06,185.95,185.90,186.13,186.19,186.13,185.21,183.65,181.55,178.96,176.38,173.80,171.30,169.17,167.85,166.58,165.19,163.59,161.63,159.71,157.78,155.79,153.70,151.58,149.46,147.36,145.30,143.29,141.04,138.54,135.75,132.53,128.97,125.53,122.43,119.87,117.34,114.93,112.42,109.73,107.70,105.13,102.37,99.72,97.26,94.93,92.75,90.36,87.09,83.14,80.47,79.01,78.43,77.80,77.13,76.47,76.02,76.19,76.94,77.80,78.68,81.49,93.62,100.36,103.71,105.65,107.73,111.03,118.73,129.67,140.91,149.92,157.65,164.52,170.39,175.05,177.01,176.95,175.28,172.27,168.94,166.09,163.63,161.05,157.21,152.35,147.13,141.54,135.07,128.81,123.02,117.50,112.20,108.73,106.17,103.85,100.99,95.93,87.59,81.55,79.10,78.27,77.43,76.63,75.84,75.18,75.40,76.24,77.24,78.25,79.67,86.85,91.96,94.34,96.74,99.17,104.13,111.03,119.04,126.36,132.24,137.80,143.85,151.20,158.84,166.59,173.56,179.09,185.85,191.96,197.44,202.52,207.57,211.53,213.67,214.51,215.05,215.35,215.47,215.95
471.58,474.48,476.81,478.37,479.31,479.75,479.84,480.38,482.40,485.61,489.50,493.07,491.15,486.48,480.39,473.25,466.61,459.63,452.02,443.90,436.67,430.06,423.81,417.89,412.39,406.88,401.43,395.93,389.94,382.90,375.89,369.61,364.62,360.16,356.25,352.77,349.81,347.74,345.79,344.16,342.55,340.31,337.19,334.14,331.89,330.68,329.40,327.94,326.86,326.31,326.05,325.92,325.72,325.35,324.64,323.44,321.51,318.71,314.93,310.31,303.16,296.13,290.58,287.56,285.70,284.11,282.63,281.59,281.73,283.13,284.89,286.40,286.92,286.17,284.51,282.44,280.25,277.58,274.50,271.19,267.54,263.05,258.49,254.05,249.61,244.91,240.37,236.96,234.13,231.12,227.06,221.69,215.64,209.30,203.16,197.35,191.97,187.05,182.59,177.82,173.12,171.31,173.69,177.69,181.11,185.02,189.87,195.70,201.03,203.86,204.31,202.61,200.02,196.78,192.98,188.72,184.47,181.73,180.62,180.51,180.75,180.73,180.13,179.03,177.39,175.14,172.65,169.87,166.97,164.43,162.66,161.04,159.62,158.55,157.34,155.87,154.17,152.25,150.18,148.10,145.73,143.25,141.00,139.13,137.17,134.76,131.74,128.52,125.35,122.31,119.70,118.09,115.75,113.34,110.94,108.60,106.72,104.22,101.78,99.65,97.44,95.40,93.56,91.89,90.20,87.26,82.86,79.63,78.88,78.19,77.55,76.88,76.22,75.78,76.43,77.29,78.17,80.07,86.83,96.32,102.69,104.65,106.71,108.88,113.83,122.50,135.03,144.47,152.42,159.55,165.77,170.56,172.82,173.68,173.28,170.80,167.08,163.74,161.26,159.44,156.00,151.71,146.48,140.09,132.87,126.62,121.09,115.94,111.14,108.19,105.84,103.57,100.67,95.17,86.54,80.80,78.95,78.08,77.23,76.43,75.66,75.08,75.53,76.43,77.43,78.44,79.87,87.08,92.18,94.52,96.93,99.44,104.14,110.88,119.04,126.17,131.95,137.28,142.92,149.88,157.27,165.38,172.86,178.38,184.59,190.58,196.19,201.50,206.93,211.78,215.26,217.48,218.76,219.33,219.23,219.10
474.67,477.56,479.90,481.42,482.33,482.75,482.86,483.43,485.33,488.17,491.20,492.59,489.63,484.66,478.57,471.25,465.00,458.35,450.94,443.02,435.79,429.14,422.94,417.18,411.78,406.20,400.63,395.05,389.04,381.42,373.94,367.47,362.51,358.28,354.39,350.62,347.05,344.23,341.47,338.92,336.50,334.03,331.44,329.38,327.94,327.08,326.03,324.79,323.79,323.14,322.67,322.49,322.37,322.19,321.54,319.30,316.44,313.42,310.04,305.34,299.01,292.77,287.40,283.48,280.83,278.92,277.39,276.39,276.56,278.04,279.99,281.70,282.12,281.16,279.01,276.38,273.94,271.66,269.12,266.43,263.50,259.71,255.91,252.01,247.92,243.48,239.47,236.45,233.89,231.14,227.28,222.01,215.89,209.44,203.46,197.56,191.97,186.87,182.29,176.98,171.70,168.81,169.69,173.19,176.96,181.49,186.62,191.53,195.95,198.34,198.98,198.10,196.33,193.92,190.66,186.56,182.11,178.54,176.61,176.01,176.31,176.52,176.21,175.34,173.80,171.66,168.79,165.56,162.46,160.28,158.54,156.92,155.49,154.38,153.25,151.76,150.03,148.15,146.16,144.17,142.10,140.01,138.02,136.25,134.22,131.68,128.59,125.38,122.47,120.15,118.39,116.88,114.61,112.26,110.01,107.89,105.99,103.92,101.87,99.97,98.13,96.26,94.56,93.06,91.64,89.68,85.44,81.43,79.38,78.58,77.87,77.15,76.42,75.83,76.12,76.83,77.71,78.98,82.04,93.30,101.68,103.66,105.64,107.59,110.57,116.63,128.23,138.25,146.32,153.54,160.26,165.63,168.62,170.07,169.98,167.46,163.67,160.02,157.21,155.33,152.19,147.74,142.20,135.68,128.78,123.15,118.21,113.68,109.76,107.27,105.10,102.94,100.00,93.75,85.17,79.99,78.75,77.89,77.04,76.24,75.48,74.98,75.66,76.62,77.63,78.63,80.06,87.24,92.33,94.65,97.02,99.50,104.08,110.79,119.07,126.05,131.76,137.03,142.59,149.50,157.01,165.11,172.51,178.03,184.36,190.41,195.97,201.14,206.53,211.62,215.89,219.36,222.04,223.95,224.86,224.96
477.52,480.51,482.83,484.29,485.18,485.67,485.86,486.55,488.20,490.45,492.38,491.63,487.88,482.71,476.55,469.32,463.32,456.80,449.53,442.02,435.01,428.48,422.38,416.76,411.48,405.89,400.29,394.68,388.62,380.56,372.83,366.24,361.19,356.99,352.92,348.83,344.81,341.17,337.42,334.05,331.16,328.76,326.76,325.49,324.61,323.83,322.74,321.50,320.29,319.13,317.89,316.84,316.22,315.97,315.62,313.40,310.54,307.74,304.75,300.18,294.92,289.61,284.52,279.92,276.31,273.83,272.08,271.02,271.14,272.65,274.70,276.55,276.97,275.89,273.31,270.14,267.43,265.42,263.29,261.06,258.67,255.65,252.54,249.13,245.33,241.13,237.38,234.74,232.56,230.02,226.28,221.21,215.27,208.97,203.18,197.29,191.65,186.50,181.85,176.10,170.52,166.68,165.88,168.61,172.53,177.55,182.95,187.28,190.85,192.66,193.25,192.96,191.89,190.15,187.39,183.61,179.43,175.49,172.84,171.62,171.86,172.32,172.33,171.62,170.07,167.89,164.82,161.50,158.53,156.69,154.92,153.12,151.41,149.93,148.57,147.04,145.45,143.85,142.20,140.50,138.84,137.18,135.46,133.74,131.50,128.76,125.62,122.47,119.95,118.29,117.20,115.87,113.78,111.57,109.45,107.47,105.53,103.73,101.98,100.24,98.48,96.73,95.19,93.78,92.36,91.02,87.31,82.97,79.75,78.83,78.06,77.29,76.55,75.94,75.88,76.42,77.26,78.17,79.07,88.71,97.90,102.54,104.61,106.50,108.31,112.12,121.20,131.44,139.76,147.14,154.26,160.39,164.16,165.95,165.74,162.99,159.17,155.26,151.98,149.62,146.47,141.91,136.32,130.07,124.05,119.27,115.06,111.29,108.34,106.22,104.18,102.00,98.84,92.15,84.01,79.43,78.56,77.70,76.85,76.04,75.32,74.99,75.80,76.78,77.78,78.79,80.28,87.42,92.47,94.77,97.09,99.55,104.17,111.02,119.45,126.16,131.80,137.13,142.80,149.75,157.42,165.28,172.37,177.99,184.62,190.69,196.08,201.00,206.25,211.44,216.36,220.92,224.93,228.32,230.56,231.33
480.23,483.34,485.61,487.01,487.95,488.58,488.91,489.65,490.87,492.19,492.74,490.50,486.10,480.46,474.01,467.38,461.43,454.82,447.66,440.72,434.20,427.92,421.94,416.38,411.15,405.66,400.12,394.52,388.35,380.11,372.40,365.94,360.91,356.36,351.79,347.28,342.87,338.43,333.53,329.82,327.34,325.49,323.75,322.41,321.41,320.55,319.21,317.63,315.75,313.42,310.40,307.13,305.13,304.46,304.84,304.86,303.94,302.06,299.10,295.00,290.66,286.23,281.67,276.88,272.29,268.97,266.68,265.39,265.38,266.81,268.72,270.43,271.02,269.94,267.22,263.94,261.27,259.28,257.23,255.07,252.87,250.72,248.22,245.16,241.61,237.69,233.52,231.17,229.47,227.03,223.36,218.59,213.20,207.55,202.06,196.33,190.88,185.94,181.36,175.48,169.47,164.51,162.01,163.86,167.56,172.71,178.38,182.90,185.85,187.11,187.44,187.29,186.62,185.17,182.72,179.43,176.09,172.27,168.97,166.95,166.96,167.63,167.96,167.45,165.83,163.47,160.71,158.04,155.69,153.79,151.70,149.27,146.82,144.68,142.85,141.44,140.35,139.49,138.59,137.50,136.19,134.72,133.10,131.35,128.82,125.82,122.63,119.64,117.77,116.53,115.67,114.94,113.30,111.33,109.32,107.39,105.46,103.56,101.87,100.21,97.92,96.29,94.99,93.76,92.42,91.03,87.74,83.55,79.84,78.84,78.07,77.30,76.56,75.97,75.72,76.07,76.81,77.72,78.59,81.12,89.44,101.21,103.63,105.40,107.16,109.53,114.23,123.92,132.69,140.42,147.70,154.66,159.16,160.97,160.25,157.20,153.31,149.18,145.35,142.08,138.45,134.14,129.08,123.58,118.96,115.18,111.84,108.99,106.98,105.09,103.11,100.66,96.93,90.48,83.36,79.34,78.43,77.52,76.66,75.81,75.20,75.19,75.95,76.88,77.84,78.91,80.59,87.68,92.64,94.89,97.17,99.68,104.57,111.80,120.46,126.63,132.20,137.76,143.73,150.79,158.51,165.86,172.48,178.41,185.36,191.26,196.33,201.00,206.10,211.42,216.91,222.36,227.31,231.96,235.54,237.46
483.25,486.44,488.44,489.58,490.38,491.00,491.42,492.06,492.53,492.58,491.60,488.51,483.99,478.24,471.57,465.34,459.49,453.14,446.37,439.67,433.28,427.08,421.22,415.87,410.88,405.48,399.96,394.25,387.75,379.45,371.88,365.58,360.48,355.36,350.49,345.84,341.22,336.11,331.20,327.48,324.80,322.53,319.76,317.28,315.66,315.12,314.28,312.47,309.92,306.74,303.02,299.54,297.26,296.36,296.85,297.28,296.85,295.44,293.00,289.89,286.44,282.85,279.01,274.62,269.85,265.54,261.78,259.01,258.47,260.25,262.67,264.69,265.31,264.42,261.79,258.44,255.53,252.98,250.66,248.68,247.09,245.62,243.39,240.60,237.22,232.96,228.45,225.63,223.70,221.61,218.55,214.46,209.79,204.82,199.80,194.64,189.70,185.09,180.53,174.26,168.03,162.78,159.55,159.95,162.43,167.31,173.49,178.47,181.16,181.92,181.78,181.31,180.74,179.55,177.65,175.15,172.32,168.40,164.65,162.05,161.55,162.00,162.52,162.38,161.27,159.48,157.27,155.01,152.69,150.04,146.82,144.22,142.22,140.62,139.19,138.16,137.33,136.59,135.80,134.83,133.62,132.19,130.50,128.43,125.75,122.78,119.77,117.14,115.45,114.31,113.58,113.29,112.46,110.78,108.81,107.07,105.27,103.43,101.72,99.70,96.22,94.37,93.31,92.44,91.22,89.13,85.81,82.31,79.64,78.81,78.10,77.35,76.62,76.07,75.79,75.87,76.36,77.28,78.17,79.09,87.10,100.30,102.68,104.37,106.08,107.92,110.65,117.03,125.06,133.05,140.23,147.03,151.61,153.41,152.70,150.25,146.91,143.02,139.05,135.28,131.50,127.19,122.77,118.53,114.80,111.85,109.40,107.33,105.62,103.79,101.83,98.97,94.42,88.28,82.44,79.17,78.25,77.37,76.48,75.61,75.11,75.41,76.19,77.09,78.04,79.30,81.94,88.35,92.84,95.12,97.42,100.21,105.80,113.37,121.46,127.08,132.57,138.43,144.94,152.45,159.91,166.70,172.94,179.04,186.12,191.83,196.71,201.31,206.21,211.55,217.30,223.20,228.85,234.45,238.67,241.19
486.28,489.31,491.00,491.88,492.41,492.77,493.06,493.41,493.15,492.05,489.75,486.17,481.70,476.00,469.36,463.46,457.86,451.98,445.68,439.03,432.72,426.49,420.59,415.29,410.43,405.16,399.64,393.69,386.69,378.48,371.16,364.99,359.70,354.04,349.11,344.56,339.89,334.34,329.72,326.04,322.98,319.98,315.89,312.02,309.46,308.71,308.28,306.32,303.36,299.80,296.06,293.02,290.84,289.75,290.08,290.40,290.08,288.96,287.03,284.79,282.08,279.34,276.39,272.57,267.82,262.54,257.27,252.98,251.72,253.57,256.35,258.77,259.54,258.88,256.46,253.20,250.07,246.88,244.13,242.20,241.20,240.43,238.55,236.03,232.75,228.03,223.12,219.59,217.22,215.48,213.12,209.87,206.00,201.71,197.27,192.74,188.32,184.00,179.34,172.72,166.45,161.22,157.64,156.54,157.82,162.19,168.47,173.86,176.40,176.71,175.96,174.90,174.09,173.09,171.87,170.32,168.01,164.12,160.17,157.19,156.12,156.29,156.93,157.23,156.76,155.62,153.86,151.67,149.05,145.77,141.91,139.46,138.09,137.19,136.33,135.63,134.94,134.16,133.27,132.22,130.94,129.44,127.63,125.30,122.62,119.78,116.98,114.64,113.03,111.97,111.41,111.38,111.18,109.86,108.09,106.52,104.86,103.14,101.24,98.50,93.69,91.30,90.26,89.60,88.42,86.04,83.11,80.65,79.30,78.69,78.09,77.39,76.68,76.19,75.92,75.76,75.98,76.84,77.75,78.68,85.59,97.32,101.39,103.40,105.03,106.65,108.40,111.41,117.94,125.61,132.64,138.80,143.23,145.17,144.86,143.22,140.59,137.05,133.07,129.07,125.31,121.12,117.32,114.21,111.31,109.10,107.37,105.85,104.21,102.42,100.19,96.73,91.49,85.64,81.30,78.94,78.03,77.16,76.26,75.44,75.10,75.65,76.44,77.34,78.26,79.75,83.42,89.08,93.08,95.41,97.80,100.99,107.23,114.96,122.37,127.54,133.01,139.21,146.24,154.15,161.26,167.54,173.48,179.67,186.71,192.23,196.99,201.57,206.33,211.67,217.56,223.73,229.85,236.21,240.97,244.09
489.10,491.17,492.69,493.51,493.56,493.06,492.60,492.25,491.55,489.99,487.08,483.56,479.13,473.75,467.72,462.16,457.18,452.05,446.26,439.43,433.39,426.92,420.48,414.63,409.42,404.35,398.81,392.38,384.53,376.79,369.93,363.79,358.04,352.11,347.67,343.66,339.26,333.87,329.40,325.65,322.17,318.29,313.19,308.25,304.08,301.29,300.33,298.39,295.81,292.96,290.26,287.82,285.84,284.62,284.48,284.79,284.70,283.75,281.83,279.66,277.32,275.50,273.68,270.45,265.63,259.55,253.45,248.66,246.50,247.13,249.32,251.97,253.32,252.90,250.90,248.11,245.09,241.53,238.11,235.77,234.96,235.12,234.12,231.95,228.58,223.62,218.12,213.84,211.00,209.38,207.54,205.30,202.31,198.66,194.97,190.87,186.74,182.42,177.35,170.76,164.73,159.80,156.19,153.81,154.88,158.37,163.38,168.71,171.15,171.04,169.53,167.44,165.69,164.74,164.32,163.97,162.50,159.20,155.59,152.59,151.08,151.16,151.93,152.59,152.66,151.81,149.92,147.05,143.68,140.70,138.30,136.60,135.42,134.65,134.02,133.30,132.58,131.81,130.82,129.51,127.88,126.06,124.19,122.08,119.64,117.01,114.32,111.91,110.43,109.67,109.41,109.35,108.90,108.16,107.04,105.45,103.92,102.36,99.80,95.62,89.69,86.13,84.45,83.46,82.00,81.09,80.17,79.36,78.79,78.31,77.91,77.35,76.70,76.31,76.04,75.79,75.81,76.41,77.25,78.20,81.18,87.89,99.05,102.54,104.01,105.49,107.08,108.97,112.82,118.59,125.50,130.47,134.65,137.24,137.97,136.94,134.99,131.71,127.78,123.94,120.42,116.93,113.61,110.78,108.98,107.41,105.83,104.25,102.68,101.02,97.71,93.17,87.81,82.19,79.74,78.57,77.70,76.79,75.92,75.34,75.28,75.94,76.66,77.53,78.46,80.09,84.39,89.59,93.36,95.82,98.38,102.19,108.52,115.94,122.96,128.02,133.70,140.24,147.57,155.41,162.19,168.16,173.95,180.13,186.82,192.19,196.90,201.46,206.25,211.65,217.62,223.84,229.93,236.79,242.41,246.56
490.96,492.49,493.35,493.28,492.66,491.66,490.41,489.49,488.37,486.57,483.71,480.39,476.38,471.59,466.23,461.29,456.99,452.70,447.76,441.58,435.88,429.36,422.48,415.77,409.63,404.51,399.32,393.36,385.87,377.86,370.82,364.72,359.15,353.37,348.71,344.56,340.30,335.18,330.44,326.59,323.42,320.20,314.88,308.99,303.42,298.92,296.36,293.37,290.66,288.37,285.95,283.65,281.54,279.89,279.16,279.34,279.44,278.67,276.79,274.46,272.23,270.99,270.02,267.49,263.38,257.20,250.82,245.84,242.52,241.73,242.78,244.90,246.63,246.60,245.19,242.94,240.06,236.30,232.17,229.14,228.10,228.70,228.38,226.52,223.12,218.22,212.96,208.72,205.82,204.30,202.97,201.08,198.60,195.68,192.56,188.79,184.86,180.43,174.82,168.63,163.02,158.25,154.41,151.37,151.41,154.06,158.44,163.13,164.93,164.43,162.69,160.39,158.25,157.08,156.69,156.60,155.69,153.15,150.10,147.35,145.73,145.65,146.29,146.88,146.90,145.93,144.30,141.98,139.30,137.03,135.31,133.90,132.78,132.02,131.37,130.46,129.52,128.55,127.33,125.94,124.29,122.56,120.94,119.00,116.77,114.32,111.77,109.62,108.25,107.58,107.41,107.35,106.86,106.28,105.49,104.28,102.87,101.11,97.47,91.97,87.14,83.83,81.91,80.76,79.82,79.45,79.15,78.84,78.52,78.13,77.80,77.38,76.90,76.56,76.27,75.98,75.82,76.03,76.72,77.71,79.20,83.45,95.29,100.56,102.75,104.07,105.64,107.16,109.57,113.63,119.32,124.03,127.91,130.65,131.95,131.32,129.59,126.52,122.91,119.50,116.29,113.37,110.77,108.64,107.24,105.83,104.36,102.82,101.12,98.63,94.72,89.57,83.87,80.25,78.90,78.14,77.33,76.44,75.56,75.25,75.52,76.25,76.98,77.76,78.59,80.45,85.83,90.48,93.83,96.32,98.99,103.29,109.66,116.80,123.48,128.52,134.44,141.08,148.28,155.90,162.73,168.79,174.48,180.24,186.55,191.77,196.38,200.86,205.73,211.15,217.16,223.36,229.23,236.30,242.97,248.25
492.27,493.40,493.36,492.19,490.73,489.09,487.06,485.67,484.23,482.39,479.93,476.95,473.52,469.41,464.79,460.61,457.00,453.48,449.45,444.24,438.99,432.67,425.61,418.21,411.17,405.83,401.01,395.84,389.23,381.03,373.51,367.22,362.07,356.62,351.56,346.98,342.66,337.83,332.77,328.81,326.11,324.03,319.06,312.39,305.52,299.53,295.07,290.65,287.44,285.26,282.64,280.14,277.69,275.53,274.18,274.13,274.30,273.69,271.87,269.31,266.93,266.00,265.73,264.03,260.81,255.00,248.81,243.81,239.29,236.90,236.57,237.92,239.93,240.38,239.59,237.83,234.99,231.05,226.19,222.36,220.82,221.50,221.75,220.31,217.14,212.59,207.90,203.97,201.12,199.57,198.61,196.83,194.75,192.55,189.90,186.43,182.55,177.91,171.97,166.37,161.22,156.51,152.31,148.69,147.59,149.52,153.45,157.20,158.19,157.33,155.51,153.22,150.97,149.62,149.02,148.85,148.35,146.53,144.13,141.83,140.37,140.18,140.60,140.95,140.74,139.62,138.44,137.04,135.45,133.86,132.34,130.89,129.69,128.89,128.10,127.03,125.92,124.81,123.47,122.15,120.68,119.20,117.84,116.04,113.95,111.66,109.36,107.58,106.28,105.60,105.41,105.35,104.90,104.31,103.69,102.90,101.54,99.43,94.98,89.04,86.25,83.93,82.04,80.73,80.18,79.69,79.22,78.82,78.50,78.18,77.87,77.54,77.21,76.88,76.57,76.27,75.96,75.78,76.20,77.17,78.30,81.23,90.32,97.28,100.91,102.54,104.12,105.61,107.31,109.95,113.98,118.50,122.10,124.79,126.34,126.04,124.39,121.59,118.41,115.45,112.69,110.35,108.50,107.08,105.74,104.31,102.86,101.30,99.22,95.68,91.33,85.98,80.47,79.13,78.37,77.67,76.93,76.09,75.26,75.25,75.82,76.60,77.37,78.03,78.74,80.83,87.40,91.52,94.39,96.85,99.62,104.27,110.65,117.55,123.93,128.99,135.09,141.70,148.60,155.92,162.94,169.23,174.85,180.05,185.96,191.05,195.59,199.97,204.89,210.31,216.38,222.59,228.18,235.20,242.88,249.36
493.06,493.71,492.57,490.87,488.20,484.86,482.06,480.42,479.02,477.51,475.68,473.38,470.49,467.05,463.25,459.91,456.94,453.84,450.28,445.96,441.54,435.95,429.56,422.69,415.78,410.00,405.03,400.27,394.55,387.64,379.59,372.24,367.29,362.20,357.22,352.26,347.35,342.67,337.74,333.66,330.88,329.27,325.57,318.50,310.40,303.19,297.45,292.00,287.60,284.16,280.64,277.41,274.47,271.92,270.11,269.58,269.50,268.83,267.07,264.38,261.42,260.31,260.55,260.03,257.17,252.31,247.13,242.38,236.86,232.51,230.77,231.69,233.96,234.99,234.70,233.10,229.89,225.53,219.89,215.24,213.00,213.17,213.87,213.36,211.27,207.63,203.50,199.59,196.48,194.60,193.35,191.90,190.36,188.68,186.38,183.26,179.06,174.09,168.78,163.88,159.03,154.25,149.47,144.64,143.35,144.91,147.96,150.58,151.16,149.95,147.68,144.96,142.82,141.75,141.36,141.33,141.01,139.57,137.81,136.29,135.53,135.48,135.73,135.95,135.85,135.16,134.43,133.39,132.00,130.36,128.46,126.51,124.94,123.99,123.05,122.18,121.44,120.75,119.91,118.94,117.81,116.55,115.12,113.22,111.08,109.03,107.27,105.72,104.38,103.64,103.40,103.31,102.88,102.35,101.73,100.87,99.38,96.79,93.39,90.16,89.36,88.43,86.97,85.16,83.36,81.68,80.33,79.46,79.09,78.73,78.41,78.07,77.69,77.28,76.95,76.64,76.31,75.98,75.78,76.48,77.54,79.20,83.04,90.88,97.28,101.02,102.48,103.99,105.72,107.76,110.28,113.36,116.80,119.48,120.95,120.98,119.71,117.42,114.59,111.73,109.86,108.33,106.92,105.58,104.21,102.81,101.25,99.20,96.11,92.31,87.28,82.55,79.55,78.62,77.88,77.16,76.44,75.68,75.20,75.48,76.22,77.04,77.82,78.43,79.05,81.22,88.66,92.45,94.97,97.39,100.25,104.94,111.29,118.03,124.17,129.30,135.40,141.85,148.43,155.44,162.50,168.89,174.48,179.34,184.73,189.82,194.45,198.81,203.64,208.97,215.24,221.71,227.05,233.52,241.82,249.60
493.89,493.38,491.76,489.36,485.70,481.20,477.23,474.62,472.83,471.44,470.17,468.54,466.30,463.68,460.89,458.47,456.26,453.83,450.92,447.28,443.34,438.44,432.82,426.68,420.29,414.48,409.36,404.64,399.54,393.75,386.61,379.15,372.61,367.16,362.35,357.59,352.70,347.81,342.81,338.36,334.96,333.02,330.03,323.60,315.54,307.56,300.86,294.49,289.03,284.52,280.33,276.31,272.67,269.54,267.21,265.74,265.14,264.27,262.50,259.78,256.64,255.27,255.43,255.47,253.16,249.48,245.37,240.86,234.42,228.81,225.64,225.38,227.71,229.31,229.45,228.05,224.82,220.12,214.30,209.27,206.18,205.18,205.81,206.11,205.21,202.45,198.80,194.82,190.98,187.90,186.52,185.89,185.26,184.17,182.06,179.03,174.87,170.10,165.44,161.22,156.80,151.76,146.08,140.73,138.97,139.87,142.07,143.76,143.92,142.52,140.22,137.64,135.86,135.25,135.16,135.14,134.72,133.27,131.70,130.48,129.97,129.99,130.34,130.62,130.59,130.14,129.51,128.58,127.26,125.52,123.75,122.10,120.79,119.96,119.14,118.57,118.09,117.60,116.97,116.16,115.14,113.93,112.44,110.43,108.19,106.24,104.81,103.46,102.28,101.62,101.43,101.25,100.79,100.24,99.52,98.40,96.54,94.76,93.15,92.03,92.14,91.80,90.80,89.27,87.41,85.60,83.70,82.05,80.78,79.54,78.98,78.59,78.17,77.74,77.36,77.03,76.67,76.23,75.77,76.02,76.80,77.92,79.30,84.70,90.70,95.84,99.42,102.14,104.19,105.98,107.77,109.88,112.56,115.02,116.70,116.92,115.96,113.98,111.55,109.24,107.81,106.59,105.36,104.06,102.69,101.04,98.83,96.05,92.63,88.62,83.99,80.41,78.97,78.21,77.45,76.72,76.00,75.31,75.34,75.91,76.70,77.50,78.30,78.91,80.30,83.57,89.71,92.92,95.30,97.69,100.51,105.36,111.69,118.23,124.11,129.18,135.39,141.75,147.97,154.51,161.35,167.87,173.58,178.18,183.19,188.30,193.02,197.34,201.95,207.22,213.52,220.10,225.63,231.65,239.91,248.51
494.74,492.84,491.05,487.79,483.36,478.15,472.75,468.66,466.07,464.52,463.63,462.63,461.17,459.51,457.86,456.39,454.99,453.36,451.22,448.09,444.35,440.06,435.26,429.94,424.30,418.78,413.56,408.67,403.99,399.05,393.66,386.90,378.31,371.94,367.05,362.63,358.10,352.86,347.68,342.69,338.38,335.54,332.73,327.60,320.46,312.07,304.68,297.50,291.18,285.87,281.21,276.48,272.03,268.18,265.19,262.48,261.12,259.91,258.09,255.44,252.41,250.71,250.38,250.52,248.96,246.50,243.37,238.99,231.93,225.72,221.23,219.30,221.29,223.26,223.72,222.57,219.60,214.84,209.37,204.33,200.42,197.90,197.89,198.63,198.76,196.70,193.34,189.29,184.71,180.28,178.89,179.19,179.51,179.00,177.05,174.07,170.24,166.05,162.03,158.48,154.50,149.08,142.33,137.03,134.65,134.69,136.03,137.00,136.77,135.31,133.25,131.19,129.88,129.66,129.73,129.65,129.02,127.48,125.91,124.70,124.12,124.08,124.57,124.98,124.97,124.61,123.90,122.95,121.72,120.04,118.77,117.91,117.26,116.72,116.18,115.90,115.58,115.08,114.45,113.64,112.57,111.28,109.75,107.63,105.37,103.52,102.28,101.16,100.26,99.79,99.64,99.35,98.80,98.18,97.36,96.04,94.03,93.80,94.08,94.27,94.50,94.18,93.59,92.79,91.66,90.39,88.33,85.92,83.45,80.90,79.72,79.10,78.63,78.23,77.78,77.41,77.02,76.50,76.03,75.78,76.15,77.15,78.19,79.56,83.04,88.42,94.70,99.59,102.47,104.38,106.01,107.63,109.30,111.36,113.30,113.59,112.89,111.14,109.14,107.61,106.27,105.02,103.78,102.48,100.90,98.69,95.56,92.04,88.85,84.86,81.47,79.30,78.53,77.82,77.07,76.33,75.64,75.08,75.62,76.45,77.25,77.99,78.81,79.71,82.43,87.07,90.59,93.09,95.40,97.74,100.41,105.48,111.86,118.24,123.83,128.72,135.00,141.25,147.09,153.12,159.59,166.21,172.13,176.61,181.37,186.48,191.30,195.59,199.95,205.19,211.36,217.92,223.93,229.64,237.40,246.34
495.44,493.28,490.68,486.62,481.59,475.79,469.17,463.46,459.60,457.31,456.31,455.72,455.20,454.75,454.31,453.67,452.88,451.84,450.19,447.33,443.84,440.03,436.00,431.70,426.95,421.69,416.57,411.80,407.31,402.83,398.25,392.96,386.28,378.68,372.18,366.71,361.90,356.86,351.76,346.40,341.27,337.37,334.22,330.15,323.98,315.47,307.79,300.19,293.42,287.67,282.64,277.51,272.48,267.81,263.80,259.83,257.31,255.51,253.79,251.26,248.24,246.09,245.18,245.39,244.75,243.22,240.44,235.79,229.44,223.47,218.31,214.91,215.28,216.65,217.06,216.08,213.45,209.70,205.16,200.57,196.37,192.80,191.11,190.97,191.03,188.99,185.13,181.28,177.53,174.09,172.54,172.59,172.80,172.48,171.18,168.85,165.59,162.02,158.87,155.88,151.91,146.02,138.64,133.57,131.11,130.26,130.43,131.09,130.59,129.22,127.39,125.53,124.55,123.71,123.22,123.03,122.60,121.83,120.96,120.18,119.58,118.96,119.01,119.18,119.13,118.98,118.37,117.58,116.78,116.08,115.20,114.63,114.24,113.91,113.57,113.33,113.01,112.51,111.88,111.07,110.00,108.62,106.86,104.73,102.94,101.67,100.88,100.13,99.51,99.05,98.69,98.24,97.65,96.96,96.31,95.80,95.43,95.89,96.41,96.67,96.84,96.54,96.10,95.46,94.39,93.22,91.55,89.65,87.48,84.31,81.42,79.72,79.08,78.68,78.19,77.77,77.34,76.81,76.34,75.90,75.88,76.45,77.42,78.26,79.89,82.45,86.43,94.25,99.67,102.76,104.33,105.93,107.48,109.03,110.28,110.56,110.18,108.98,107.45,106.05,104.72,103.47,102.23,100.64,97.72,94.30,90.63,87.18,84.50,81.85,80.00,78.83,78.13,77.44,76.72,75.99,75.39,75.36,76.05,76.93,77.80,78.59,79.34,82.01,85.76,89.53,91.44,93.21,95.18,97.30,99.79,104.79,111.59,118.22,123.44,128.03,133.73,139.47,144.98,150.81,157.08,163.50,169.47,174.36,178.99,184.02,188.96,193.51,197.88,203.09,208.95,215.26,221.81,227.38,234.65,243.14
496.13,493.49,490.03,485.47,480.05,473.73,466.29,459.60,454.63,451.33,449.70,448.90,448.71,448.95,449.42,449.57,449.45,448.89,447.64,445.27,442.27,439.03,435.70,432.17,428.00,423.00,418.14,413.67,409.46,405.38,401.36,397.11,392.04,385.18,377.79,371.05,365.38,360.34,355.10,349.39,343.58,338.62,335.11,331.65,326.15,317.75,309.99,302.11,295.02,288.99,283.74,278.44,273.16,268.02,263.13,258.00,254.12,251.43,249.47,246.82,243.71,241.03,239.35,239.25,239.16,238.38,236.21,232.07,226.89,221.35,215.82,211.24,209.71,210.17,210.48,209.79,207.61,204.61,200.73,196.47,192.03,187.43,184.32,183.17,182.86,181.08,177.44,173.86,170.67,167.98,166.27,165.84,165.90,165.91,165.26,163.67,161.14,158.28,155.72,153.14,148.22,141.89,135.38,130.94,128.48,127.24,126.86,127.19,126.61,125.59,124.33,122.95,121.79,120.46,119.56,119.16,118.67,118.25,117.74,117.21,116.69,115.92,115.58,115.22,114.64,114.28,113.73,113.16,112.72,112.56,112.06,111.67,111.44,111.29,111.04,110.78,110.43,109.94,109.33,108.49,107.36,106.05,104.66,103.16,102.05,101.26,100.65,99.86,99.39,99.03,98.69,98.35,98.04,97.56,97.15,97.20,97.88,98.93,99.70,100.06,100.40,100.14,99.53,98.55,97.05,95.81,94.33,92.71,90.78,87.75,84.05,81.14,79.47,79.04,78.56,78.14,77.70,77.17,76.67,76.16,75.86,75.98,76.75,77.51,78.24,79.09,81.00,87.69,94.52,99.72,102.64,104.34,105.83,107.02,107.83,108.08,107.85,107.00,105.77,104.43,103.12,101.66,99.82,97.16,92.98,88.73,85.38,82.94,81.22,79.83,78.98,78.34,77.69,77.04,76.35,75.68,75.28,75.72,76.52,77.41,78.31,79.34,81.22,85.02,88.85,91.55,92.74,94.03,95.46,96.99,99.06,103.68,110.68,117.58,122.70,126.99,131.91,137.04,142.25,147.78,153.89,160.14,166.15,171.50,176.07,180.99,186.03,190.93,195.57,200.58,206.01,212.01,218.80,224.74,231.74,239.68
496.80,493.24,489.01,484.27,478.62,471.87,464.04,457.14,451.37,446.90,444.16,442.56,442.04,442.38,443.33,444.16,444.71,444.52,443.59,441.94,439.67,437.13,434.38,431.26,427.33,422.60,418.10,414.08,410.23,406.53,402.96,399.17,394.85,390.69,383.54,375.70,368.71,363.29,357.66,351.56,345.20,339.27,335.52,332.21,327.04,318.99,311.27,303.21,295.90,289.70,284.35,279.07,273.86,268.62,263.11,257.06,251.80,247.94,245.31,242.24,238.95,235.69,233.09,232.29,232.29,232.07,230.83,228.03,224.28,219.19,213.51,208.12,204.72,204.11,204.25,203.89,202.16,199.41,195.84,191.73,186.98,181.36,177.39,175.42,174.63,173.42,170.73,167.45,164.30,161.76,159.84,158.93,158.97,159.50,159.39,158.47,156.76,154.56,152.15,149.77,143.33,136.87,132.62,129.20,126.93,125.88,125.68,125.63,125.17,124.70,124.30,123.69,121.91,120.38,119.29,118.52,117.71,117.11,116.53,116.03,115.69,115.26,114.70,113.64,112.08,110.99,110.39,110.03,109.78,109.64,109.44,109.20,109.05,109.02,108.74,108.43,108.06,107.60,107.07,106.22,105.08,104.03,103.55,103.21,102.82,102.31,101.55,100.30,99.85,99.75,99.78,99.93,100.23,100.22,100.11,100.30,101.13,102.70,103.93,104.59,105.33,105.12,104.10,102.38,100.09,98.52,96.84,95.02,93.05,90.77,87.41,83.40,79.97,79.35,78.92,78.53,78.08,77.55,77.02,76.52,76.05,75.76,76.14,76.78,77.52,78.30,79.24,80.89,87.29,94.89,100.47,102.70,104.11,105.16,105.89,106.15,105.88,105.09,104.00,102.72,101.28,99.33,96.25,91.86,86.97,82.66,80.43,79.72,79.25,78.80,78.27,77.71,77.16,76.60,75.95,75.44,75.33,76.11,77.01,77.89,78.81,80.33,84.46,88.43,91.41,93.25,94.51,95.66,96.41,97.03,98.44,102.24,109.03,116.10,121.45,125.54,129.66,134.17,139.06,144.13,150.09,156.21,162.27,167.98,172.62,177.42,182.53,187.85,192.96,197.64,202.60,208.23,214.89,221.66,228.62,236.06
497.10,492.58,487.72,482.71,476.83,469.84,461.96,455.50,449.58,444.25,440.15,438.06,437.40,437.59,438.34,439.05,439.51,439.48,438.94,437.76,436.05,434.07,431.71,428.67,424.83,420.33,416.19,412.45,408.46,405.03,401.90,398.77,395.46,392.57,386.73,379.34,371.69,365.42,359.21,352.59,345.73,339.44,335.71,332.52,327.62,319.95,312.15,303.84,296.35,290.04,284.49,279.19,274.06,268.85,263.21,257.20,251.56,246.74,242.83,239.09,235.47,231.74,228.52,227.17,226.88,226.83,226.24,224.49,221.56,216.49,210.85,205.51,201.33,199.50,198.94,198.22,196.06,193.25,189.94,185.87,180.75,174.74,170.86,168.87,167.97,166.95,164.38,161.32,158.31,155.60,153.19,152.03,152.10,152.92,153.18,152.59,151.06,148.56,145.15,142.45,137.79,133.26,130.20,128.19,127.27,126.98,126.98,126.96,126.70,126.45,126.24,125.76,123.97,122.31,120.64,119.14,118.52,118.18,117.83,117.51,117.32,116.99,116.47,115.30,113.30,111.18,110.05,109.53,109.33,109.23,109.21,108.93,108.62,108.46,108.04,107.67,107.35,107.11,106.96,106.69,106.28,105.77,105.16,104.73,104.27,103.65,102.78,101.73,101.20,101.57,102.67,103.95,104.87,105.22,105.33,105.61,106.43,107.90,109.21,110.11,110.80,110.66,109.63,107.73,104.98,102.11,99.44,97.07,94.97,92.68,89.83,85.90,81.79,79.89,79.33,78.94,78.47,77.93,77.39,76.87,76.33,75.84,75.74,76.21,76.91,77.68,78.45,79.18,82.27,87.69,94.74,100.22,102.27,103.22,103.91,104.16,103.93,103.20,102.16,100.73,98.10,94.94,90.70,85.76,82.41,80.11,78.97,78.55,78.23,77.96,77.48,76.92,76.43,75.89,75.45,75.30,75.61,76.49,77.41,78.32,79.56,82.03,87.21,90.72,93.12,94.91,96.38,97.61,98.21,98.39,98.86,100.94,106.53,113.23,118.99,123.44,127.38,131.50,135.90,140.41,146.02,151.97,157.90,163.55,168.72,173.79,179.07,184.67,190.20,194.86,199.47,204.61,210.92,217.85,224.80,232.12
496.71,491.39,486.08,480.81,474.74,467.70,460.10,454.13,448.21,442.13,436.66,434.07,433.23,433.27,433.82,434.39,434.58,434.58,434.27,433.27,431.81,430.08,427.85,424.78,420.81,416.33,412.10,408.25,404.58,401.74,399.22,396.83,394.53,392.16,387.22,380.50,372.89,366.14,359.52,352.60,345.57,339.35,335.79,332.76,328.12,320.79,312.92,304.41,296.73,290.25,284.54,279.19,274.09,268.90,263.30,257.51,251.87,246.53,241.65,237.39,233.53,229.44,225.54,223.07,222.21,222.06,221.80,220.71,218.24,213.44,208.16,203.16,198.65,195.66,194.06,192.66,190.22,187.40,184.15,179.97,174.65,168.88,165.08,163.09,162.11,160.98,158.49,155.38,152.04,148.79,146.36,145.17,145.16,145.91,146.26,145.94,144.75,142.43,138.75,135.82,133.12,130.70,128.88,128.16,128.59,129.13,129.45,129.61,129.66,129.63,129.50,129.00,127.34,125.52,123.48,121.58,120.97,120.79,120.67,120.55,120.45,120.22,119.58,118.22,115.93,113.09,111.40,110.60,110.38,110.45,110.78,110.72,110.48,110.22,109.58,108.98,108.63,108.60,108.90,109.12,109.11,108.62,107.40,106.65,106.00,105.32,104.58,103.89,103.57,104.60,106.75,108.88,110.20,110.80,111.16,111.66,112.33,113.60,114.90,115.84,116.20,115.97,114.77,112.63,109.52,105.65,102.09,99.09,96.64,94.22,91.71,88.36,84.51,81.62,80.31,79.51,78.85,78.29,77.73,77.18,76.59,76.03,75.61,75.79,76.37,77.12,77.87,78.57,79.21,82.00,88.33,95.78,98.94,100.52,101.63,102.08,101.79,100.80,99.42,97.55,93.91,89.67,85.19,81.16,79.45,78.74,78.27,77.83,77.45,77.15,76.66,76.14,75.73,75.40,75.26,75.44,75.97,76.83,77.73,78.65,80.41,84.12,89.38,92.38,94.46,96.46,98.41,100.53,101.41,101.11,100.44,101.07,104.84,110.12,115.64,120.98,125.06,128.94,132.97,137.12,142.22,147.92,153.72,159.29,164.91,170.30,175.86,181.73,187.46,192.26,196.69,201.36,207.10,213.74,220.50,227.84
495.22,489.42,483.94,478.45,472.28,465.44,458.58,452.94,446.97,440.28,433.54,430.30,429.14,429.05,429.63,430.30,430.25,430.10,429.72,428.52,426.85,424.83,422.41,419.25,414.82,410.04,405.06,400.56,398.06,396.30,394.59,392.98,391.51,388.98,383.98,377.78,371.13,364.67,358.06,351.26,344.62,339.02,335.77,332.95,328.57,321.54,313.66,305.06,297.16,290.41,284.64,279.24,274.02,268.80,263.39,257.77,252.42,247.16,242.03,237.56,233.71,229.39,224.59,220.11,218.28,217.72,217.35,216.37,213.94,209.97,205.53,201.03,196.59,192.57,189.56,187.24,185.06,182.40,178.91,174.46,169.25,164.53,160.48,158.20,157.06,155.40,153.19,149.65,145.29,141.12,139.54,138.65,138.36,138.53,138.58,138.50,138.11,137.00,134.68,131.94,130.34,129.57,129.41,129.72,131.03,132.26,133.08,133.50,134.00,134.30,134.31,133.81,132.29,130.27,128.32,126.72,125.63,125.30,125.29,125.33,125.25,125.14,124.10,122.23,119.63,116.68,114.53,113.38,113.10,113.51,114.53,115.19,115.44,115.26,114.28,113.22,112.65,112.79,113.49,113.87,113.46,112.11,109.88,108.83,108.08,107.54,107.24,106.92,107.41,109.33,112.17,114.47,115.84,116.56,117.25,118.21,118.56,119.72,120.92,121.59,121.34,120.69,118.96,116.27,112.82,108.76,104.78,101.15,98.05,95.53,93.05,90.66,88.18,85.19,82.26,80.33,79.21,78.60,78.00,77.39,76.82,76.29,75.84,75.59,75.90,76.59,77.29,77.99,78.63,79.67,82.23,88.48,93.12,96.45,98.73,99.63,99.16,97.46,95.14,92.40,88.51,83.81,80.55,79.38,78.63,78.05,77.56,77.12,76.73,76.30,75.85,75.44,75.22,75.37,75.65,75.97,76.39,77.11,77.95,78.85,81.29,86.56,90.76,93.36,95.51,97.84,100.73,104.95,106.65,105.65,103.59,103.53,104.86,107.30,111.40,118.16,122.66,126.47,130.42,134.53,138.97,144.32,150.08,155.67,161.41,167.09,173.04,179.21,184.82,189.90,194.39,198.69,203.56,209.39,215.67,223.12
491.73,486.18,480.87,475.54,469.55,463.08,456.95,451.58,445.45,438.29,430.89,426.95,424.70,424.00,424.67,425.30,425.22,424.88,424.20,422.72,420.50,417.86,414.93,411.49,406.79,402.31,397.89,393.75,390.71,388.42,386.38,384.54,382.90,380.73,377.06,372.11,366.25,360.55,354.69,348.65,342.90,338.41,335.51,332.90,328.92,322.53,314.84,306.23,298.14,291.14,285.36,279.92,274.57,269.26,264.00,258.69,253.69,248.37,242.72,237.92,234.03,229.60,224.38,218.88,215.01,213.60,213.01,211.84,209.47,206.00,202.27,198.47,194.32,189.76,185.62,182.30,179.93,177.20,173.84,169.84,165.35,161.11,157.02,154.17,152.20,149.86,146.71,143.78,141.09,138.78,137.95,137.58,137.21,136.81,136.53,136.09,135.33,134.28,133.05,132.26,132.03,132.51,133.68,134.96,136.41,137.59,138.41,138.97,139.65,140.14,140.37,140.16,139.26,137.76,136.12,134.48,132.88,132.19,131.94,131.83,131.68,131.55,130.41,128.25,125.09,121.37,118.59,117.28,117.20,117.87,119.07,120.12,120.79,120.83,119.87,118.54,117.72,117.78,118.54,119.21,119.11,118.04,115.87,114.00,112.45,111.36,110.88,110.98,112.76,115.47,118.37,120.51,122.32,123.63,124.74,125.80,126.21,127.12,127.81,127.83,127.01,125.53,123.07,119.84,116.02,111.38,107.05,103.11,99.66,97.00,94.63,92.60,90.64,87.94,84.38,81.34,79.39,78.78,78.20,77.62,77.10,76.66,76.27,75.88,75.77,76.02,76.72,77.41,78.08,78.74,79.88,83.03,85.99,89.04,91.85,93.06,92.78,91.38,89.11,86.11,83.44,80.72,78.97,78.44,77.94,77.41,76.88,76.41,76.02,75.60,75.43,75.41,75.48,75.81,76.16,76.50,76.90,77.45,78.21,79.07,81.98,88.38,91.77,94.14,96.34,99.08,103.73,109.55,112.31,111.36,107.71,106.78,107.03,108.08,110.50,115.33,119.73,123.87,127.94,132.07,136.49,141.53,146.92,152.40,158.34,164.28,170.34,176.48,182.21,187.50,192.14,196.32,200.54,205.77,211.61,218.53
487.38,482.31,477.37,472.33,466.69,460.69,455.23,449.97,443.55,436.12,428.66,424.19,420.86,419.31,419.58,419.84,419.52,418.88,417.89,416.17,413.36,410.22,406.98,403.41,398.66,394.65,390.90,387.14,383.31,380.14,377.45,375.10,373.08,371.35,369.10,365.51,360.59,355.80,350.96,345.84,341.05,337.70,335.09,332.70,329.16,323.40,316.09,307.96,299.86,292.46,286.66,281.09,275.56,270.13,264.96,259.97,255.15,249.71,243.61,238.36,234.33,229.77,224.29,218.18,212.50,209.88,208.64,207.18,204.94,201.99,198.91,195.73,191.87,186.97,181.96,177.69,174.89,172.13,169.08,165.66,161.82,157.83,153.94,150.81,148.22,145.36,141.55,139.52,138.73,138.42,138.21,138.46,138.34,137.74,137.31,136.56,135.44,134.36,134.03,135.05,135.99,137.30,139.17,140.87,142.15,143.11,143.88,144.60,145.44,146.14,146.63,146.76,146.45,145.58,144.26,142.57,140.68,139.74,139.23,138.88,138.56,138.25,137.02,134.67,131.03,126.41,122.91,121.41,121.56,122.36,123.60,124.91,125.93,126.21,125.45,124.06,123.15,123.12,123.87,124.77,125.04,124.39,122.56,120.05,117.91,116.34,115.55,115.89,118.50,121.61,124.38,126.47,128.74,130.64,132.15,133.22,133.72,134.22,134.24,133.52,132.17,129.97,126.87,123.17,118.99,113.80,109.09,104.90,101.25,98.41,96.11,94.17,92.33,89.94,86.18,82.25,79.53,78.97,78.48,77.98,77.52,77.14,76.81,76.34,75.85,75.63,76.16,76.83,77.53,78.18,78.75,79.25,80.21,82.28,84.88,86.07,86.02,85.17,83.43,80.80,79.53,78.81,78.24,77.70,77.23,76.72,76.20,75.75,75.49,75.23,75.37,75.68,76.00,76.37,76.70,77.05,77.43,77.84,78.51,79.60,82.98,89.81,92.59,94.80,97.02,100.12,106.44,113.65,117.64,117.32,112.84,111.00,110.61,111.04,112.34,114.94,118.87,122.79,126.34,129.98,134.41,139.23,144.25,149.54,155.48,161.57,167.75,173.91,179.64,185.00,189.81,194.03,197.81,202.51,207.94,214.19
482.19,477.69,473.37,468.79,463.68,458.32,453.36,447.81,440.85,433.50,427.20,422.69,418.91,416.19,414.73,413.83,412.56,411.40,410.22,408.39,405.15,402.13,399.28,396.13,391.87,388.24,384.48,380.42,376.39,372.65,369.32,366.45,364.27,362.83,361.14,358.65,355.23,351.44,347.69,343.47,339.43,336.87,334.38,332.30,329.15,323.77,317.20,310.81,303.14,294.88,289.06,283.13,277.30,271.70,266.48,261.65,256.56,250.91,244.75,238.86,234.46,229.66,223.97,217.59,211.48,207.07,204.14,202.33,200.38,198.23,195.78,192.84,189.02,184.05,178.63,173.66,170.09,167.53,165.05,161.99,158.16,154.21,151.03,148.63,146.46,143.64,140.88,139.70,139.39,139.29,139.43,140.45,141.27,141.51,141.41,140.99,140.37,139.94,140.25,141.31,142.63,143.97,145.11,145.78,146.64,147.52,148.41,149.47,150.61,151.65,152.45,152.81,152.67,152.17,151.11,149.53,147.97,147.25,146.71,146.11,145.41,144.59,143.06,140.64,136.93,131.56,127.18,125.33,125.53,126.25,127.51,129.00,130.23,130.71,130.37,129.31,128.67,128.84,129.60,130.50,130.71,130.06,128.43,126.20,124.54,123.23,122.27,122.35,124.16,126.66,129.32,131.83,134.38,136.53,138.24,139.37,139.73,139.52,138.76,137.42,135.55,133.20,129.89,125.85,121.39,116.08,110.85,106.29,102.66,99.51,97.13,94.99,92.87,90.58,86.96,82.74,79.72,79.31,79.01,78.67,78.27,77.84,77.45,76.90,76.27,75.76,75.67,76.25,76.95,77.56,78.06,78.59,79.12,79.85,80.65,81.08,81.09,80.72,80.01,79.08,78.49,77.98,77.44,76.87,76.40,75.92,75.48,75.23,75.42,75.66,75.95,76.26,76.57,76.89,77.25,77.60,77.94,78.34,78.89,80.95,84.98,90.64,93.19,95.31,97.47,100.73,107.84,116.23,121.74,123.12,119.99,117.22,116.37,117.11,119.06,121.16,123.95,125.92,127.03,128.83,132.84,137.62,142.55,147.50,152.92,158.90,165.38,171.91,177.16,182.26,187.20,191.73,195.49,199.73,204.71,210.40
477.53,473.54,469.51,465.27,460.67,455.86,451.10,445.40,438.04,430.83,425.69,421.29,417.09,413.34,410.26,407.77,405.92,404.35,402.84,401.06,398.35,395.62,392.79,389.59,385.84,382.41,378.76,374.85,371.11,367.36,363.85,360.79,358.45,356.73,354.85,352.73,350.32,347.45,344.29,340.97,337.89,335.69,333.60,331.60,328.17,322.48,316.94,311.48,304.56,296.86,291.34,285.26,279.13,273.35,268.22,263.39,258.24,252.44,245.94,239.33,234.49,229.45,223.69,217.41,211.37,205.97,201.72,199.00,196.87,194.91,192.58,189.60,185.71,180.91,175.49,170.35,166.54,163.91,161.55,158.69,155.12,151.63,149.13,147.20,145.31,142.90,141.40,141.12,141.49,142.18,143.33,144.91,146.21,146.97,147.23,146.98,146.69,146.79,147.75,149.10,150.30,151.26,151.93,152.25,152.87,153.73,154.79,156.05,157.26,158.41,159.31,159.72,159.53,159.17,158.30,156.86,155.20,154.16,153.29,152.33,151.14,149.81,147.83,145.02,141.03,135.68,130.91,128.92,129.22,129.83,130.98,132.47,133.80,134.45,134.44,133.88,133.61,133.97,134.97,135.97,136.25,135.72,134.29,132.33,130.90,129.81,128.96,128.73,129.81,131.72,134.14,136.80,139.43,141.75,143.67,144.94,145.12,144.53,143.34,141.56,139.22,136.45,132.64,128.11,123.35,117.98,112.65,107.94,104.06,100.42,97.85,95.59,93.37,91.08,87.67,83.94,81.26,80.69,80.26,79.60,78.98,78.48,78.02,77.43,76.76,76.13,75.72,75.83,76.34,76.94,77.44,77.94,78.33,78.65,78.92,79.03,79.02,78.79,78.40,77.94,77.51,77.09,76.60,76.09,75.71,75.55,75.46,75.50,75.81,76.16,76.51,76.84,77.15,77.49,77.81,78.15,78.49,78.85,79.33,82.95,87.94,91.67,93.96,96.05,98.41,102.09,109.51,118.83,125.42,128.19,127.03,124.58,123.52,124.13,126.18,128.31,130.50,131.53,131.52,132.10,134.44,137.88,141.92,146.32,150.94,156.49,162.74,169.17,174.43,179.35,184.19,188.83,192.94,197.10,201.75,206.93
473.07,469.53,465.65,461.69,457.55,453.19,448.43,442.60,435.18,428.32,424.07,419.81,415.31,410.65,406.07,402.11,399.69,397.59,395.55,393.73,391.64,389.27,386.50,383.27,380.02,376.69,373.26,369.84,366.61,363.09,359.61,356.48,353.99,351.84,349.56,347.52,345.75,343.56,340.84,338.35,336.18,334.17,332.37,330.16,326.24,320.31,315.76,310.97,305.01,298.48,293.36,287.34,280.98,275.02,270.07,265.19,259.99,254.02,247.10,239.80,234.48,229.23,223.50,217.51,211.74,205.86,200.65,196.87,194.19,191.91,189.32,186.13,182.11,177.48,172.29,167.30,163.50,160.81,158.41,155.65,152.48,149.68,147.74,146.11,144.47,142.91,142.72,143.34,144.50,146.23,148.58,150.79,152.64,153.97,154.54,154.36,154.33,154.92,156.44,158.04,158.89,159.30,159.50,159.56,159.98,160.82,162.00,163.32,164.52,165.66,166.59,167.05,166.85,166.54,165.81,164.47,162.62,161.06,159.63,158.09,156.22,154.26,151.76,148.44,144.08,138.90,134.20,132.31,132.71,133.24,134.24,135.72,137.18,138.08,138.40,138.38,138.48,138.99,140.14,141.17,141.48,141.04,139.85,138.19,136.96,136.06,135.39,134.90,135.36,136.76,138.91,141.61,144.24,146.69,148.84,150.32,150.46,149.65,148.10,145.82,142.93,139.66,135.35,130.34,125.19,119.57,114.31,109.59,105.40,101.28,98.45,96.10,93.85,91.54,88.51,85.67,83.64,82.84,82.16,81.01,79.92,79.15,78.56,77.93,77.28,76.60,76.01,75.59,75.82,76.33,76.84,77.30,77.64,77.93,78.15,78.15,78.09,77.85,77.48,77.02,76.57,76.21,75.86,75.52,75.31,75.50,75.78,76.08,76.39,76.71,77.07,77.41,77.74,78.11,78.39,78.70,79.12,79.73,80.76,85.53,90.82,92.78,94.81,96.89,99.55,103.81,111.53,121.66,129.05,132.90,133.65,132.04,131.05,131.47,133.41,135.75,137.60,138.22,137.82,137.58,138.03,139.78,142.54,146.00,149.64,154.56,160.25,166.17,171.53,176.33,181.01,185.67,190.15,194.34,198.78,203.56
468.60,465.31,461.58,457.85,454.02,449.85,444.79,438.79,432.33,426.51,422.23,417.92,413.45,408.16,402.33,397.99,394.56,391.28,388.20,385.71,383.24,381.26,379.21,376.68,373.88,370.54,367.59,365.15,362.62,359.42,355.97,352.76,350.19,347.85,345.60,343.63,341.80,339.48,337.39,335.50,333.72,331.87,329.67,326.41,322.19,317.35,313.22,309.30,304.64,299.40,294.62,289.04,282.70,276.66,271.96,267.12,261.66,255.35,248.07,240.31,234.55,229.12,223.54,217.98,212.56,206.86,201.43,196.85,193.01,189.46,185.97,182.32,178.10,173.29,168.59,164.22,160.47,158.21,155.75,153.03,150.37,148.47,146.83,145.18,143.96,144.26,145.27,146.70,148.74,151.59,154.80,158.31,161.62,164.13,164.83,164.51,164.74,165.81,167.60,168.97,169.39,169.19,168.55,167.75,167.82,168.49,169.52,170.69,171.90,172.96,173.91,174.68,174.93,174.74,173.99,172.63,170.76,168.71,166.35,163.64,160.59,157.59,154.40,150.62,145.89,140.38,136.71,135.47,135.88,136.41,137.39,139.10,140.96,142.38,143.19,143.60,143.96,144.45,145.17,145.76,145.73,145.18,144.28,143.21,142.33,141.60,140.97,140.40,140.56,141.65,143.63,146.36,148.96,151.55,153.98,155.84,156.52,155.58,153.41,150.20,146.39,142.74,138.29,133.06,127.20,120.67,115.47,110.95,106.56,102.26,99.13,96.59,94.31,92.09,90.04,88.34,87.09,86.32,85.37,83.77,81.79,79.92,79.10,78.41,77.75,77.11,76.45,75.87,75.61,75.74,76.25,76.61,76.93,77.18,77.31,77.25,77.18,76.92,76.52,76.06,75.65,75.52,75.53,75.60,75.76,76.04,76.35,76.66,76.98,77.34,77.68,78.00,78.31,78.69,79.01,79.32,79.98,81.91,85.68,89.31,92.10,93.86,95.70,97.72,100.72,105.76,114.42,125.34,133.16,137.34,138.85,138.27,137.93,138.60,140.52,142.95,144.65,145.37,145.23,144.71,144.29,144.91,146.15,147.58,149.92,154.10,158.72,163.26,168.37,173.16,177.83,182.44,186.88,190.90,195.33,200.06
463.40,460.15,456.60,453.24,449.50,445.23,440.45,434.81,429.34,424.47,420.31,416.12,411.55,405.97,399.79,395.23,390.95,386.51,382.28,379.09,376.38,374.52,372.42,369.42,366.22,363.31,361.18,359.63,357.71,354.95,352.00,349.19,346.65,344.08,341.54,339.17,336.89,334.31,332.35,330.45,328.48,326.48,324.19,321.04,317.42,313.72,310.45,307.50,304.05,299.93,295.34,290.07,283.76,277.72,273.28,268.52,262.92,256.40,248.91,240.94,234.85,229.40,224.13,219.08,213.98,208.48,202.88,197.60,193.09,188.75,184.59,180.43,175.66,170.61,165.96,161.81,158.27,155.85,153.36,150.95,148.90,147.43,146.40,145.61,145.38,146.50,148.20,150.87,154.27,158.23,162.37,166.51,170.04,172.42,172.95,172.78,173.31,174.57,176.15,177.15,177.28,176.89,176.16,175.29,175.29,175.80,176.61,177.66,178.92,180.07,181.11,181.95,182.19,181.88,181.03,179.64,177.81,175.70,172.90,169.43,165.36,160.87,156.53,152.06,147.20,142.08,139.49,138.92,139.49,140.10,141.09,142.77,144.81,146.85,148.43,149.33,149.93,150.37,150.75,150.96,150.64,149.94,149.11,148.16,147.32,146.57,145.88,145.28,145.34,146.26,148.08,150.79,153.49,156.34,158.95,160.75,161.27,160.21,157.86,154.25,149.64,145.48,140.92,135.61,129.33,122.56,117.09,112.25,107.53,103.15,99.78,97.13,94.88,92.74,91.17,90.17,89.49,88.91,88.12,86.57,84.27,81.59,79.75,78.86,78.20,77.55,76.90,76.38,75.90,75.67,75.82,75.95,76.19,76.40,76.46,76.36,76.25,76.06,75.84,75.66,75.51,75.60,75.80,76.04,76.35,76.63,76.95,77.28,77.59,77.94,78.27,78.59,78.93,79.31,80.39,81.66,83.21,85.76,89.34,91.80,93.46,95.13,96.82,98.96,102.26,107.74,116.74,127.31,134.88,139.21,141.48,142.37,142.84,143.90,146.13,149.00,151.01,152.02,152.04,151.14,150.14,149.71,149.82,150.47,151.88,154.48,157.58,161.11,165.68,170.28,174.87,179.38,183.68,187.50,191.80,196.34
457.67,454.36,451.00,448.00,444.27,439.88,435.77,430.82,426.25,422.15,418.29,414.31,409.54,403.95,398.02,393.30,388.26,382.81,377.60,373.77,370.89,368.85,366.19,362.14,358.14,355.87,354.65,353.82,352.44,350.21,347.99,345.77,343.25,340.35,337.26,334.15,331.08,328.17,325.99,323.74,321.35,319.14,317.03,314.72,312.23,309.69,307.50,305.50,303.10,299.88,295.43,290.40,284.22,278.28,274.06,269.40,263.74,257.13,249.63,241.65,235.36,229.97,225.05,220.48,215.63,210.30,204.57,198.75,193.90,189.15,184.58,179.96,174.50,169.17,164.26,160.00,156.68,153.76,151.30,149.41,148.07,146.88,146.76,147.39,148.44,149.72,151.81,155.78,160.63,165.57,170.63,174.97,177.93,179.35,179.57,179.71,180.51,181.72,182.81,183.44,183.38,183.06,182.68,182.25,182.33,182.69,183.29,184.27,185.56,186.85,187.95,188.65,188.59,188.03,187.02,185.59,183.81,181.87,178.98,175.12,170.22,164.11,158.37,153.07,148.22,144.03,142.55,142.67,143.50,144.25,145.25,146.76,148.87,151.53,154.00,155.47,156.31,156.72,156.81,156.70,156.15,155.31,154.41,153.28,152.27,151.36,150.55,149.93,149.96,150.78,152.44,155.09,158.06,161.16,163.78,165.15,165.09,163.86,161.53,157.87,152.69,147.96,143.19,137.85,131.41,124.87,118.99,113.51,108.35,103.88,100.32,97.63,95.48,93.42,92.02,91.39,91.10,90.76,90.35,89.16,87.01,83.94,80.70,79.37,78.63,77.97,77.41,77.03,76.52,76.00,75.65,75.50,75.61,75.75,75.77,75.64,75.52,75.47,75.53,75.71,75.91,76.17,76.44,76.69,76.98,77.23,77.56,77.91,78.22,78.53,78.84,79.27,79.86,80.49,82.64,85.19,87.69,90.19,91.92,93.43,94.96,96.58,98.24,100.68,104.29,109.84,118.57,128.01,134.93,139.31,142.29,144.70,146.09,147.70,150.53,154.06,156.60,157.97,158.09,156.82,155.36,154.00,153.39,154.17,155.11,155.86,157.29,159.96,163.82,167.99,172.31,176.64,180.70,184.30,188.33,192.56
451.56,448.32,445.22,442.04,438.58,434.92,431.40,427.16,423.08,419.31,415.78,412.04,407.18,401.76,396.31,391.48,385.46,379.57,374.39,370.28,366.89,364.11,360.91,356.75,352.76,350.78,349.85,349.27,348.40,346.77,344.91,342.72,339.82,336.22,332.47,328.34,324.03,320.71,318.05,315.73,313.61,311.71,310.12,308.46,306.89,305.55,304.17,302.77,300.89,298.12,293.99,289.34,283.74,278.26,273.99,269.38,263.71,257.28,250.14,242.38,236.14,230.80,225.95,221.44,216.62,211.46,205.81,199.80,194.63,189.70,185.00,180.22,174.59,168.96,163.65,159.05,155.55,152.25,150.12,148.91,148.46,148.45,149.60,151.46,153.53,155.30,157.76,161.99,167.14,172.57,178.29,182.81,185.41,186.19,186.28,186.55,187.24,188.16,188.95,189.43,189.29,188.95,188.66,188.47,188.58,188.88,189.41,190.31,191.45,192.58,193.42,193.72,193.51,192.75,191.57,190.05,188.30,186.24,183.37,179.51,174.17,167.02,160.19,154.12,149.21,146.23,146.06,146.97,148.11,149.01,149.84,151.44,153.82,156.84,159.88,162.07,163.42,163.88,163.46,163.07,162.45,161.59,160.54,159.21,158.01,156.95,156.03,155.27,155.17,155.77,157.19,159.77,163.30,166.45,168.54,169.09,168.52,166.88,164.24,160.45,155.36,150.13,144.79,139.14,132.91,126.66,120.66,114.70,108.90,104.13,100.43,97.78,95.81,93.91,92.89,92.47,92.27,92.01,91.72,90.86,89.35,86.84,82.89,80.33,79.07,78.53,78.12,77.70,77.19,76.68,76.29,75.98,75.88,75.86,75.84,75.84,75.84,75.94,76.11,76.30,76.52,76.77,77.04,77.32,77.58,77.86,78.17,78.50,78.81,79.12,79.43,80.34,82.24,84.33,86.88,89.07,90.80,92.49,93.84,95.19,96.64,98.27,100.52,103.66,107.50,112.52,119.99,128.06,134.31,138.69,141.97,144.74,147.13,149.93,153.71,157.79,160.67,162.24,162.51,161.45,159.21,157.37,156.79,158.05,159.53,159.79,160.02,161.28,164.45,167.59,171.10,174.91,178.55,181.76,185.38,189.18
446.68,443.05,439.78,436.45,433.09,429.79,426.64,423.09,419.56,416.15,412.78,409.18,404.45,399.29,394.09,388.83,382.35,376.37,371.32,367.14,363.39,359.75,356.03,352.19,348.62,346.89,346.06,345.55,344.89,343.61,341.57,338.89,335.53,331.52,327.21,322.67,318.18,314.52,311.36,308.70,306.41,304.40,302.71,301.37,300.36,299.64,298.71,297.67,296.26,294.16,290.89,286.87,281.96,276.98,272.67,268.00,262.47,256.38,249.79,242.64,236.76,231.61,226.81,222.10,217.19,212.09,206.56,200.59,195.23,190.16,185.35,180.48,174.79,168.89,163.32,158.56,154.99,151.50,149.77,149.66,150.92,152.56,155.00,157.90,160.78,162.99,165.57,169.56,174.67,180.43,185.70,189.69,191.88,192.47,192.59,192.88,193.45,194.17,194.86,195.37,195.21,194.81,194.45,194.23,194.29,194.60,195.19,196.18,197.29,198.27,198.86,198.81,198.30,197.17,195.73,194.09,192.26,190.08,187.27,183.58,178.25,170.50,162.64,155.86,151.07,149.00,149.83,151.38,152.75,153.67,154.51,156.39,159.18,162.57,165.85,168.39,170.08,170.72,170.10,169.46,168.71,167.82,166.73,165.47,164.31,163.27,162.36,161.56,161.31,161.60,162.67,165.10,168.29,170.96,172.50,172.48,171.56,169.65,166.75,162.74,157.63,151.84,145.87,139.88,133.86,127.77,121.58,115.19,108.87,103.94,100.30,97.76,95.98,94.56,93.98,93.73,93.53,93.28,92.96,92.22,91.12,89.31,85.97,82.58,80.41,79.34,78.87,78.42,77.91,77.43,77.05,76.69,76.50,76.37,76.30,76.36,76.45,76.62,76.81,76.97,77.17,77.40,77.66,77.96,78.20,78.47,78.77,79.11,79.59,80.53,81.59,83.22,85.72,88.08,90.28,91.96,93.16,94.38,95.63,96.97,98.81,101.65,104.96,108.69,112.61,116.85,122.05,127.86,133.24,137.84,141.51,144.52,147.62,151.48,156.31,160.94,164.16,166.05,166.65,165.79,163.31,161.33,160.99,163.02,165.50,166.38,166.65,167.20,168.89,170.22,172.37,175.22,178.02,180.98,184.47,187.84
443.28,438.75,434.81,431.35,427.92,424.54,421.62,418.67,415.74,412.70,409.36,405.76,401.33,396.50,391.31,385.33,378.93,373.15,368.22,364.07,359.98,355.59,351.50,348.21,345.34,343.85,342.99,342.30,341.48,340.20,337.60,334.16,330.39,326.35,321.68,317.38,313.67,309.73,306.13,302.87,299.92,297.35,294.93,293.50,292.63,291.95,291.16,290.33,289.40,288.18,286.14,282.86,278.66,274.19,269.90,265.20,260.01,254.46,248.56,242.38,237.07,232.23,227.47,222.45,217.36,212.19,206.75,201.03,195.63,190.49,185.56,180.58,174.87,168.77,163.13,158.40,154.93,151.62,150.55,151.97,155.56,159.06,162.69,166.45,169.95,172.52,174.95,178.34,183.12,188.97,192.88,195.76,197.59,198.44,198.68,198.88,199.33,199.98,200.73,201.37,201.21,200.72,200.20,199.73,199.69,200.05,200.81,202.02,203.23,204.10,204.48,204.16,203.19,201.54,199.74,197.93,195.89,193.61,190.84,187.38,182.50,174.68,165.83,158.38,153.86,152.39,153.85,155.80,157.29,158.11,159.12,161.42,164.70,168.46,171.72,174.24,176.05,176.95,176.53,175.68,174.76,173.82,172.81,171.84,170.95,170.12,169.32,168.56,168.19,168.16,168.83,170.97,172.95,174.67,175.66,175.36,174.21,172.17,169.09,164.82,159.43,153.00,146.41,140.08,134.19,128.09,121.59,114.82,108.24,103.33,99.98,97.65,96.11,95.42,95.32,95.18,94.95,94.68,94.18,93.36,92.38,91.24,89.56,86.04,82.92,80.87,79.98,79.34,78.73,78.20,77.83,77.52,77.33,77.18,77.07,77.08,77.20,77.36,77.52,77.67,77.83,78.04,78.31,78.59,78.84,79.16,79.54,80.05,80.94,83.02,85.31,87.65,89.86,91.27,92.58,93.81,94.97,96.15,97.52,99.11,101.96,107.06,111.72,115.84,119.63,122.93,125.16,128.02,132.18,136.97,141.02,144.32,147.88,152.51,158.41,163.62,167.31,169.76,170.88,170.14,167.94,166.12,166.13,169.11,172.76,175.09,176.49,177.13,176.78,175.94,176.38,177.92,179.61,182.39,185.88,188.77
441.36,435.80,430.71,426.48,423.01,420.16,417.66,414.95,411.99,408.94,405.82,402.29,397.95,393.18,387.91,381.64,375.49,370.03,365.17,360.49,355.08,350.95,347.64,344.65,341.94,340.61,339.24,337.53,335.96,334.17,331.73,328.78,325.42,321.50,317.16,313.03,309.19,304.94,301.10,297.52,294.16,291.05,288.24,286.18,284.73,283.87,283.61,283.24,282.68,281.76,279.90,276.48,272.65,268.78,264.85,260.88,256.69,252.05,246.88,241.42,236.53,231.86,227.16,222.23,216.93,211.52,206.09,200.69,195.54,190.47,185.53,180.40,174.33,168.33,162.87,158.25,154.99,153.14,154.36,157.67,162.27,166.69,170.97,175.36,179.43,182.25,184.47,187.16,191.01,195.99,199.48,202.46,204.71,206.03,206.35,206.21,206.32,206.81,207.56,207.89,207.59,207.03,206.41,205.90,205.84,206.22,207.03,208.38,209.56,210.22,210.25,209.51,208.25,206.39,204.22,201.89,199.48,196.85,193.90,190.52,186.13,179.50,169.97,161.57,157.01,156.33,158.06,160.01,161.43,162.24,163.27,165.75,169.21,173.06,176.51,179.01,180.80,181.84,181.88,181.18,180.28,179.33,178.35,177.49,176.88,176.22,175.36,174.61,174.35,174.44,175.01,176.50,177.68,178.45,178.71,178.16,176.62,174.09,170.72,166.29,160.33,153.37,146.19,139.38,133.36,126.91,119.87,113.00,107.01,102.34,99.48,97.68,96.69,96.66,96.76,96.63,96.38,96.12,95.49,94.62,93.77,92.89,91.57,89.53,87.70,85.95,83.81,81.51,79.91,78.98,78.61,78.34,78.17,78.01,77.89,77.85,77.93,78.07,78.23,78.37,78.48,78.69,78.93,79.19,79.52,80.49,81.80,83.32,85.11,87.19,89.01,90.69,92.27,93.47,94.63,95.76,96.87,98.08,100.10,103.69,108.91,115.47,120.68,124.58,127.81,130.29,131.12,132.06,134.11,137.03,140.17,144.03,148.20,153.41,159.97,165.93,170.81,174.45,176.39,175.64,173.52,171.88,172.27,175.84,179.31,182.05,184.09,185.17,184.69,183.98,183.80,184.34,185.79,187.91,190.18,191.99
440.06,434.08,428.51,423.60,419.93,417.30,414.81,411.94,408.74,405.51,402.37,398.74,394.48,389.73,384.41,378.40,372.67,367.50,362.61,357.38,351.35,347.46,344.54,341.57,338.86,337.33,335.35,332.79,330.74,328.53,326.20,323.58,320.34,316.47,312.47,308.49,304.47,300.15,296.19,292.35,288.62,285.24,282.31,279.86,277.88,276.58,276.19,275.85,275.44,274.69,272.87,269.47,266.15,263.01,259.73,256.55,253.17,249.30,244.81,240.05,235.51,230.98,226.38,221.59,216.03,210.47,205.09,200.00,195.14,190.19,185.24,179.94,173.48,167.69,162.51,158.08,155.13,155.21,158.67,163.60,168.98,174.13,179.13,183.81,187.85,190.59,192.63,194.89,198.04,202.24,205.91,209.20,211.89,213.71,214.20,213.93,213.79,213.97,214.32,213.94,213.37,212.72,212.01,211.37,211.29,211.73,212.68,214.24,215.49,215.95,215.60,214.41,212.85,210.84,208.45,205.75,202.96,199.91,196.68,193.16,188.89,183.05,173.33,164.64,160.34,160.20,162.04,163.93,165.30,166.20,167.40,170.00,173.50,177.25,180.70,183.29,185.13,186.25,186.65,186.21,185.41,184.47,183.45,182.58,182.05,181.48,180.68,180.02,179.90,180.11,180.62,181.44,182.01,182.01,181.59,180.71,178.64,175.56,171.63,166.64,160.07,152.62,144.93,137.69,131.51,124.56,117.22,110.67,105.58,101.37,99.17,98.06,97.69,98.06,98.27,98.11,97.81,97.52,96.82,96.00,95.25,94.47,93.35,92.46,91.65,90.36,87.76,84.78,82.42,80.81,79.98,79.44,79.06,78.83,78.69,78.63,78.67,78.80,78.95,79.11,79.36,79.75,80.28,80.94,81.72,83.33,85.14,87.03,89.05,90.73,92.00,93.13,94.30,95.46,96.62,97.88,99.25,100.81,103.65,109.38,116.72,123.75,128.85,132.38,135.04,136.77,137.06,137.09,137.65,138.84,140.77,144.29,148.55,154.06,161.18,167.97,174.05,178.72,181.37,181.15,179.26,177.80,178.35,181.97,185.08,187.77,190.01,191.46,191.45,191.39,191.16,191.16,192.21,193.51,194.66,195.66
439.36,433.91,429.08,423.89,419.74,416.65,413.48,409.96,406.39,402.83,399.20,395.21,391.08,386.37,381.09,376.03,370.96,366.03,360.96,355.30,349.99,346.00,342.61,339.34,336.48,334.23,331.60,328.73,326.75,324.37,321.84,318.89,315.11,311.14,307.28,303.44,299.52,295.51,291.62,287.50,283.43,280.09,277.33,274.98,272.77,270.69,269.04,268.00,267.42,266.82,265.12,262.32,259.79,257.53,255.19,252.63,249.59,246.11,242.25,238.18,233.95,229.59,225.13,220.38,214.55,208.98,203.81,198.99,194.42,189.62,184.63,179.11,172.35,166.82,162.02,157.88,155.44,157.67,162.76,168.82,175.03,180.88,186.78,191.35,194.49,196.69,198.62,200.98,204.03,207.94,212.34,215.87,218.78,220.96,221.79,221.77,221.58,221.31,220.72,219.20,218.19,217.40,216.55,215.57,215.43,216.03,217.30,219.19,220.67,220.98,220.27,218.67,216.74,214.55,212.12,209.37,206.25,202.78,199.16,195.23,190.47,184.44,175.23,167.36,163.81,163.79,165.62,167.51,168.94,170.06,171.64,174.40,177.77,181.20,184.36,187.14,189.17,190.32,190.87,190.73,190.10,189.17,188.05,187.01,186.29,185.71,185.15,184.73,184.69,184.93,185.29,185.59,185.70,185.19,184.25,182.85,180.12,176.47,171.62,165.42,158.21,150.29,142.22,134.72,128.40,120.79,113.69,108.06,104.17,100.72,99.37,99.15,99.47,99.94,100.19,99.93,99.45,98.98,98.26,97.59,96.86,96.06,95.28,94.50,93.69,92.64,91.03,89.26,86.81,84.34,82.40,81.13,80.26,79.79,79.63,79.55,79.61,79.76,79.92,80.13,80.81,81.66,82.86,84.48,86.17,88.16,89.59,90.60,91.71,92.78,93.90,95.08,96.30,97.55,98.76,100.37,102.45,104.86,108.55,116.01,124.57,130.78,134.99,138.13,140.28,141.43,142.03,142.43,142.72,143.06,143.76,145.51,148.96,154.43,161.98,169.62,176.66,181.92,185.07,186.17,184.90,183.64,183.99,186.94,189.81,192.08,194.02,195.62,196.43,197.03,197.31,197.40,197.57,198.03,198.66,199.46
439.94,435.52,431.64,427.17,422.68,418.51,414.84,410.79,406.60,402.36,398.03,393.62,389.35,384.68,379.69,375.46,371.44,367.31,362.43,356.00,350.31,346.33,343.22,340.32,337.36,333.82,330.33,327.20,324.53,321.44,318.21,314.69,310.69,306.78,303.21,300.02,297.08,293.95,290.27,285.98,281.58,277.86,274.25,271.25,268.61,266.05,263.58,261.56,260.25,259.42,258.19,256.29,254.47,252.65,250.49,248.17,245.37,242.27,238.91,235.31,231.49,227.37,222.96,218.17,212.34,206.90,202.04,197.73,193.62,188.91,183.62,177.64,170.91,165.85,161.47,157.89,156.44,159.72,165.99,173.32,180.64,186.77,192.35,196.71,199.89,202.28,204.43,207.65,211.64,215.98,220.12,223.56,226.19,227.95,228.83,229.01,228.77,228.29,227.50,225.97,224.56,223.14,221.56,220.02,219.78,220.61,222.20,224.25,225.60,225.80,225.01,223.25,220.85,218.14,215.35,212.47,209.22,205.46,201.41,197.03,191.97,185.70,177.83,170.87,166.94,167.22,169.51,171.76,173.43,174.62,176.33,179.06,182.41,185.91,188.71,191.06,192.88,194.06,194.62,194.67,194.19,193.35,192.33,191.40,190.58,189.93,189.53,189.38,189.38,189.51,189.66,189.57,189.25,188.27,186.65,184.24,180.84,176.37,170.60,163.39,155.01,146.14,137.99,130.75,124.08,115.95,110.30,106.69,104.47,102.74,102.50,103.88,106.12,107.40,107.39,106.19,104.54,103.01,101.41,99.88,98.68,97.88,97.30,96.63,95.82,94.84,93.59,92.24,90.48,88.65,87.06,85.92,84.82,83.93,83.31,83.00,83.22,83.75,84.39,85.03,85.74,86.43,87.30,88.40,89.51,90.82,91.93,92.82,93.72,94.71,95.82,97.01,98.52,101.16,103.17,105.18,107.61,110.94,115.73,122.95,130.40,135.43,138.75,141.25,143.19,144.61,145.89,146.96,147.68,148.04,148.09,148.38,150.58,155.14,162.19,169.86,177.38,183.20,187.05,189.44,189.31,188.73,189.03,191.06,193.38,195.52,197.59,199.56,200.90,201.72,202.14,202.35,202.62,203.27,204.55,205.89
441.66,438.12,434.91,431.17,426.57,421.61,417.45,413.07,408.35,403.40,398.38,393.63,389.17,384.51,379.80,376.10,372.98,369.71,365.26,358.45,351.98,347.71,344.79,342.39,339.59,335.11,330.82,327.22,323.75,319.96,316.33,312.64,308.68,305.12,301.96,299.35,297.22,294.77,291.12,286.64,281.96,277.76,273.23,269.42,266.09,262.91,259.63,256.37,254.05,252.81,251.97,250.66,249.25,247.63,245.55,243.33,240.75,237.95,234.98,231.77,228.33,224.46,220.15,215.33,209.66,204.49,200.05,196.27,192.56,187.81,182.16,175.84,169.47,164.91,161.06,158.15,157.63,161.41,168.88,177.45,185.55,191.84,197.08,201.38,204.92,207.90,210.91,215.35,220.29,224.70,228.16,231.23,233.45,234.75,235.59,235.87,235.57,234.88,233.90,232.42,230.67,228.65,226.46,224.61,224.34,225.29,227.01,228.95,230.01,230.09,229.32,227.58,224.97,221.78,218.60,215.50,212.07,208.04,203.57,198.77,193.42,186.98,180.34,174.31,170.28,171.07,173.74,176.24,178.01,179.21,180.97,183.71,187.08,190.56,193.06,194.97,196.58,197.81,198.32,198.46,198.09,197.37,196.52,195.76,194.92,194.24,193.95,194.00,194.06,194.08,193.96,193.45,192.69,191.24,188.86,185.33,181.25,175.99,169.36,161.13,151.25,141.49,133.46,126.72,120.03,112.32,108.41,106.80,106.27,106.53,107.86,110.89,114.71,116.71,116.41,114.41,111.73,109.06,106.39,103.91,102.09,101.09,100.44,99.59,98.54,97.34,96.06,94.84,93.72,92.62,91.59,90.71,89.60,88.49,87.57,87.10,87.40,88.17,89.11,90.00,90.56,90.96,91.37,91.81,92.17,92.77,93.64,94.63,95.55,96.60,98.09,100.02,102.68,106.83,109.36,111.30,113.61,117.51,122.80,129.03,134.87,138.88,141.44,143.43,145.27,147.15,149.27,151.19,152.55,153.18,152.79,151.96,152.77,156.00,162.07,169.37,177.15,183.46,187.97,191.47,192.82,193.15,193.54,194.84,196.71,198.87,201.23,203.57,205.16,205.99,206.46,206.86,207.51,208.62,210.56,212.47
445.31,441.99,438.63,434.92,430.71,426.09,421.37,417.06,412.19,406.77,401.16,396.28,391.70,387.01,382.33,378.54,375.67,372.97,369.37,363.36,355.87,350.46,347.01,344.97,342.95,338.81,334.03,329.40,325.31,321.21,318.27,315.56,312.12,309.50,306.89,304.41,302.08,299.41,295.24,290.47,285.64,280.99,276.06,271.48,267.05,262.58,258.31,253.33,249.66,247.80,246.92,245.32,243.56,241.83,240.10,237.93,235.52,232.91,230.10,227.26,224.06,220.41,216.31,211.63,206.31,201.68,197.79,194.45,190.91,185.85,179.87,173.64,168.23,164.13,161.00,158.90,158.83,162.49,171.51,181.16,189.01,195.49,201.09,205.78,209.86,213.95,219.19,225.22,230.39,233.48,235.96,238.12,239.94,241.28,241.99,242.25,241.82,240.77,239.11,237.07,235.03,232.88,230.75,229.39,229.23,230.02,231.35,232.67,233.30,233.21,232.50,231.06,228.95,225.63,222.14,218.75,214.84,210.47,205.71,200.55,194.78,188.36,182.15,177.06,174.40,175.98,178.62,180.82,182.29,183.36,185.19,188.19,191.57,194.54,196.94,198.80,200.44,201.78,202.20,202.28,201.95,201.36,200.69,200.04,199.33,198.77,198.52,198.58,198.80,198.75,198.26,197.17,195.99,193.97,190.77,186.16,181.35,175.58,168.28,158.83,146.96,136.83,129.24,123.19,117.47,112.41,110.14,109.70,110.61,112.94,116.78,121.03,124.84,126.90,126.37,124.48,121.79,118.39,114.80,111.78,109.34,107.52,106.33,104.58,102.62,100.61,98.74,97.52,96.38,95.26,94.22,93.36,92.60,91.94,91.41,91.10,91.22,91.58,92.05,92.50,92.71,92.94,93.30,93.70,93.93,94.38,95.24,96.34,97.39,98.46,101.19,105.67,111.53,116.56,118.39,119.13,120.38,123.89,128.10,132.77,137.31,140.92,143.09,145.01,146.93,149.09,152.21,155.22,157.31,158.18,157.47,156.17,155.53,156.97,161.55,168.01,175.84,182.50,187.44,191.62,194.93,196.45,197.16,198.34,200.23,202.63,205.34,207.92,209.21,209.81,210.39,211.16,212.25,213.72,215.61,217.62
449.71,445.95,442.30,438.38,434.09,429.51,424.88,420.72,416.13,410.94,405.24,399.90,395.16,390.46,385.80,381.94,378.75,375.99,372.91,368.17,361.00,354.72,350.50,348.60,346.92,342.79,337.79,332.82,328.47,324.90,322.35,319.98,317.04,314.58,311.80,308.86,305.88,302.75,298.34,293.44,288.45,283.53,278.46,273.58,268.75,263.88,259.15,253.63,249.15,246.11,243.68,241.31,239.01,236.87,234.89,232.59,230.21,227.76,225.19,222.46,219.21,215.58,211.52,206.89,202.43,198.78,195.60,192.46,188.59,183.52,177.58,171.62,167.35,163.93,161.30,159.65,159.94,164.02,173.34,183.05,190.81,197.66,203.94,209.44,214.58,220.34,226.97,233.29,238.16,240.86,243.01,245.00,246.62,247.68,248.05,247.83,246.77,245.11,243.07,240.83,238.59,236.32,234.24,233.14,233.19,233.96,235.06,236.00,236.41,236.19,235.41,234.00,231.91,228.95,225.56,221.88,217.78,212.95,207.72,202.19,196.29,189.98,184.35,180.15,178.39,180.25,182.92,184.98,186.36,187.82,190.22,193.41,196.72,199.55,202.08,203.86,205.23,206.20,206.41,206.27,205.81,205.18,204.50,203.83,203.26,202.87,202.77,202.94,203.22,203.18,202.57,201.09,199.08,196.09,192.09,187.08,181.89,175.70,167.95,158.43,147.66,137.30,129.47,123.48,118.10,114.29,112.66,112.91,115.09,118.85,123.82,128.45,132.01,133.73,133.31,131.86,129.72,126.81,123.67,121.23,119.30,117.65,115.80,113.08,110.15,107.28,104.59,102.06,99.78,97.98,96.83,96.00,95.34,94.76,94.28,94.00,94.02,94.20,94.45,94.69,94.75,94.94,95.26,95.62,95.73,96.06,96.83,98.00,99.66,102.51,107.93,114.88,121.86,125.89,127.25,127.30,127.45,129.88,132.87,136.32,139.83,142.80,144.72,146.56,148.77,151.66,155.56,159.74,162.96,164.71,164.11,160.80,158.41,158.74,162.64,168.11,175.31,181.74,186.75,191.20,195.60,198.52,200.25,201.53,203.51,206.08,208.66,210.83,212.13,213.02,213.92,215.04,216.64,218.72,220.88,223.16
454.30,449.98,445.86,441.62,437.12,432.50,428.13,424.14,419.99,415.31,409.82,404.06,399.09,394.29,389.55,385.52,381.97,378.96,376.14,372.56,366.40,359.74,354.78,352.57,350.81,346.75,341.76,336.66,332.21,329.37,327.02,324.63,321.99,319.40,316.40,312.95,309.17,305.41,300.74,295.65,290.48,285.40,280.32,275.36,270.47,265.61,260.74,255.18,250.16,245.89,241.81,238.54,235.54,232.75,230.22,227.61,225.06,222.57,220.05,217.30,213.99,210.33,206.37,202.15,198.74,196.02,193.38,190.19,185.88,181.12,175.60,170.13,167.00,164.19,161.89,160.51,161.15,165.59,174.63,184.02,191.81,199.05,206.19,212.67,218.98,226.36,234.03,240.25,244.71,247.37,249.53,251.62,253.09,253.73,253.68,252.88,251.17,248.92,246.58,244.20,241.79,239.43,237.40,236.48,236.79,237.65,238.61,239.33,239.61,239.25,238.35,236.83,234.57,232.03,228.84,224.95,220.76,215.58,209.80,203.82,197.92,191.82,186.90,183.54,182.45,184.39,187.03,189.05,190.60,192.75,195.82,199.16,202.34,205.13,207.74,209.52,210.66,211.24,211.27,210.97,210.41,209.68,208.81,207.95,207.40,207.13,207.15,207.46,207.71,207.61,206.87,204.96,202.08,198.13,193.43,188.24,182.83,176.31,168.27,159.04,150.20,139.83,131.66,125.48,120.06,116.66,115.27,116.04,119.29,124.13,129.65,134.51,138.06,139.65,139.50,138.45,136.79,134.51,132.23,130.66,129.53,128.39,126.17,122.86,119.04,115.24,111.82,107.95,104.51,101.88,100.24,99.19,98.38,97.60,96.88,96.51,96.44,96.52,96.66,96.77,96.79,96.95,97.26,97.58,97.65,97.91,98.61,99.94,102.55,107.73,115.90,124.69,131.75,134.70,135.80,135.38,134.52,135.66,137.61,140.13,142.76,144.98,146.58,148.42,151.07,154.82,159.46,164.59,168.76,171.30,170.95,165.87,161.88,161.33,164.99,169.69,175.88,181.62,186.39,190.88,195.90,200.00,202.84,204.50,206.60,209.18,211.47,213.13,214.53,215.81,217.19,218.82,220.94,223.66,226.34,229.10
458.69,454.15,449.07,444.39,439.82,435.27,430.93,427.12,423.41,419.34,414.42,408.87,403.51,398.27,393.15,388.48,385.09,382.10,379.08,375.65,371.21,365.56,360.22,356.33,353.57,350.26,345.73,340.41,335.98,333.49,331.02,328.22,325.24,322.49,319.93,316.56,312.09,307.36,302.01,296.38,290.83,285.79,280.81,275.97,271.29,266.77,262.26,256.90,251.54,246.64,242.45,238.43,234.39,230.53,227.06,223.75,220.60,217.36,214.06,211.21,208.22,204.64,201.06,198.73,196.34,193.83,190.89,187.16,182.63,178.94,174.70,170.31,168.05,165.30,162.99,161.81,162.78,166.69,175.06,184.15,192.12,199.63,207.83,215.38,222.54,230.68,239.24,245.60,249.90,252.59,255.14,257.32,258.55,258.72,258.23,257.14,255.30,252.88,250.07,247.38,244.78,242.37,240.44,239.64,240.37,241.50,242.51,243.15,243.26,242.77,241.71,239.97,237.61,234.95,231.76,227.97,223.75,218.69,212.31,205.55,199.73,194.19,190.12,187.54,186.91,188.87,191.16,193.35,195.69,198.96,202.40,205.75,208.80,211.36,213.62,215.71,217.13,217.76,217.94,217.93,217.53,216.70,215.35,213.76,212.93,212.51,212.37,212.84,212.82,212.33,211.11,208.41,205.01,200.65,195.61,190.15,184.62,178.02,169.87,160.75,152.88,143.11,135.06,128.62,122.64,118.53,117.19,118.46,122.37,127.81,133.72,139.26,143.91,146.68,146.90,145.70,143.57,140.86,139.11,138.01,137.30,136.65,135.20,132.63,128.29,123.41,119.83,116.11,112.91,109.72,106.48,104.34,102.85,101.31,99.81,99.08,98.85,98.83,98.87,98.91,98.91,99.04,99.34,99.72,99.92,100.20,101.07,102.96,107.00,114.36,123.56,132.09,138.24,142.18,143.48,142.76,141.22,141.27,142.90,145.02,147.03,148.48,149.22,151.41,154.80,159.30,164.80,169.99,173.91,176.20,176.01,171.96,167.28,165.81,169.64,174.61,179.30,183.51,187.44,191.65,196.70,200.95,204.34,207.08,209.32,211.47,213.46,215.14,216.55,217.96,220.06,222.70,225.39,228.45,232.19,235.95
462.06,457.69,452.13,447.05,442.41,438.11,434.15,430.39,426.73,422.86,418.40,413.19,407.68,402.15,396.74,391.74,387.91,384.65,381.51,378.15,374.40,369.71,364.21,358.58,355.24,352.16,348.11,343.25,338.99,336.10,333.21,330.08,326.89,323.89,321.31,317.80,312.93,307.75,302.09,296.02,290.18,285.53,280.84,276.45,272.33,268.33,264.01,258.89,253.91,249.50,245.69,241.10,236.07,231.17,226.94,222.86,219.00,215.13,211.24,207.65,204.04,200.69,197.93,196.26,194.31,192.04,189.03,185.01,180.76,177.62,174.32,170.91,168.71,166.15,163.84,162.83,164.43,167.79,175.43,184.04,192.02,200.10,208.93,217.28,225.48,234.70,243.28,249.42,253.67,256.64,259.38,261.64,262.86,262.97,262.46,261.27,259.42,257.01,254.03,250.77,247.73,245.17,243.47,243.27,244.31,245.54,246.51,246.99,247.01,246.49,245.42,243.63,241.14,238.34,235.01,231.10,226.82,221.91,215.07,207.69,201.91,196.89,193.43,191.46,191.19,192.68,194.77,197.42,200.62,204.41,208.13,211.58,214.63,217.14,219.16,221.08,222.45,223.16,223.51,223.72,223.57,222.97,221.74,220.09,219.12,218.60,218.34,218.32,217.86,216.88,215.09,211.78,207.68,202.78,197.46,191.97,186.45,179.78,171.62,162.56,154.72,146.03,138.03,130.95,124.78,120.17,118.73,120.37,124.99,130.91,137.38,143.71,149.26,152.85,153.30,152.22,150.19,147.49,145.70,144.66,144.06,143.60,142.66,140.91,137.61,133.50,129.77,126.02,122.65,119.11,115.21,111.98,110.00,108.69,107.73,106.93,106.38,106.25,106.22,105.91,105.40,105.03,104.96,105.13,105.11,105.00,105.30,106.84,111.40,119.86,128.79,136.75,142.99,147.44,148.99,148.74,147.66,147.19,148.21,149.71,151.23,152.46,153.13,155.57,159.49,164.65,170.57,175.54,178.91,180.56,180.00,176.96,172.25,170.55,174.64,179.05,182.63,185.95,189.38,193.28,197.91,202.10,205.80,209.04,211.40,213.48,215.39,217.16,218.93,221.18,224.21,227.76,231.28,234.62,238.29,241.91
464.82,460.73,455.13,449.70,444.98,441.02,437.65,433.90,430.00,426.05,421.88,417.06,411.53,405.82,400.23,395.06,390.49,386.76,383.55,380.26,376.59,372.68,367.21,360.22,356.38,353.10,349.45,345.34,341.23,337.57,334.08,330.67,327.36,324.13,321.15,317.33,312.28,307.01,301.32,295.07,289.17,285.10,280.89,277.13,273.69,270.25,266.10,261.27,256.94,253.35,249.90,244.87,239.03,233.34,228.52,223.77,219.27,214.98,210.79,206.34,201.54,198.33,196.47,194.69,192.84,190.83,187.96,183.88,180.10,177.03,174.18,171.41,168.86,166.52,164.53,164.04,166.48,169.69,176.47,184.25,191.92,200.63,209.69,218.67,227.98,238.32,246.44,252.16,256.45,259.86,262.73,265.06,266.38,266.68,266.38,265.26,263.48,261.16,258.17,254.31,250.78,248.01,246.54,247.11,248.34,249.54,250.41,250.69,250.67,250.19,249.18,247.47,244.94,242.02,238.50,234.39,230.01,225.19,218.12,210.34,204.44,199.86,196.88,195.39,195.40,196.22,198.25,201.45,205.41,209.39,213.36,216.92,220.03,222.56,224.47,226.00,227.16,227.96,228.49,228.81,228.90,228.67,227.84,226.50,225.49,224.85,224.42,223.60,222.57,221.03,218.67,214.92,209.98,204.52,198.97,193.55,188.09,181.36,173.28,164.32,156.02,148.40,140.41,132.62,126.47,121.64,120.30,122.35,127.53,133.77,140.84,147.94,154.29,158.42,159.12,158.38,156.79,154.41,152.32,151.09,150.38,149.92,149.21,148.16,146.56,144.11,140.33,136.42,132.61,128.77,124.74,120.61,118.38,117.88,118.23,117.69,116.84,116.56,116.38,115.58,114.30,113.05,112.25,111.91,111.43,110.72,110.15,110.91,115.42,124.07,132.08,139.45,146.28,150.84,152.83,153.59,153.63,153.17,153.47,154.31,155.50,156.90,158.01,160.66,164.88,170.51,176.57,181.15,183.75,184.47,183.23,180.85,176.59,175.20,179.44,182.95,185.84,188.74,191.93,195.49,199.50,203.53,207.34,210.67,213.15,215.35,217.42,219.45,221.84,225.29,229.31,233.55,237.73,241.18,244.30,247.33
467.52,463.30,458.14,452.63,447.88,444.19,441.25,437.59,433.41,429.04,424.70,420.20,414.66,408.86,403.22,397.88,392.74,388.54,385.12,381.99,378.58,374.80,369.75,363.23,357.86,354.00,350.35,346.36,341.98,337.79,333.75,329.95,326.55,323.29,319.71,315.47,310.48,305.18,299.76,294.13,288.98,285.52,282.06,278.89,275.85,272.69,269.22,264.75,260.33,256.18,251.82,246.39,240.52,234.86,229.89,224.94,220.33,216.24,212.55,208.38,202.31,198.48,196.76,194.94,193.08,191.25,188.69,184.94,181.27,177.53,173.84,170.47,167.94,165.56,165.27,166.97,170.43,175.28,180.70,186.39,192.88,201.66,210.36,219.76,230.05,240.73,248.39,253.92,258.44,262.39,265.56,268.03,269.40,269.74,269.57,268.84,267.27,264.94,261.82,257.99,254.41,251.52,249.94,250.56,251.74,252.83,253.57,253.74,253.70,253.25,252.32,250.75,248.58,245.63,242.12,238.09,233.53,228.50,221.88,214.39,207.60,203.33,200.81,199.66,199.77,200.38,202.55,205.96,210.14,214.49,218.72,222.26,225.19,227.62,229.75,231.26,232.45,233.37,233.94,234.18,234.30,234.17,233.38,232.07,231.00,230.07,229.10,227.74,226.06,223.94,221.15,217.14,211.39,205.47,199.81,194.37,188.77,182.12,174.36,165.70,157.12,149.42,141.38,133.52,127.34,122.73,122.88,125.92,130.76,136.96,144.15,151.99,159.34,163.73,165.15,164.94,163.73,161.72,159.60,158.13,157.21,156.59,155.72,154.80,153.69,151.87,148.51,144.61,140.40,136.01,131.48,127.14,125.28,125.55,126.89,127.37,126.84,126.15,125.37,124.25,122.31,119.68,117.48,116.10,114.91,113.75,112.98,113.69,118.00,125.59,133.06,140.29,147.10,151.53,154.91,157.02,158.01,158.48,158.51,159.11,160.38,162.19,163.95,166.91,171.05,176.38,182.60,186.72,188.23,187.66,185.59,182.79,179.46,178.80,182.60,186.10,189.08,191.97,194.94,198.12,201.78,205.60,209.26,212.40,215.06,217.33,219.87,222.90,226.12,230.57,235.24,239.48,242.77,245.79,249.25,252.85
470.30,466.05,461.36,456.27,451.65,447.78,444.56,440.79,436.40,431.71,426.98,422.39,416.96,411.32,405.74,400.12,394.71,390.17,386.48,383.42,380.20,376.58,372.16,366.52,359.95,355.41,351.44,347.25,342.56,338.10,333.89,330.00,326.54,323.16,319.15,314.67,309.74,304.31,299.16,294.12,289.59,286.38,283.25,280.35,277.43,274.34,271.21,266.84,262.00,256.98,251.69,246.08,240.42,235.04,230.16,225.22,220.61,216.66,213.34,209.59,203.44,199.28,197.20,195.21,193.31,191.50,189.04,185.49,181.92,177.58,173.21,169.39,166.99,165.91,167.95,171.86,176.13,181.31,185.98,190.82,196.69,204.50,212.39,221.81,232.49,242.80,249.89,255.31,260.11,264.53,267.94,270.31,271.66,272.10,271.99,271.36,270.02,268.00,265.17,261.49,258.11,255.35,253.74,254.17,255.17,256.06,256.64,256.74,256.65,256.18,255.27,253.81,251.92,249.24,246.01,242.11,237.12,231.99,225.93,218.97,211.78,207.04,204.70,203.86,204.10,204.85,207.30,210.93,215.25,219.78,224.24,227.99,231.03,233.38,235.28,236.61,237.66,238.53,239.08,239.27,239.40,239.33,238.62,237.41,236.26,235.03,233.57,231.81,229.22,226.20,222.80,218.46,212.02,205.74,199.97,194.46,188.69,182.11,174.70,166.45,157.71,149.66,141.28,133.25,127.41,124.54,126.23,130.04,134.69,140.41,147.33,155.39,163.40,168.57,171.10,171.50,170.58,168.83,166.97,165.19,163.81,162.88,161.93,160.95,159.83,158.16,155.26,151.53,147.15,142.33,137.27,132.77,130.72,131.17,133.13,134.52,134.91,134.50,133.59,132.15,129.88,126.57,123.39,120.73,118.18,116.38,115.29,115.64,119.17,125.46,132.53,139.80,146.72,151.69,156.24,159.95,162.64,164.33,165.08,166.30,168.06,170.04,171.78,174.26,178.01,183.03,188.08,191.35,192.11,190.73,187.81,184.68,182.53,182.81,186.21,189.71,192.79,195.64,198.42,201.23,204.59,208.04,211.35,214.32,217.06,219.84,223.06,226.89,231.12,235.79,240.25,244.15,247.28,250.63,254.65,258.88
473.21,469.09,464.84,460.56,456.16,451.74,447.54,443.39,438.85,433.92,428.70,423.71,418.48,413.18,407.72,401.74,396.34,391.61,387.63,384.57,381.53,378.21,374.51,369.79,362.59,357.30,352.79,348.29,343.38,338.79,334.73,331.04,327.52,323.89,319.63,315.04,310.13,304.52,299.56,294.92,290.70,287.36,284.14,281.19,278.19,275.00,271.84,267.18,261.69,255.78,249.80,244.20,238.85,233.78,229.12,224.35,219.78,215.91,212.76,209.32,204.20,200.12,197.36,195.13,193.15,191.18,188.60,185.08,181.59,176.87,172.23,168.49,166.53,168.09,172.68,178.31,183.10,187.35,191.95,197.14,202.96,209.00,215.85,224.96,235.43,244.69,251.14,256.50,261.60,266.43,269.90,272.00,273.27,273.90,273.78,272.96,271.84,270.38,268.19,264.73,261.74,259.35,257.86,258.00,258.76,259.44,259.83,259.88,259.69,259.14,258.21,256.79,255.00,252.79,250.04,246.32,240.89,235.75,230.21,223.94,216.98,211.24,208.82,208.24,208.63,209.76,212.54,216.40,220.84,225.41,230.02,234.08,237.38,239.64,240.93,241.87,242.67,243.33,243.81,244.03,244.18,244.15,243.57,242.53,241.23,239.70,237.88,235.84,232.17,227.99,223.66,218.79,211.83,205.32,199.45,193.85,187.96,181.41,174.31,166.58,157.90,149.35,140.42,132.13,127.00,127.08,130.19,134.48,139.22,144.18,150.54,158.30,166.52,173.03,176.77,177.76,177.08,175.59,174.24,172.20,170.30,168.96,167.98,166.76,165.18,163.23,160.71,157.25,152.97,147.96,142.45,137.72,134.90,134.97,137.18,139.24,140.95,141.58,141.11,139.49,137.14,133.83,130.11,126.12,121.78,119.12,117.48,117.16,119.55,124.51,131.11,138.31,145.43,151.62,157.08,162.50,167.54,170.70,173.03,175.49,177.92,179.78,180.88,182.26,185.38,190.05,192.97,195.11,195.44,193.75,190.03,186.77,185.91,187.24,190.41,193.83,196.87,199.65,202.25,204.73,207.74,210.70,213.56,216.43,219.27,222.92,226.94,231.26,236.40,240.61,244.25,247.72,251.56,255.91,260.53,265.32
476.50,472.61,468.78,464.84,460.58,455.79,450.17,445.22,440.19,434.95,429.57,424.42,419.24,414.01,408.55,402.36,397.03,392.32,388.35,385.50,382.98,380.34,377.03,372.26,365.32,359.23,354.38,350.36,346.01,340.68,336.48,333.00,329.31,325.25,320.65,315.75,310.61,305.24,300.24,295.35,290.76,287.00,283.50,280.48,277.50,274.28,271.09,265.19,258.87,252.92,246.98,241.46,236.03,230.77,225.87,221.19,217.08,213.53,210.38,206.78,202.41,198.80,196.09,193.81,191.78,189.38,186.47,183.02,179.37,174.51,170.58,168.50,168.68,173.50,179.04,184.24,189.08,193.52,198.23,203.40,208.87,214.01,220.46,229.30,239.10,246.71,252.53,257.89,263.36,268.61,271.52,273.53,274.94,275.70,275.58,274.74,273.70,272.38,270.37,267.47,264.82,262.78,261.72,261.99,262.81,263.50,263.85,263.83,263.47,262.81,261.75,260.17,258.19,256.00,253.43,250.16,245.63,240.21,234.75,229.16,223.15,217.74,215.26,214.56,214.98,216.20,218.78,222.64,227.39,232.40,236.73,240.18,242.88,244.72,245.71,246.42,247.03,247.58,248.12,248.47,248.68,248.64,248.03,246.85,245.10,243.22,241.38,239.32,235.03,229.56,223.56,217.30,210.25,203.95,198.26,192.73,186.86,180.16,173.19,166.04,158.24,149.30,140.09,132.03,127.77,129.81,134.13,139.00,143.87,148.68,154.71,161.71,169.55,177.68,181.17,182.13,182.01,181.42,180.69,179.26,177.68,176.20,174.73,172.80,170.20,167.27,164.44,161.25,157.38,152.72,147.34,142.16,138.60,138.06,140.06,142.59,145.02,147.09,148.09,147.01,144.36,140.72,136.64,132.13,126.94,123.12,120.72,120.11,122.40,126.50,131.40,137.09,143.84,151.22,157.75,164.61,171.54,176.70,180.48,183.40,185.57,186.82,187.49,188.58,191.03,194.67,197.31,198.73,198.66,196.75,192.44,189.06,188.99,191.16,194.55,197.87,200.71,203.39,205.96,208.19,210.59,213.16,215.85,218.80,222.50,226.74,231.20,235.77,240.27,243.96,247.64,251.76,256.63,261.22,266.07,271.45
479.83,476.10,472.48,468.58,464.16,458.88,452.20,446.34,440.74,435.20,429.71,424.38,419.19,414.02,408.63,402.63,397.50,393.06,389.37,386.77,384.62,382.42,379.39,374.66,367.81,360.86,355.74,352.33,348.69,343.27,338.81,335.05,331.00,326.40,321.36,316.02,310.57,305.41,300.24,294.99,290.04,286.07,282.39,279.12,275.94,272.63,268.95,262.41,255.70,249.69,243.72,237.88,232.23,226.86,221.92,217.48,213.68,210.32,207.14,203.49,199.79,196.67,194.09,191.78,189.48,186.71,183.64,180.36,176.66,172.32,169.36,169.03,172.54,179.06,184.72,189.48,194.34,199.12,204.06,209.34,214.89,220.18,226.32,234.25,242.72,249.00,254.20,259.59,265.29,270.60,273.35,275.35,276.76,277.48,277.36,276.60,275.59,274.25,272.31,269.99,267.80,266.19,265.55,266.05,266.96,267.64,267.97,267.89,267.39,266.63,265.50,263.77,261.61,259.32,256.77,253.77,250.04,244.71,239.39,234.31,229.31,224.73,222.53,221.92,222.36,223.56,225.85,229.60,234.38,239.13,242.94,245.76,247.85,249.28,250.12,250.80,251.39,251.96,252.60,253.01,253.17,252.99,252.22,250.76,248.55,246.26,244.22,241.84,236.88,230.25,222.74,215.23,208.33,202.34,196.82,191.31,185.40,178.76,171.98,165.18,157.84,149.02,140.05,132.47,129.01,132.60,138.09,143.62,148.69,153.50,159.07,165.81,173.61,181.48,184.71,185.91,186.36,186.48,186.16,185.23,183.94,182.38,180.61,178.26,175.09,171.51,168.16,164.97,161.47,157.34,152.36,146.78,142.63,141.36,142.78,145.55,148.80,152.19,154.38,153.84,151.33,147.54,143.14,138.25,132.76,127.99,125.04,124.41,126.80,130.11,133.73,138.47,144.97,152.03,158.89,166.82,175.43,182.44,186.72,189.42,191.16,192.07,192.59,193.68,195.66,198.43,200.87,201.85,201.45,199.38,195.06,191.72,192.15,194.82,198.34,201.53,204.28,206.86,209.28,211.28,213.22,215.47,218.18,221.59,225.97,230.65,235.33,239.76,243.57,247.10,251.16,256.01,261.58,266.30,271.41,277.05
483.11,479.38,475.64,471.45,466.46,460.46,453.29,446.53,440.37,434.58,428.97,423.40,418.18,413.11,407.98,402.63,397.90,394.03,390.95,388.62,386.50,384.27,381.44,377.10,369.90,362.06,356.71,353.83,350.83,346.40,341.62,336.91,332.24,326.97,321.33,315.49,309.69,304.57,299.07,293.51,288.44,284.64,280.96,277.17,273.51,269.93,265.22,259.13,252.69,246.32,240.03,233.38,227.43,222.21,217.63,213.60,209.83,206.38,203.17,199.77,196.68,193.91,191.40,188.99,186.13,183.22,180.32,177.31,173.85,170.91,169.04,170.16,178.00,183.89,188.95,193.83,198.80,203.84,209.15,214.90,221.18,227.78,233.56,239.73,246.14,251.73,256.31,261.78,267.45,272.27,275.58,277.63,278.81,279.26,279.15,278.59,277.55,276.08,274.18,272.36,270.78,269.70,269.44,270.17,271.08,271.73,272.01,271.88,271.28,270.48,269.35,267.61,265.32,262.90,260.23,257.21,253.74,249.08,244.09,239.28,235.12,231.73,230.34,230.11,230.61,231.71,233.76,237.31,241.62,245.02,248.15,250.52,252.25,253.41,254.24,255.09,255.89,256.62,257.33,257.71,257.65,257.16,256.13,254.28,251.67,248.90,246.22,243.07,237.21,229.63,221.17,212.86,206.36,200.68,195.22,189.63,183.57,177.31,170.83,163.94,156.27,148.28,140.23,133.40,130.74,135.51,142.09,148.35,153.66,158.56,163.48,170.73,179.05,184.06,187.41,189.30,190.29,190.66,190.42,189.59,188.32,186.71,185.03,182.81,179.89,176.37,172.42,168.85,165.52,161.95,157.55,151.74,147.17,145.05,145.54,148.44,152.78,157.04,159.71,159.46,157.78,154.21,149.57,144.31,138.98,133.66,130.56,130.18,132.66,135.27,138.62,143.54,149.98,154.68,160.80,169.33,179.36,187.69,191.19,193.03,194.40,195.49,196.21,197.45,199.30,201.59,203.50,204.34,203.69,201.53,197.86,194.86,195.50,198.23,201.63,204.64,207.49,209.96,212.04,213.87,215.63,217.72,220.65,224.96,229.53,234.51,239.13,242.98,246.47,250.36,255.04,260.42,266.13,271.04,276.45,281.82
486.06,482.09,477.86,472.92,467.01,460.06,452.15,445.09,438.78,432.94,427.41,422.01,416.88,411.92,407.12,402.55,398.57,395.37,392.80,390.66,388.57,385.90,382.75,378.55,371.40,362.98,357.29,354.49,351.62,347.68,343.00,337.90,332.40,325.98,319.54,313.36,307.61,302.47,296.40,290.88,286.28,282.52,278.53,274.52,270.63,266.71,261.82,255.59,249.10,242.57,235.68,229.08,223.42,218.53,214.21,210.21,206.35,202.77,199.55,196.44,193.44,190.60,187.89,185.21,182.37,179.86,177.46,174.93,172.16,170.37,169.84,172.38,181.49,187.61,192.66,197.64,202.93,208.23,214.37,220.99,227.75,234.11,239.61,245.01,250.34,255.19,259.86,265.16,270.48,275.01,278.27,280.18,281.18,281.52,281.46,280.90,279.85,278.39,276.65,274.98,273.79,273.21,273.32,274.05,275.01,275.73,276.05,275.86,275.14,274.21,273.05,271.43,269.23,266.84,264.12,261.04,257.67,253.29,248.46,243.87,240.37,238.04,237.22,237.17,237.54,238.44,240.60,243.79,247.30,249.97,252.35,254.39,256.06,257.29,258.22,259.08,259.82,260.45,260.98,261.20,261.00,260.41,259.32,257.52,254.64,251.12,247.28,243.40,235.73,227.68,219.88,211.31,205.21,199.62,194.01,188.31,182.37,176.21,169.19,161.32,153.76,146.63,139.53,134.13,133.87,139.33,146.33,152.81,158.07,163.00,168.41,175.33,182.59,186.99,190.36,192.53,193.78,194.23,194.05,193.55,192.53,190.97,189.31,187.08,184.64,181.75,177.92,174.07,170.03,165.90,161.48,155.96,150.54,147.68,148.38,152.90,157.43,161.05,163.07,162.80,161.42,158.91,154.86,149.33,143.72,138.42,135.26,134.86,137.67,141.00,144.80,149.25,154.16,157.95,163.65,172.27,182.49,190.24,193.61,195.63,197.35,198.85,199.91,201.09,202.61,204.45,206.16,207.04,206.22,203.82,200.39,197.98,198.71,201.25,204.43,207.45,210.12,212.44,214.47,216.30,218.23,221.11,224.86,229.27,233.77,238.26,242.36,245.97,249.63,253.90,259.05,264.75,270.33,275.43,280.30,284.96
488.33,484.05,479.24,473.30,466.30,458.40,449.95,443.00,436.90,431.29,426.10,421.16,416.09,411.15,406.62,402.81,399.60,396.98,394.72,392.57,390.46,387.30,383.58,379.12,372.11,363.70,357.89,354.91,351.93,348.03,343.32,337.93,331.58,323.88,316.80,310.44,304.75,299.43,293.16,287.93,283.79,279.88,275.58,271.57,267.69,263.53,258.33,251.95,245.42,238.82,231.59,225.25,219.97,215.38,211.21,207.10,203.16,199.53,196.31,193.37,190.30,187.25,184.31,181.61,179.21,177.44,175.86,174.15,172.53,172.02,172.91,176.45,184.92,190.92,196.08,201.31,207.03,212.57,219.66,227.16,234.18,240.03,245.16,250.02,254.69,259.14,264.12,269.25,274.15,278.35,281.29,282.93,283.74,283.98,283.93,283.37,282.35,280.99,279.38,277.88,277.06,276.91,277.42,278.22,279.25,280.00,280.29,279.99,279.13,278.04,276.80,275.25,273.17,270.83,268.13,265.06,261.74,257.59,252.93,248.51,245.41,243.91,243.54,243.60,243.84,244.55,246.77,249.56,252.33,254.59,256.44,258.27,259.93,261.17,262.16,262.92,263.51,263.95,264.24,264.25,263.90,263.20,262.01,260.26,257.14,252.87,247.83,243.04,234.08,226.02,219.09,210.36,204.61,199.14,193.44,187.61,181.75,175.55,167.91,159.11,151.48,144.80,138.56,134.69,136.88,143.20,150.37,156.87,162.42,168.33,174.07,180.01,185.80,190.24,193.65,195.93,197.32,197.91,197.85,197.65,196.90,195.47,193.81,191.60,189.51,187.18,183.69,179.68,174.94,169.97,165.01,159.81,153.88,150.80,152.07,157.94,162.30,164.88,165.92,165.44,164.11,162.36,159.02,153.69,147.58,142.44,139.59,139.50,142.81,146.77,150.83,154.75,158.38,161.91,167.19,175.36,185.01,191.79,195.33,197.87,200.15,202.14,203.56,204.72,205.93,207.32,208.84,209.72,208.81,206.33,203.14,201.23,201.91,204.13,207.06,210.00,212.51,214.75,216.89,219.12,221.62,225.29,229.63,233.90,238.06,241.88,245.46,249.01,253.00,257.69,263.16,269.02,274.47,279.44,283.66,287.73
489.26,484.67,479.31,472.04,463.73,455.01,446.67,440.40,435.06,430.22,425.83,421.78,416.67,411.52,407.08,403.94,401.29,398.96,396.64,394.04,391.83,388.31,383.78,378.28,371.35,364.09,358.73,355.30,351.98,347.36,342.14,336.27,329.15,320.22,312.95,306.68,300.82,294.99,289.51,284.91,280.83,276.51,272.02,268.33,264.91,260.77,254.46,248.21,241.89,235.32,228.50,222.36,217.32,212.92,208.67,204.34,200.44,196.94,193.76,190.64,187.49,184.14,181.01,179.01,177.68,177.09,176.80,176.62,176.89,178.12,180.43,184.07,189.36,193.95,199.11,204.99,211.28,216.99,225.04,233.23,240.13,245.76,250.29,254.54,258.91,263.76,269.18,274.26,278.77,282.42,284.77,286.00,286.52,286.56,286.51,285.99,285.14,283.94,282.35,281.29,280.85,281.09,282.03,283.17,284.26,284.91,285.00,284.45,283.43,282.15,280.75,279.13,277.08,274.76,272.15,269.23,265.95,262.17,257.84,253.54,250.32,249.19,249.09,249.25,249.48,250.04,252.08,254.49,256.83,259.04,260.88,262.72,264.26,265.23,266.05,266.59,266.96,267.19,267.24,267.03,266.46,265.49,264.01,262.06,258.66,253.83,247.75,241.64,233.08,225.78,219.27,210.32,204.81,199.63,194.05,188.11,182.06,175.65,167.80,158.63,150.25,143.10,137.44,134.99,138.84,146.63,153.80,160.22,166.95,176.05,181.08,185.05,189.36,194.01,197.54,199.82,201.29,202.17,202.41,202.32,201.74,200.54,198.91,196.81,194.70,192.41,189.35,185.36,180.47,174.70,168.38,163.26,157.88,155.62,157.63,163.38,167.31,168.82,168.78,167.84,166.28,164.11,161.30,157.14,150.30,145.39,143.54,144.71,148.74,152.29,155.77,159.38,163.20,167.07,171.71,178.50,186.59,192.69,196.68,199.88,202.77,205.28,207.07,208.36,209.41,210.41,211.55,212.19,211.36,209.25,206.55,204.80,205.18,206.98,209.58,212.10,214.66,217.06,219.53,222.90,226.66,230.58,234.62,238.69,242.09,245.28,248.62,252.36,256.69,261.84,267.43,273.17,278.65,282.79,286.62,290.65
488.17,483.38,477.40,469.39,460.37,451.62,445.23,440.23,435.85,431.63,427.42,423.62,418.76,413.29,408.16,405.33,402.81,400.39,397.87,395.06,392.48,388.39,383.01,376.68,370.29,364.62,359.69,355.27,350.72,345.13,339.13,332.25,323.92,315.81,309.11,303.02,297.13,291.35,286.31,281.86,277.64,273.31,269.27,265.84,262.17,257.33,250.80,244.74,238.28,231.51,225.55,219.91,214.92,210.34,205.88,201.73,198.20,194.89,191.61,188.34,185.27,182.50,180.28,179.25,179.50,180.57,182.00,183.53,184.82,186.45,188.63,191.30,194.25,197.96,203.06,209.05,215.41,222.25,230.69,238.85,245.46,250.21,254.24,258.63,263.55,268.90,274.74,279.86,283.96,286.78,288.42,289.23,289.52,289.51,289.40,288.93,288.21,287.19,285.95,285.37,285.48,286.18,287.38,288.55,289.45,289.75,289.49,288.81,287.70,286.27,284.63,282.79,280.76,278.44,275.81,272.90,269.92,266.56,262.60,258.67,255.79,254.47,254.15,254.17,254.32,254.84,256.93,259.29,261.51,263.63,265.44,267.10,268.41,269.10,269.53,269.86,270.04,270.02,269.77,269.43,268.70,267.45,265.56,263.33,259.50,254.01,247.13,240.39,232.71,226.11,219.93,211.71,206.00,200.71,195.34,189.83,184.08,177.63,169.64,160.32,151.63,144.03,138.34,136.24,140.72,149.00,156.39,163.97,172.70,181.18,185.91,189.65,193.64,198.09,201.64,204.20,206.04,207.23,207.64,207.68,207.24,206.17,204.40,202.22,199.82,197.10,193.73,189.71,184.77,178.77,171.96,166.26,161.31,160.17,163.22,168.59,171.66,172.47,171.84,170.30,168.13,165.54,162.72,159.06,153.05,148.62,147.93,150.26,154.02,157.50,161.35,165.25,168.95,172.57,176.39,181.62,187.96,193.63,198.03,201.81,205.20,208.09,210.13,211.54,212.58,213.44,214.38,214.59,213.63,211.77,209.60,208.18,208.35,209.75,212.03,214.41,216.99,219.83,223.12,227.14,231.13,235.02,238.86,242.61,245.72,248.84,252.24,256.13,260.72,266.08,271.86,277.50,282.20,286.06,290.00,294.22
