329.25,328.63,327.02,323.72,318.87,313.45,308.19,303.98,300.91,298.93,297.48,296.29,295.38,294.86,294.44,293.98,293.41,292.49,291.49,290.37,288.87,286.58,283.92,280.82,277.16,273.06,267.15,261.76,257.76,255.29,252.69,250.15,247.13,243.29,239.91,238.56,238.53,239.22,239.92,240.42,240.43,239.88,238.69,237.19,235.29,233.39,231.81,230.49,229.10,226.94,223.91,220.22,216.41,212.12,207.48,202.68,197.91,193.27,188.53,183.73,179.35,175.68,172.18,168.63,165.04,161.87,158.47,155.04,151.82,148.96,146.50,144.28,142.22,140.45,139.25,138.23,137.23,136.16,135.04,133.88,132.71,131.47,130.16,128.79,127.44,126.16,124.93,123.63,122.43,121.29,120.17,119.04,117.93,116.81,116.05,116.53,117.57,118.77,121.91,128.33,132.14,134.99,137.66,141.47,149.43,159.03,172.27,186.64,196.97,203.71,209.56,215.19,220.55,225.50,229.72,233.36,236.58,239.67,242.97,246.00,248.77,251.42,253.92,256.02,257.99,259.98,262.09,264.29,266.35,268.48,271.10,274.00,277.17,280.73,284.71,288.61,293.07,297.07,300.69,305.11,309.56,312.98,315.82,318.89,322.52,326.38,330.59,335.23,340.13,345.04,350.98,357.42,362.75,366.75,370.64,374.77,379.05,382.69,386.05,389.01,391.74,394.76,397.61,399.39,400.32,400.80,401.06,401.31,401.63,402.10,402.79,403.65,404.44,405.21,406.30,407.99,410.04,412.60,415.85,419.30,422.53,425.65,428.91,432.84,436.73,440.19,443.33,446.29,448.68,450.23,451.40,452.56,454.25,456.65,459.32,462.11,464.98,467.69,470.01,471.95,473.55,475.29,476.99,478.58,480.09,481.52,483.11,484.91,486.82,488.90,492.25,497.01,501.81,505.96,510.03,514.37,518.49,522.14,525.10,528.17,533.05,538.40,542.69,546.00,549.16,552.59,556.30,559.89,563.23,566.58,570.02,573.58,577.35,580.35,582.54,583.93,584.61,584.86,584.43,583.88,584.62,586.69,589.70,593.01,596.26,600.04,603.97,607.43,610.12,611.84,612.40,612.25,611.87,612.06,614.32,618.20
324.51,324.46,323.40,320.84,316.74,311.56,306.00,301.31,298.91,297.37,296.10,294.95,293.90,293.32,292.90,292.51,292.06,291.28,290.32,289.18,287.67,285.69,283.40,280.63,277.25,273.56,268.79,263.51,258.78,256.30,253.92,251.53,248.72,245.07,240.94,237.52,235.67,235.39,235.63,235.95,235.96,235.44,234.13,232.46,230.30,228.05,226.15,225.13,224.04,222.10,219.34,216.26,212.98,209.41,205.43,200.90,196.43,191.89,187.16,182.43,178.42,174.92,171.43,167.74,163.84,160.50,156.98,153.47,150.25,147.61,145.19,142.86,140.80,139.43,138.51,137.62,136.66,135.66,134.71,133.61,132.47,131.31,130.11,128.77,127.42,126.06,124.65,123.31,122.10,120.95,119.81,118.70,117.57,116.47,115.84,116.66,117.76,118.92,122.16,128.87,132.41,135.21,138.00,142.00,150.16,159.68,172.66,186.54,196.01,202.60,208.28,213.51,218.22,222.45,226.39,229.97,233.25,236.42,239.66,242.47,245.06,247.68,250.06,251.91,253.72,255.76,258.01,260.22,262.36,264.61,267.33,270.35,273.93,277.99,282.31,285.99,289.76,293.58,297.73,302.99,308.55,312.73,316.03,319.44,323.00,326.70,330.73,335.19,339.90,344.53,349.85,355.81,361.66,365.56,369.19,373.17,377.54,381.35,384.51,387.36,390.05,392.62,395.17,397.48,399.15,399.71,399.89,400.08,400.37,400.84,401.61,402.55,403.41,404.15,405.02,407.04,409.62,412.38,415.28,418.58,421.71,424.74,427.81,431.10,434.43,436.98,438.88,440.49,442.24,443.82,445.53,447.70,450.63,453.40,456.34,459.44,462.42,465.28,468.00,470.38,472.26,473.98,475.83,477.66,479.40,481.04,482.79,484.66,486.60,488.80,492.17,496.93,501.80,506.17,510.71,515.42,519.72,523.40,526.41,529.78,535.15,540.45,543.74,546.86,550.52,554.48,558.54,562.39,566.09,570.14,574.71,579.64,583.42,586.42,588.73,590.24,591.10,591.54,591.58,591.36,591.33,591.91,593.82,596.67,600.27,605.14,609.40,612.65,614.83,616.14,616.47,616.25,616.15,617.21,620.17,624.34
318.56,319.33,319.02,317.45,314.23,309.76,304.75,300.37,297.97,296.15,294.65,293.55,292.52,292.04,291.70,291.34,290.84,290.13,289.14,287.97,286.66,284.83,282.92,280.58,277.57,274.23,270.52,265.81,260.93,257.95,255.44,253.11,250.73,247.91,243.62,239.15,235.45,232.86,231.28,231.27,231.15,230.38,228.78,226.72,224.11,221.49,219.47,218.81,218.17,216.96,215.06,212.39,209.70,206.71,203.22,199.06,194.63,190.10,185.41,180.85,177.33,174.08,170.61,166.80,162.68,159.10,155.44,151.95,148.91,146.37,143.95,141.70,139.82,138.73,137.87,136.98,136.04,135.10,134.21,133.23,132.20,131.11,129.94,128.60,127.22,125.83,124.38,123.00,121.78,120.62,119.47,118.34,117.22,116.23,115.78,116.77,117.90,119.03,122.35,129.32,132.67,135.41,138.41,142.79,151.06,160.38,172.23,184.70,193.75,200.10,205.57,210.45,214.59,218.18,221.82,225.31,228.62,231.83,234.98,237.92,240.75,243.55,245.97,247.85,249.62,251.49,253.62,255.93,258.55,261.73,265.90,270.44,275.74,280.91,285.31,289.38,293.13,296.74,300.67,305.79,310.34,313.89,316.97,320.27,323.87,327.60,331.74,336.36,341.01,345.56,350.69,356.30,361.50,364.95,368.11,371.64,375.72,379.60,382.72,385.36,387.71,389.87,392.07,394.07,395.58,396.29,396.66,397.14,397.83,398.85,400.30,401.30,401.83,402.13,402.74,404.77,407.59,410.68,413.82,417.21,420.46,423.53,426.42,429.23,432.06,434.34,436.00,437.15,438.25,439.31,440.72,442.94,446.30,449.72,453.07,456.43,459.93,463.32,466.40,469.09,471.21,472.83,474.70,476.68,478.64,480.55,482.47,484.37,486.32,488.61,491.99,496.75,501.72,506.38,511.40,516.68,521.20,524.84,528.11,532.10,537.11,541.69,544.67,547.67,551.76,556.30,560.81,564.95,569.26,574.26,579.62,584.57,588.24,590.90,592.87,594.22,595.14,595.55,595.63,595.53,595.49,595.83,597.48,600.83,605.98,610.51,614.29,617.23,619.23,620.36,620.52,620.34,620.63,622.58,626.07,630.10
312.31,313.72,314.16,313.65,311.48,307.87,303.53,299.75,297.34,295.24,293.43,292.13,291.07,290.69,290.46,290.15,289.69,289.03,288.05,286.91,285.70,284.03,282.40,280.40,277.74,274.72,271.75,267.71,263.12,259.69,257.00,254.69,252.59,250.34,246.49,241.44,236.48,232.23,229.02,227.70,226.57,225.13,223.25,220.73,217.72,214.84,212.79,212.48,212.32,211.81,210.69,208.69,206.57,203.99,200.80,196.86,192.53,188.08,183.57,179.32,176.16,173.07,169.58,165.65,161.39,157.52,153.78,150.42,147.67,145.23,142.82,140.74,139.17,138.25,137.38,136.47,135.54,134.63,133.75,132.82,131.86,130.84,129.69,128.35,126.96,125.56,124.11,122.72,121.46,120.26,119.06,117.91,116.79,116.01,115.89,116.91,118.02,119.11,122.50,129.66,132.92,135.63,138.85,143.66,152.05,160.95,171.32,182.04,190.56,196.97,202.46,207.14,210.79,213.78,217.35,220.78,223.97,227.36,230.49,233.46,236.47,239.57,242.12,244.19,246.12,248.11,250.24,252.87,256.37,260.88,266.55,272.35,278.75,284.64,289.28,293.91,298.10,301.76,305.28,309.57,313.06,315.90,318.62,321.72,325.09,328.78,332.96,337.62,342.17,346.63,351.83,357.32,361.70,364.64,367.30,370.28,373.86,377.67,380.69,383.08,385.03,386.82,388.66,390.20,391.40,392.23,392.86,393.73,394.89,396.38,398.25,399.39,399.82,399.89,400.36,402.24,405.19,408.51,411.83,415.31,418.81,422.01,424.81,427.33,429.78,431.84,433.38,434.29,435.05,435.95,437.28,439.36,442.48,446.22,450.00,453.79,457.85,461.69,464.98,467.77,470.03,471.62,473.51,475.54,477.60,479.74,482.06,484.44,486.84,489.48,493.19,497.85,502.55,507.09,512.38,518.03,522.76,526.52,530.09,534.43,538.84,542.66,545.51,548.39,552.91,557.98,562.93,567.46,572.57,578.29,584.00,588.72,592.25,594.71,596.56,597.99,599.13,599.66,599.84,599.83,599.88,600.33,602.17,605.94,611.59,615.63,618.93,621.59,623.49,624.46,624.56,624.52,625.31,628.17,632.03,635.98
306.05,307.75,308.86,309.33,308.41,305.74,302.11,299.08,296.83,294.68,292.56,290.73,289.51,289.21,289.07,288.85,288.61,287.96,287.08,286.04,284.79,283.32,281.83,280.00,277.62,274.91,272.23,268.90,265.04,261.36,258.51,256.21,254.12,251.93,249.12,243.94,238.57,233.91,229.70,225.91,222.68,220.04,217.89,214.84,211.46,208.42,206.42,206.38,206.70,206.67,206.14,205.16,203.54,201.16,198.06,194.17,190.08,185.85,181.71,177.92,174.91,171.84,168.26,164.23,159.93,155.72,151.98,148.90,146.52,144.23,141.83,140.01,138.85,137.98,137.07,136.16,135.23,134.30,133.38,132.41,131.45,130.47,129.36,128.03,126.64,125.25,123.85,122.46,121.13,119.84,118.56,117.39,116.25,115.80,116.18,117.12,118.13,119.21,122.64,129.87,133.18,135.90,139.34,144.59,153.13,161.33,169.97,178.70,186.45,193.37,199.25,203.99,207.37,209.89,213.68,217.07,219.96,223.69,226.83,229.63,232.62,236.11,238.90,241.30,243.70,246.21,248.69,251.93,256.72,262.78,269.48,275.79,282.12,288.05,293.27,298.58,303.57,307.56,310.61,313.48,316.41,318.80,321.14,324.05,326.85,330.34,334.37,338.74,343.08,347.42,352.90,358.58,362.14,364.60,366.80,369.19,372.07,375.59,378.37,380.41,381.94,383.39,384.85,386.00,386.96,387.90,388.81,390.12,391.69,393.41,395.19,396.60,397.32,397.61,398.17,399.75,402.69,406.09,409.33,412.84,416.67,420.13,422.97,425.39,427.63,429.43,430.73,431.53,432.37,433.74,435.47,437.44,439.66,443.21,447.37,451.78,456.32,460.39,463.65,466.34,468.61,470.28,472.19,474.20,476.27,478.60,481.67,485.11,488.57,491.92,496.37,500.75,504.75,508.64,513.83,519.47,524.38,528.47,532.32,536.56,540.28,543.47,546.25,549.00,553.95,559.50,564.83,569.90,575.92,581.98,587.53,592.03,595.42,598.01,600.18,602.09,603.72,604.64,605.08,605.20,605.28,605.99,608.40,612.16,616.64,620.33,623.38,625.89,627.70,628.51,628.66,628.89,630.26,634.04,638.11,642.16
301.08,302.50,303.64,304.53,304.25,302.68,300.32,297.99,295.90,293.87,291.84,289.88,288.30,287.84,287.70,287.57,287.47,286.96,286.19,285.21,284.00,282.72,281.27,279.47,277.23,274.80,272.38,269.53,266.19,262.64,259.76,257.41,255.27,253.06,250.65,246.08,240.87,235.83,231.29,226.88,222.69,218.84,215.42,211.38,206.81,202.97,200.82,200.35,200.87,201.44,201.63,201.09,199.77,197.64,194.76,191.14,187.44,183.55,179.88,176.59,173.62,170.49,166.84,162.77,158.48,154.12,150.59,147.78,145.50,143.23,141.03,139.48,138.53,137.68,136.80,135.88,134.95,134.03,133.11,132.18,131.22,130.16,128.96,127.67,126.32,124.93,123.53,122.15,120.78,119.42,118.10,116.89,115.89,115.77,116.49,117.42,118.37,119.68,123.29,130.29,133.55,136.26,139.91,145.56,154.24,161.74,168.77,175.76,182.89,190.31,197.32,203.16,207.38,210.92,214.72,217.67,220.01,223.31,226.17,228.92,231.99,235.62,238.82,241.79,244.72,247.75,251.23,255.84,261.36,267.24,272.81,278.85,285.03,291.17,297.37,304.22,308.72,312.00,314.77,317.35,320.20,322.71,325.09,327.72,330.57,333.81,337.13,340.54,344.50,348.76,354.27,359.73,362.35,364.55,366.64,368.69,370.81,373.53,375.48,376.58,377.26,378.50,379.80,381.01,382.25,383.69,385.06,386.74,388.51,390.22,391.82,393.29,394.40,395.34,396.64,398.31,400.76,403.68,406.80,410.13,413.95,417.63,420.83,423.41,425.55,427.25,428.48,429.25,430.20,431.81,433.77,435.87,438.20,441.62,445.78,450.33,454.90,459.08,462.16,464.65,466.88,468.53,470.44,472.88,475.82,478.89,483.04,487.38,491.61,495.73,500.20,504.42,508.31,512.09,516.56,521.51,526.20,530.44,534.23,538.18,541.38,544.12,546.80,549.46,554.95,561.06,566.79,572.35,578.51,584.62,590.20,594.73,598.35,601.46,604.25,606.73,609.01,610.45,611.35,611.83,611.92,612.35,614.49,617.83,621.63,625.02,628.43,631.15,632.82,633.61,633.92,634.43,636.12,640.25,644.71,649.15
297.03,298.18,299.18,300.15,300.22,299.52,298.23,296.46,294.58,292.75,290.92,289.01,287.17,286.53,286.37,286.32,286.29,285.94,285.29,284.39,283.28,282.13,280.70,278.90,276.78,274.61,272.41,269.91,267.01,263.71,260.82,258.40,256.17,253.93,251.66,247.82,242.93,237.63,233.01,228.50,223.82,219.11,214.57,209.76,204.23,199.60,196.90,195.28,195.43,196.25,196.98,196.81,195.72,193.86,191.32,188.09,184.78,181.31,178.10,175.23,172.29,169.13,165.52,161.53,157.26,152.81,149.54,146.99,144.74,142.45,140.46,139.11,138.24,137.38,136.51,135.61,134.68,133.77,132.84,131.98,131.04,129.93,128.62,127.33,126.00,124.60,123.19,121.79,120.38,118.98,117.62,116.38,115.68,115.90,116.82,117.75,118.68,120.77,124.87,130.97,134.02,136.68,140.57,146.68,155.48,162.95,169.25,175.21,181.98,190.00,197.69,204.28,209.43,214.04,217.78,220.37,222.34,225.08,227.73,230.54,233.60,236.93,240.16,243.45,246.86,250.62,255.42,261.43,267.49,272.92,277.31,282.72,288.37,294.53,301.62,309.11,312.97,315.70,318.42,321.11,324.06,326.93,329.62,332.20,335.25,338.25,340.97,343.56,346.96,350.89,355.92,360.73,362.69,364.70,366.66,368.29,369.55,371.23,372.22,372.45,372.42,373.40,374.49,375.69,377.25,379.49,381.54,383.54,385.40,387.05,388.56,390.15,391.72,393.38,395.31,397.06,398.97,401.26,404.12,407.30,411.13,414.99,418.52,421.42,423.56,425.17,426.36,427.13,428.30,430.11,432.24,434.57,437.17,440.41,444.39,448.84,453.18,457.36,460.46,462.86,464.88,466.56,468.92,472.20,476.20,480.22,485.27,490.26,495.03,499.68,504.06,508.23,512.24,516.11,519.97,524.15,528.32,532.30,535.87,539.42,542.22,544.68,547.25,549.91,555.95,562.57,568.60,574.54,580.69,586.81,592.47,597.13,601.08,604.74,608.20,611.46,614.55,616.63,618.10,618.98,618.93,618.82,620.40,623.33,626.98,630.47,634.15,636.96,638.51,639.37,639.87,640.58,642.44,646.67,651.37,655.85
294.26,295.45,296.33,296.96,297.06,296.62,295.67,294.20,292.66,291.08,289.48,287.82,286.01,285.29,285.11,285.09,285.08,284.85,284.32,283.54,282.61,281.49,280.05,278.33,276.36,274.38,272.34,270.07,267.49,264.54,261.62,259.07,256.75,254.50,252.19,248.87,244.32,239.01,234.52,230.00,225.27,220.43,215.64,210.84,205.29,200.20,196.20,192.29,190.99,191.22,192.04,192.37,191.44,189.91,187.86,185.18,182.15,179.19,176.41,173.75,170.87,167.80,164.47,160.77,156.55,152.11,149.04,146.67,144.43,142.19,140.29,138.95,138.04,137.12,136.21,135.28,134.38,133.51,132.59,131.72,130.82,129.78,128.42,127.05,125.67,124.27,122.81,121.35,119.90,118.47,117.09,115.83,115.71,116.28,117.21,118.14,119.07,123.02,128.19,132.10,134.66,137.19,141.38,148.12,156.98,165.95,173.35,179.68,186.60,195.38,202.40,208.36,214.02,218.97,222.63,225.31,227.43,229.70,232.47,235.49,238.31,240.55,242.90,245.79,249.54,254.52,260.93,267.98,274.42,279.84,284.06,288.53,292.90,298.62,306.18,311.81,315.43,318.51,321.58,324.60,327.82,331.25,334.62,337.68,340.88,343.80,346.43,348.84,351.35,354.42,358.03,361.46,363.43,365.27,366.83,367.78,367.99,368.36,368.48,368.31,368.13,368.64,369.32,370.09,371.76,375.25,378.36,380.61,382.41,384.05,385.67,387.63,389.82,392.05,394.05,395.64,397.15,398.86,401.12,404.38,408.44,412.40,416.01,419.40,421.72,423.22,424.25,425.13,426.69,428.69,431.04,433.66,436.35,439.26,442.88,446.95,450.75,454.75,458.34,460.99,462.47,464.34,468.16,472.89,477.96,483.05,488.42,493.63,498.55,503.16,507.58,511.94,516.22,520.32,524.13,527.75,530.96,533.93,537.04,540.11,542.74,545.12,547.57,550.44,556.95,563.90,570.04,576.12,582.38,588.57,594.33,599.21,603.53,607.55,611.70,616.09,620.27,623.20,625.34,626.54,626.06,625.13,626.01,628.79,633.17,637.57,641.03,643.46,644.94,646.02,646.65,647.41,649.25,653.40,657.88,661.44
291.09,292.66,293.45,293.99,294.07,293.74,292.99,291.75,290.47,289.07,287.57,286.04,284.57,284.04,283.90,283.88,283.86,283.70,283.27,282.62,281.78,280.76,279.44,277.88,276.11,274.26,272.35,270.24,267.85,264.99,262.13,259.53,257.11,254.79,252.43,249.34,245.13,240.11,235.68,231.21,226.57,221.78,216.91,212.05,206.63,201.38,196.69,192.14,189.41,188.37,188.44,188.66,187.86,186.43,184.54,182.17,179.57,177.00,174.46,171.90,169.15,166.25,163.17,159.75,155.73,151.67,148.85,146.62,144.45,142.26,140.36,139.01,138.08,137.11,136.11,135.13,134.19,133.31,132.46,131.58,130.67,129.61,128.06,126.58,125.13,123.70,122.23,120.80,119.37,117.94,116.57,115.51,115.81,116.66,117.65,118.66,120.38,125.14,130.38,133.17,135.51,137.88,142.78,151.21,161.43,171.39,180.13,187.66,194.34,201.49,207.63,213.17,218.36,222.73,226.35,229.49,232.34,235.19,237.87,240.79,243.68,246.11,248.17,250.65,254.33,259.68,266.37,272.97,278.84,284.01,288.73,293.63,298.69,304.28,310.23,314.27,317.65,320.98,324.39,327.74,331.41,335.24,338.98,342.36,345.69,348.31,350.84,353.52,355.97,358.09,360.32,362.53,364.11,364.91,365.37,365.49,365.24,365.24,365.10,364.89,364.80,365.24,365.91,367.11,369.29,372.77,375.23,377.24,379.10,380.92,382.83,385.21,387.94,390.58,392.27,393.30,394.50,396.12,398.44,401.88,406.31,410.63,414.39,417.60,419.77,421.19,422.26,423.35,424.73,426.67,429.12,431.99,434.74,437.64,440.98,444.59,448.04,451.49,454.91,457.68,459.67,463.08,468.27,474.03,479.81,485.49,491.10,496.42,501.38,505.94,510.53,515.10,519.59,523.84,527.45,530.32,532.79,535.20,537.98,540.69,543.17,545.52,548.06,551.69,558.36,565.21,571.19,577.17,583.50,589.80,595.72,600.83,605.40,610.01,614.95,620.32,625.72,629.91,632.84,634.33,633.76,632.48,633.16,635.72,639.64,643.79,647.32,650.02,651.84,653.03,654.25,655.38,656.99,660.00,663.49,666.35
287.02,289.13,290.13,290.80,290.92,290.71,290.21,289.22,288.19,286.98,285.61,284.20,283.08,282.77,282.71,282.67,282.64,282.53,282.20,281.65,280.86,279.93,278.76,277.39,275.81,274.10,272.33,270.38,268.10,265.26,262.48,259.85,257.35,254.96,252.56,249.56,245.59,240.86,236.49,232.13,227.61,222.94,218.14,213.23,208.00,202.74,197.72,193.09,189.20,186.76,185.67,185.30,184.53,183.16,181.34,179.20,177.00,174.70,172.33,169.86,167.27,164.54,161.74,158.67,155.00,151.35,148.75,146.63,144.54,142.40,140.48,139.10,138.13,137.13,136.06,135.03,134.06,133.15,132.35,131.46,130.54,129.41,127.69,126.06,124.52,123.04,121.57,120.16,118.78,117.37,116.05,115.37,116.00,117.05,118.09,119.26,122.43,127.44,132.06,134.24,136.46,139.09,144.99,155.08,166.61,177.29,187.19,195.83,202.14,207.32,212.44,217.38,221.75,225.39,229.09,232.74,236.32,239.88,242.57,245.47,248.65,251.71,253.95,256.20,259.71,264.97,271.18,276.88,282.01,287.00,292.44,298.27,304.36,309.81,313.87,316.77,319.91,323.37,327.04,330.68,334.72,338.77,342.64,346.20,349.51,351.81,354.29,357.30,359.76,361.02,362.06,363.17,364.11,363.81,363.20,362.58,362.07,361.94,361.75,361.61,361.70,362.25,363.03,364.74,367.38,370.55,372.05,373.71,375.62,377.67,379.92,382.53,385.64,388.62,390.14,390.70,391.70,393.39,395.98,399.72,404.49,409.14,413.05,415.85,417.79,419.11,420.21,421.43,422.55,424.37,426.86,429.82,432.63,435.55,438.66,441.91,445.05,447.98,451.18,454.26,457.33,462.55,468.94,475.47,481.72,487.67,493.44,498.84,503.82,508.39,513.23,517.99,522.64,526.91,530.06,532.26,534.23,536.33,538.83,541.28,543.63,545.93,548.61,553.18,559.86,566.41,572.16,577.97,584.32,590.73,596.83,602.19,606.94,612.14,617.91,624.23,630.77,636.01,639.61,641.42,641.11,639.88,640.42,642.68,646.18,650.05,653.72,656.87,659.20,660.50,662.14,663.63,665.05,666.84,669.13,671.22
280.42,283.21,285.38,286.66,287.05,287.23,287.24,286.66,285.87,284.98,283.97,282.80,281.73,281.46,281.50,281.55,281.45,281.39,281.14,280.62,279.82,278.86,277.86,276.64,275.16,273.68,272.19,270.38,268.12,265.33,262.60,259.95,257.42,255.02,252.62,249.59,245.54,240.74,236.55,232.39,227.98,223.46,219.01,214.19,209.15,204.11,199.24,194.66,190.40,186.89,184.19,182.27,181.25,180.00,178.38,176.43,174.38,172.18,169.90,167.59,165.19,162.58,160.10,157.64,154.74,151.17,148.59,146.52,144.48,142.39,140.49,139.05,138.02,137.00,135.94,134.90,133.92,133.01,132.17,131.31,130.36,129.16,127.42,125.58,123.88,122.31,120.80,119.40,118.04,116.68,115.55,115.58,116.43,117.47,118.48,120.00,125.97,130.46,133.23,135.38,137.51,141.78,149.21,159.77,171.04,182.07,192.23,200.84,206.79,211.44,215.29,218.81,222.24,225.74,229.81,233.75,237.41,240.97,244.24,247.78,251.56,255.33,258.64,261.36,264.80,269.36,273.94,278.84,283.81,289.05,295.16,302.19,308.31,313.19,316.73,319.68,322.58,325.86,329.53,333.35,337.35,341.14,344.72,348.12,350.95,353.14,355.74,358.79,360.51,361.32,361.80,362.06,361.90,361.31,360.48,359.59,358.81,358.31,358.06,358.03,358.31,359.16,359.97,361.58,364.13,367.23,368.61,370.13,371.97,374.14,376.68,378.90,381.87,385.19,387.43,388.24,389.30,391.05,393.88,398.20,403.01,407.69,411.67,414.11,415.81,416.96,417.86,418.80,419.96,421.84,424.21,426.91,429.74,432.43,435.43,438.62,441.46,444.41,447.88,451.95,456.94,463.35,470.51,477.43,483.71,489.41,495.22,500.66,505.70,510.49,515.69,520.64,525.31,529.27,531.28,533.24,535.26,537.38,539.68,541.98,544.21,546.41,549.18,554.71,561.16,567.29,572.84,578.46,584.78,591.28,597.56,603.14,608.02,613.64,620.17,627.47,634.75,640.03,643.71,646.00,646.74,646.36,646.38,648.17,652.65,657.34,661.15,664.59,667.56,669.06,670.13,671.50,673.13,674.66,675.90,676.74
273.89,276.58,279.43,281.55,282.84,283.68,284.11,283.88,283.33,282.72,281.95,280.90,279.90,279.58,279.70,279.96,279.91,279.80,279.51,279.06,278.41,277.57,276.73,275.72,274.47,273.14,271.74,269.94,267.70,265.08,262.42,259.82,257.31,254.93,252.55,249.37,245.04,240.04,236.11,232.11,227.94,223.70,219.42,214.61,209.81,205.07,200.40,195.83,191.38,187.39,183.91,180.91,178.92,177.14,175.36,173.56,171.75,169.71,167.54,165.28,162.98,160.69,158.58,156.46,153.96,150.90,148.50,146.44,144.42,142.35,140.47,139.02,137.91,136.84,135.76,134.75,133.80,132.88,132.02,131.15,130.10,128.74,126.95,125.04,123.23,121.56,120.03,118.66,117.33,116.09,115.28,115.84,116.83,117.89,119.35,122.51,128.55,132.34,134.46,136.64,139.11,145.07,153.52,163.57,173.72,184.27,194.08,202.31,207.82,211.85,214.94,217.79,220.81,224.19,228.44,232.70,236.69,240.52,243.87,247.48,251.49,255.85,259.94,263.27,266.91,271.14,274.99,279.31,284.16,289.63,296.10,303.64,309.78,314.47,318.00,321.19,324.11,327.22,330.67,334.38,338.26,341.87,345.25,348.46,351.15,353.20,355.52,358.15,359.60,360.10,360.12,359.80,359.05,358.15,357.13,356.07,355.08,354.41,354.11,354.09,354.51,355.82,357.22,359.07,361.46,364.23,365.87,367.48,369.26,371.36,374.01,376.43,379.34,382.49,384.91,386.26,387.64,389.40,391.99,396.43,401.25,405.89,409.88,412.32,413.78,414.75,415.51,416.28,417.43,419.14,421.26,423.74,426.45,429.19,432.19,435.50,439.14,443.23,447.61,452.35,457.83,464.55,471.94,478.93,485.13,490.76,496.55,502.02,507.21,512.41,517.96,522.99,527.34,530.64,532.26,534.10,536.07,538.07,540.14,542.40,544.66,546.87,549.83,556.43,562.53,568.12,573.45,578.80,585.03,591.44,597.65,603.40,608.68,614.65,621.51,629.29,637.21,642.58,646.61,649.70,651.49,652.10,652.83,654.86,659.03,663.69,667.20,670.31,673.11,674.91,676.41,678.20,680.19,681.95,683.09,683.79
267.96,269.88,272.95,275.85,278.22,279.83,280.69,280.78,280.54,280.18,279.59,278.62,277.70,277.26,277.38,277.83,277.95,277.79,277.50,277.17,276.80,276.14,275.44,274.64,273.67,272.48,271.08,269.24,267.00,264.56,261.97,259.48,257.07,254.69,252.34,248.92,244.23,238.98,235.25,231.41,227.53,223.62,219.46,214.66,210.11,205.70,201.27,196.74,192.17,188.00,184.24,180.59,177.46,174.84,172.64,170.86,169.20,167.33,165.25,163.02,160.83,158.97,157.20,155.27,152.97,150.56,148.38,146.32,144.30,142.25,140.42,138.97,137.81,136.65,135.55,134.56,133.63,132.72,131.85,130.94,129.75,128.20,126.36,124.46,122.57,120.81,119.30,117.95,116.63,115.57,115.22,116.16,117.24,118.32,120.44,125.81,130.53,133.58,135.73,138.06,141.58,148.94,157.78,166.78,175.32,184.77,193.79,201.44,206.53,210.02,212.76,215.36,218.19,221.46,225.74,230.26,234.69,238.85,242.13,245.58,249.62,254.36,259.00,262.99,266.97,271.07,274.74,278.74,283.51,289.11,295.66,303.21,309.51,314.36,317.95,321.51,324.59,327.58,330.71,334.18,337.88,341.39,344.66,347.66,350.38,352.33,354.21,356.18,357.51,357.78,357.47,356.81,355.83,354.61,353.32,352.06,350.93,350.33,350.18,350.40,351.14,352.84,354.94,357.11,359.35,361.69,363.69,365.52,367.33,369.35,371.99,374.80,377.64,380.38,382.67,384.55,386.33,388.10,390.29,394.42,399.18,403.77,407.71,410.28,411.57,412.40,413.10,413.79,414.83,416.26,418.12,420.48,423.16,426.24,429.52,433.24,438.15,443.69,449.10,454.28,459.58,466.14,473.41,480.20,486.17,491.80,497.56,503.07,508.48,514.13,519.93,525.00,528.92,531.47,533.11,534.90,536.73,538.55,540.45,542.77,545.12,547.45,550.70,558.13,563.81,568.85,573.94,579.02,585.16,591.35,597.34,603.18,609.00,615.22,622.19,630.14,638.59,644.18,648.69,652.65,655.47,657.10,659.01,661.55,664.87,669.01,672.11,674.73,677.16,679.37,681.76,684.23,686.66,688.90,690.47,691.57
264.35,264.36,266.89,269.81,272.58,274.82,276.34,276.92,277.14,277.09,276.67,275.84,275.02,274.31,274.11,274.45,274.93,275.12,275.14,275.15,275.20,274.60,273.95,273.28,272.52,271.56,270.28,268.40,266.05,263.59,261.08,258.81,256.60,254.25,251.86,248.06,243.09,237.71,233.73,230.06,226.46,222.81,218.87,214.25,209.91,205.83,201.81,197.43,192.69,188.39,184.58,180.88,177.46,174.25,171.38,169.09,167.07,165.13,163.08,160.99,159.27,157.72,156.13,154.35,152.29,150.13,148.02,145.96,143.96,141.99,140.25,138.82,137.61,136.40,135.20,134.22,133.33,132.40,131.50,130.53,129.23,127.52,125.72,123.86,121.96,120.17,118.70,117.31,115.98,115.23,115.53,116.63,117.74,118.82,121.41,128.41,132.23,134.81,137.03,139.91,146.52,154.04,161.85,169.56,176.23,183.86,191.54,198.40,203.36,207.07,209.97,212.34,214.57,217.90,222.01,226.51,231.07,235.16,238.92,242.72,246.76,251.25,256.11,260.66,264.93,268.96,272.82,276.97,281.76,287.21,293.37,300.24,307.41,312.88,315.80,319.93,323.21,326.19,329.20,332.42,335.88,339.42,342.71,345.44,348.05,350.14,351.86,353.23,354.03,354.02,353.70,353.20,352.32,350.82,348.92,347.15,346.06,346.13,346.96,348.52,350.50,352.05,353.92,356.02,358.19,360.25,362.27,364.41,366.61,368.89,371.41,374.00,376.63,379.11,381.11,383.04,384.93,386.81,388.89,391.99,396.51,401.06,404.84,407.23,408.64,409.64,410.42,411.06,411.82,413.03,414.85,417.43,420.72,424.75,429.24,434.20,439.88,445.70,451.28,456.68,462.20,468.65,475.35,481.49,486.95,492.40,498.13,503.83,509.53,515.37,521.09,526.24,530.05,532.17,533.87,535.64,537.29,538.94,540.98,543.45,545.86,548.48,552.31,559.31,564.56,569.23,574.07,579.14,585.16,591.07,596.76,602.57,608.70,615.04,622.00,629.97,638.74,644.91,649.83,654.20,658.04,660.56,662.88,665.47,668.55,672.15,675.24,678.25,681.31,684.13,686.97,689.97,692.97,695.63,697.67,698.91
262.91,261.14,261.75,264.08,266.88,269.55,271.72,272.79,273.52,273.78,273.59,272.93,272.22,271.42,270.97,271.10,271.85,272.40,272.76,273.07,273.36,272.94,272.40,271.84,271.15,270.20,268.88,267.05,264.82,262.42,259.68,257.18,255.00,253.13,251.06,246.95,241.77,236.36,231.91,228.40,225.04,221.59,217.90,213.63,209.58,205.79,202.06,197.82,192.90,188.46,184.66,180.97,177.48,174.04,170.87,168.28,166.00,163.84,161.68,159.61,158.07,156.63,155.09,153.42,151.59,149.54,147.45,145.38,143.33,141.38,139.73,138.32,137.06,135.80,134.53,133.53,132.68,131.83,130.94,129.88,128.48,126.75,125.00,123.19,121.34,119.61,118.14,116.69,115.47,115.09,115.91,117.08,118.21,120.10,123.75,130.28,133.48,135.91,138.81,143.37,151.32,158.42,165.05,171.32,176.44,182.32,188.45,194.28,199.10,202.95,205.87,208.21,210.51,214.03,218.19,222.71,227.28,231.31,235.31,239.23,243.22,247.53,252.41,257.21,261.68,265.80,269.80,274.12,278.88,284.22,290.41,296.94,303.86,309.31,312.46,316.93,320.83,324.11,326.96,329.86,332.94,336.30,339.58,342.35,344.77,346.73,348.27,349.27,349.52,349.18,348.74,348.17,347.06,345.51,343.72,342.48,342.61,344.32,346.51,348.85,351.02,352.45,354.07,355.90,357.75,359.51,361.54,363.82,366.19,368.61,371.07,373.43,375.81,378.07,379.90,381.75,383.67,385.63,387.64,389.89,393.63,397.60,401.09,403.61,405.10,406.14,407.01,407.82,408.60,410.27,412.92,416.49,420.43,424.91,430.11,435.90,442.01,447.97,453.62,459.10,464.64,470.72,476.88,482.50,487.57,492.90,498.59,504.43,510.33,516.19,521.86,527.06,530.89,532.97,534.73,536.50,538.18,539.93,542.13,544.62,547.01,549.96,554.41,560.50,565.26,569.68,574.32,579.23,584.86,590.46,596.00,601.84,608.24,614.57,621.49,629.62,638.60,645.17,650.50,655.27,659.63,662.61,665.19,667.91,671.04,674.48,677.95,681.64,685.49,689.02,692.44,695.72,698.74,701.25,703.44,704.75
263.08,259.96,257.86,258.96,261.40,264.25,266.87,268.45,269.66,270.26,270.32,269.90,269.31,268.57,267.99,267.88,268.76,269.60,270.28,270.85,271.24,271.08,270.72,270.22,269.50,268.40,266.93,265.22,263.30,260.93,257.71,254.66,252.45,251.34,249.78,245.55,240.27,234.86,229.93,226.55,223.41,220.11,216.65,212.81,209.15,205.61,202.01,197.86,192.76,188.24,184.48,180.81,177.38,173.99,170.85,168.19,165.77,163.35,160.97,158.81,157.14,155.63,154.07,152.47,150.81,148.79,146.69,144.57,142.47,140.50,138.92,137.52,136.21,134.90,133.59,132.57,131.75,131.01,130.17,129.00,127.57,125.94,124.24,122.47,120.72,119.07,117.59,116.06,115.12,115.18,116.34,117.49,118.66,121.96,127.10,131.56,134.37,136.86,140.84,147.81,155.38,161.71,167.25,172.10,176.05,180.36,184.91,189.56,194.09,197.91,200.75,203.27,206.16,210.02,214.42,219.01,223.52,227.55,231.49,235.32,239.20,243.38,248.13,252.92,257.53,261.84,265.92,270.43,275.24,280.62,287.17,293.69,299.60,304.55,308.54,312.99,317.64,321.40,324.14,326.65,329.30,332.29,335.45,338.43,340.59,342.25,343.58,344.38,344.17,343.49,342.86,342.07,340.55,339.19,338.37,338.70,340.93,344.83,348.32,350.75,352.25,353.65,355.14,356.58,357.97,359.44,361.45,363.70,366.04,368.41,370.78,372.94,375.09,377.18,378.95,380.68,382.58,384.56,386.45,388.13,390.70,393.63,396.59,399.30,400.79,401.93,403.08,404.32,405.66,408.42,412.53,417.58,422.02,426.54,431.94,438.09,444.33,450.36,456.04,461.50,466.84,472.36,478.05,483.35,488.26,493.49,499.09,504.99,510.95,516.73,522.40,527.58,531.51,533.85,535.71,537.52,539.43,541.50,543.81,546.22,548.66,551.99,556.88,561.78,566.00,570.21,574.68,579.30,584.35,589.64,595.13,601.03,607.69,613.92,620.81,629.18,638.25,645.03,650.75,655.95,660.43,663.51,666.30,669.27,672.66,676.27,680.44,684.99,689.65,693.93,698.00,701.34,703.90,705.74,707.67,708.90
263.10,260.04,257.19,255.67,257.20,259.40,261.51,263.65,265.21,266.20,266.63,266.44,266.04,265.39,264.84,264.70,265.35,266.20,267.11,267.93,268.47,268.60,268.27,267.71,266.99,266.02,264.69,263.13,261.19,258.32,254.56,251.55,249.64,248.68,247.06,243.38,238.29,232.66,228.24,224.90,221.81,218.69,215.43,211.87,208.43,205.09,201.57,197.26,192.12,187.65,183.98,180.41,177.14,173.91,170.81,168.06,165.54,163.02,160.60,158.34,156.34,154.69,153.15,151.58,149.84,147.76,145.59,143.43,141.40,139.71,138.16,136.70,135.31,134.00,132.69,131.60,130.72,129.97,129.12,128.00,126.71,125.27,123.58,121.81,120.06,118.37,116.86,115.36,115.15,115.82,116.94,118.01,119.23,123.48,129.60,132.70,135.19,137.58,142.02,150.16,156.76,162.60,167.75,172.01,175.22,178.37,181.81,185.53,189.28,192.56,195.63,198.69,202.03,206.23,210.77,215.42,219.96,224.01,227.85,231.51,235.19,239.12,243.48,248.21,252.88,257.28,261.56,266.61,272.24,278.28,284.70,291.26,297.36,302.42,306.11,309.61,313.69,317.56,320.74,322.93,325.38,327.88,330.43,333.06,335.06,336.72,337.99,338.60,338.15,337.53,336.94,336.26,335.25,334.59,336.00,338.83,342.56,347.03,349.98,351.93,353.37,354.81,356.32,357.77,359.17,360.57,362.21,364.27,366.49,368.60,370.42,372.33,374.36,376.38,378.10,379.81,381.68,383.49,385.05,386.60,388.38,390.13,391.75,393.17,394.62,396.96,399.62,401.91,405.38,409.74,414.81,420.23,424.71,429.47,435.06,441.19,447.16,452.97,458.51,463.79,468.85,474.07,479.46,484.82,490.02,494.94,500.26,505.88,511.62,517.32,523.05,528.14,532.04,534.58,536.83,538.93,541.12,543.44,545.82,548.25,551.38,555.20,559.50,563.25,566.89,570.71,574.84,579.31,584.09,589.06,594.31,600.18,607.05,613.36,620.34,628.80,637.49,644.37,650.37,655.88,660.59,663.86,666.90,670.22,673.98,677.77,682.81,688.28,693.62,698.42,702.73,705.95,707.97,708.80,709.65,710.20
263.30,260.44,257.47,254.21,253.89,254.59,255.81,258.00,259.90,261.35,262.17,262.26,262.07,261.47,260.94,260.77,261.23,262.34,263.62,264.73,265.36,265.65,265.42,264.94,264.31,263.51,262.19,260.47,258.21,254.97,251.55,249.01,247.32,246.18,244.37,240.90,235.96,230.44,226.60,223.28,220.20,217.20,214.13,210.79,207.53,204.32,200.83,196.23,191.23,186.94,183.37,179.90,176.78,173.68,170.66,167.84,165.24,162.69,160.25,157.95,155.76,153.90,152.25,150.59,148.62,146.51,144.33,142.22,140.37,138.94,137.47,135.97,134.50,133.13,131.77,130.57,129.58,128.82,128.00,126.92,125.73,124.42,122.88,121.18,119.41,117.66,116.12,114.95,115.40,116.56,117.76,119.09,121.59,126.09,131.22,133.42,135.70,138.02,142.61,151.12,156.91,162.23,167.05,171.01,173.86,176.34,179.03,181.95,184.88,187.78,191.08,194.59,198.28,202.53,207.01,211.71,216.41,220.55,224.30,227.82,231.29,234.96,239.00,243.53,248.18,252.84,257.80,263.55,269.83,276.25,282.36,288.77,295.04,300.26,303.76,306.50,309.78,313.27,316.47,318.69,321.07,323.23,325.29,327.42,329.10,330.64,331.80,332.27,331.84,331.35,331.09,330.96,330.83,331.90,335.34,339.92,344.57,348.89,351.22,352.80,354.28,355.79,357.35,358.88,360.34,361.75,363.19,364.98,366.89,368.67,370.07,371.81,373.73,375.67,377.41,379.17,380.93,382.50,383.79,385.26,386.55,387.64,388.53,389.35,390.81,393.85,397.53,400.86,405.87,411.60,417.42,422.93,427.72,433.03,438.73,444.55,450.12,455.59,460.94,466.13,471.18,476.35,481.59,486.92,492.18,496.92,502.07,507.46,512.95,518.48,524.21,529.00,532.70,535.39,537.94,540.36,542.83,545.35,547.85,550.67,554.36,558.31,561.84,564.91,568.14,571.58,575.32,579.52,583.97,588.61,593.62,599.49,606.47,612.92,620.03,628.47,636.70,643.66,649.89,655.62,660.55,664.04,667.31,670.90,675.02,679.23,685.15,691.34,697.04,702.08,706.29,709.04,710.44,710.70,710.76,710.70
263.87,261.05,258.25,254.75,251.66,250.03,250.00,251.47,253.59,255.46,256.68,257.05,257.02,256.40,255.81,255.62,256.08,257.72,259.57,261.05,261.75,262.07,262.06,261.85,261.45,260.76,259.23,257.03,254.26,251.03,249.05,247.35,245.73,244.12,242.05,238.14,233.25,228.31,224.90,221.62,218.54,215.62,212.70,209.54,206.41,203.27,199.71,194.77,190.11,186.12,182.65,179.30,176.28,173.28,170.31,167.49,164.84,162.28,159.84,157.56,155.39,153.27,151.36,149.44,147.14,145.05,142.93,140.98,139.43,138.19,136.84,135.36,133.83,132.32,130.88,129.50,128.37,127.63,126.83,125.76,124.57,123.35,122.11,120.55,118.79,116.97,115.41,114.97,115.88,117.30,118.86,121.07,126.17,130.07,131.97,133.70,135.85,138.13,142.56,150.62,155.94,160.70,165.12,168.98,171.86,174.23,176.54,178.81,181.01,183.88,187.33,191.07,194.94,198.87,203.06,207.79,212.77,217.06,220.81,224.24,227.57,231.02,234.84,239.08,243.69,248.88,255.09,261.59,268.09,274.31,279.96,285.94,292.04,297.33,301.00,303.45,306.05,308.64,311.16,313.73,316.19,318.33,320.19,321.75,322.90,324.11,325.04,325.42,325.23,324.92,325.40,326.41,327.52,331.40,336.20,341.28,346.22,349.86,351.87,353.39,354.89,356.50,358.10,359.67,361.18,362.61,364.11,365.55,366.99,368.42,369.73,371.39,373.22,375.08,376.97,378.87,380.43,381.72,382.89,384.28,385.43,386.52,387.70,389.08,390.69,393.55,397.28,401.43,406.81,413.44,419.85,425.41,430.96,437.04,442.76,448.01,453.12,458.23,463.40,468.64,473.98,479.32,484.57,489.66,494.57,499.38,504.55,509.82,515.10,520.38,525.97,530.24,533.56,536.32,539.01,541.73,544.44,547.12,549.87,553.46,557.37,560.94,563.77,566.76,569.81,572.95,576.30,580.07,584.03,588.29,593.12,599.05,605.99,612.63,619.87,628.16,635.97,643.00,649.41,655.25,660.38,664.11,667.57,671.32,675.74,680.67,687.37,693.97,699.68,704.63,708.39,710.31,711.01,711.33,711.13,710.67
265.59,262.46,259.04,255.50,251.89,248.85,246.82,246.46,247.12,248.41,249.45,249.57,249.15,248.21,247.57,247.64,248.58,250.13,252.24,254.39,255.87,256.62,256.87,256.87,256.61,255.83,254.47,252.77,250.83,248.72,247.29,245.87,244.33,242.53,239.91,235.02,230.04,225.93,222.55,219.54,216.68,213.88,211.03,208.03,204.98,201.72,197.88,192.93,188.67,184.95,181.59,178.47,175.58,172.66,169.72,166.90,164.21,161.60,159.18,156.96,154.79,152.59,150.43,148.19,145.69,143.39,141.35,139.72,138.55,137.46,136.18,134.72,133.19,131.71,130.42,129.09,127.81,126.76,125.69,124.58,123.47,122.37,121.27,119.79,118.03,116.19,114.79,115.28,116.57,118.10,120.36,125.53,129.83,132.41,133.69,134.91,136.14,137.97,141.79,148.49,153.50,158.19,162.52,166.27,169.22,171.52,173.63,175.69,177.85,180.58,183.95,187.59,191.29,195.05,198.89,203.37,208.38,213.10,216.92,220.59,224.18,227.60,231.10,235.65,241.11,247.39,254.21,260.68,266.70,272.24,277.26,282.51,287.86,292.67,296.29,298.76,301.75,303.98,305.34,307.04,310.18,312.96,314.95,316.11,317.10,317.85,318.24,318.21,317.92,318.41,320.54,323.77,327.11,331.79,336.78,341.89,346.81,350.06,351.82,353.28,354.86,356.47,358.06,359.64,361.08,362.21,363.39,364.74,366.12,367.48,368.90,370.46,372.46,374.87,377.36,379.38,380.90,382.18,383.46,385.11,386.45,387.66,388.99,390.77,392.78,395.44,398.89,403.27,408.05,415.12,422.30,428.48,434.59,440.60,446.11,451.21,456.22,461.46,466.70,471.94,477.17,482.21,487.13,491.91,496.59,501.41,506.62,511.89,517.14,522.41,527.70,531.46,534.44,537.19,539.98,542.97,545.91,548.83,552.09,555.88,559.51,562.74,565.53,568.44,571.43,574.48,577.63,581.08,584.67,588.58,593.13,598.92,605.81,612.47,619.60,627.56,635.04,642.05,648.61,654.67,659.84,663.72,667.36,671.36,676.18,681.68,688.48,695.14,700.93,705.71,709.06,710.65,711.04,710.90,710.33,709.01
267.76,264.44,260.41,256.78,253.16,249.41,245.80,243.18,242.05,242.39,242.98,242.84,242.14,241.12,240.50,240.67,241.74,242.90,244.78,247.04,248.90,249.91,250.50,250.83,250.83,250.25,249.30,248.33,247.49,246.81,245.68,244.37,242.94,240.91,236.95,231.54,226.85,223.41,220.10,217.37,214.73,212.03,209.25,206.38,203.38,199.96,195.81,191.08,187.15,183.63,180.37,177.52,174.75,171.90,168.99,166.13,163.41,160.81,158.44,156.30,154.14,151.94,149.59,147.11,144.51,141.95,140.02,138.67,137.75,136.73,135.51,134.15,132.72,131.36,130.23,128.95,127.57,126.23,124.87,123.67,122.59,121.58,120.52,118.99,117.17,115.44,114.57,115.76,117.30,119.31,122.83,129.58,132.63,134.30,135.67,136.62,137.07,138.23,141.08,146.16,150.71,155.24,159.50,163.23,166.19,168.47,170.55,172.64,174.89,177.56,180.78,184.21,187.66,191.22,194.86,199.07,203.87,208.80,212.94,217.02,221.02,224.61,227.98,232.89,239.22,246.57,253.62,259.78,265.18,270.00,274.39,278.85,283.24,287.26,290.57,293.05,296.38,298.81,299.90,300.66,303.80,306.66,308.57,309.53,310.54,311.13,311.35,311.25,311.14,312.93,316.92,322.20,327.25,332.16,337.04,342.05,346.89,350.01,351.62,352.98,354.53,356.15,357.66,359.17,360.45,361.29,362.30,363.67,365.12,366.53,368.05,369.56,371.78,374.70,377.76,380.00,381.61,382.98,384.45,386.33,387.91,389.34,390.87,392.95,395.30,398.07,401.56,406.14,410.54,417.54,425.04,431.77,438.17,443.87,449.18,454.27,459.36,464.79,470.01,475.07,480.03,484.70,489.29,493.80,498.33,503.19,508.38,513.63,518.90,524.22,529.15,532.51,535.24,537.98,540.89,544.09,547.24,550.43,554.12,557.89,561.21,564.21,567.08,569.94,572.90,575.90,578.97,582.23,585.59,589.25,593.55,599.08,605.75,612.36,619.33,626.91,634.19,641.20,647.87,654.01,659.07,663.11,666.96,671.20,676.29,682.08,688.96,695.67,701.50,706.02,709.16,710.58,710.56,709.43,708.01,705.88
270.29,267.15,262.98,258.99,255.33,251.84,247.89,242.72,239.99,239.13,239.00,238.80,238.37,237.90,237.48,237.21,237.43,237.91,238.77,239.84,240.87,241.64,242.72,243.64,244.13,244.48,244.21,243.91,244.04,244.82,243.98,242.78,241.41,238.89,232.24,227.49,223.89,220.77,217.79,215.20,212.66,210.04,207.32,204.59,201.60,197.98,193.63,189.41,185.64,182.17,179.01,176.40,173.75,170.96,168.05,165.10,162.38,159.93,157.69,155.59,153.49,151.33,148.96,146.42,143.83,141.06,139.31,138.10,137.05,135.97,134.87,133.73,132.59,131.45,130.36,129.08,127.67,126.21,124.71,123.33,122.14,121.12,119.99,118.17,116.21,114.85,115.11,116.47,118.01,121.34,127.06,131.50,134.11,136.05,137.72,138.91,139.27,139.54,140.89,144.28,147.95,151.92,156.00,159.85,162.69,165.03,167.34,169.70,172.06,174.83,177.84,181.00,184.25,187.41,191.22,195.28,199.48,204.09,208.97,213.71,218.16,222.23,225.93,231.03,237.85,245.88,252.67,258.38,263.23,267.46,271.29,275.08,278.31,281.15,283.75,286.06,289.14,292.64,295.49,295.81,297.25,298.72,299.97,301.05,302.28,303.41,304.31,304.99,305.84,309.63,315.45,321.85,327.04,332.01,336.77,341.62,346.43,349.87,351.43,352.60,353.97,355.56,356.95,358.19,359.20,359.96,361.26,362.80,364.38,365.94,367.43,369.00,371.36,374.44,377.77,380.42,382.31,383.89,385.53,387.43,389.19,390.97,392.89,395.16,397.60,401.07,405.48,410.47,415.44,421.57,428.36,435.24,441.41,446.79,451.96,457.17,462.53,468.05,472.92,477.47,482.02,486.42,490.80,495.16,499.65,504.62,509.67,514.81,520.10,525.48,530.05,533.21,535.88,538.65,541.70,545.00,548.36,551.80,555.61,559.25,562.43,565.38,568.29,571.15,574.08,577.06,580.14,583.44,586.77,590.41,594.58,599.65,605.85,612.30,619.09,626.31,633.56,640.72,647.40,653.33,658.02,662.28,666.41,670.82,675.88,681.50,688.69,695.64,701.34,705.48,708.82,710.13,709.28,706.31,703.24,700.54
271.86,269.18,265.57,261.36,257.63,254.20,250.50,245.58,240.85,238.51,237.47,236.62,235.88,235.41,234.95,234.45,234.14,234.27,234.73,235.41,236.21,236.92,237.83,238.68,239.28,239.80,239.79,240.32,241.55,242.91,242.23,239.97,236.86,232.98,227.35,223.50,220.64,218.14,215.56,213.07,210.55,207.98,205.35,202.69,199.31,195.36,191.09,187.25,183.66,180.45,177.61,175.10,172.52,169.81,166.96,164.01,161.22,158.91,156.81,154.81,152.78,150.69,148.34,145.81,143.25,140.63,139.03,137.90,136.78,135.70,134.59,133.51,132.47,131.42,130.38,129.04,127.52,125.98,124.47,123.05,121.77,120.56,119.14,117.19,115.45,114.66,115.66,117.13,118.86,122.84,129.36,132.74,135.22,137.58,139.99,142.28,143.06,143.09,143.32,144.57,146.46,149.41,152.98,156.67,159.55,162.03,164.45,166.86,169.27,172.03,174.95,177.99,181.08,184.06,187.90,192.04,196.29,200.85,205.92,210.95,215.85,220.61,224.99,230.19,236.74,244.34,251.09,256.40,260.74,264.46,267.75,270.92,273.60,275.82,277.68,279.74,283.01,286.78,290.02,291.12,292.51,293.74,294.87,296.11,297.38,298.57,299.61,300.78,303.24,308.43,314.89,321.36,326.54,331.42,335.96,340.61,345.50,349.51,351.23,352.32,353.56,355.04,356.32,357.60,358.86,360.00,361.33,362.85,364.44,366.00,367.47,368.94,371.19,374.22,377.58,380.36,382.51,384.49,386.58,388.56,390.42,392.36,394.50,396.86,399.68,403.78,408.70,413.77,418.90,424.57,431.00,437.93,443.85,449.17,454.38,459.68,465.06,470.27,474.94,479.26,483.41,487.45,491.73,496.15,500.71,505.58,510.61,515.80,521.17,526.53,530.66,533.64,536.26,539.03,542.16,545.52,549.02,552.73,556.72,560.25,563.33,566.23,569.13,572.07,575.03,578.06,581.20,584.51,587.83,591.52,595.62,600.35,606.59,612.99,619.56,626.40,633.29,640.28,646.92,652.78,657.26,661.61,665.94,670.50,675.67,681.53,688.68,695.56,701.22,705.10,707.96,708.34,706.40,702.67,698.87,695.80
272.76,270.63,267.75,263.53,259.78,256.36,252.98,249.06,243.17,239.40,237.24,235.68,234.43,233.56,232.83,232.06,231.07,230.74,230.94,231.51,232.36,233.22,233.95,234.60,235.20,235.66,235.75,236.77,238.53,239.66,238.93,235.76,231.20,226.39,222.73,219.83,217.53,215.57,213.32,210.88,208.38,205.85,203.27,200.47,196.67,192.49,188.45,184.88,181.56,178.68,176.16,173.69,171.14,168.47,165.69,162.81,160.00,157.81,155.85,153.91,151.97,149.91,147.61,145.14,142.65,140.33,138.89,137.78,136.64,135.55,134.41,133.33,132.31,131.31,130.29,128.89,127.27,125.67,124.20,122.78,121.40,119.96,118.20,116.15,114.86,114.77,116.22,117.75,119.95,124.37,130.82,133.69,136.19,139.10,142.53,146.11,147.52,147.53,146.88,146.16,146.22,148.00,150.78,153.99,156.69,159.27,161.70,164.07,166.54,169.31,172.19,175.12,178.09,181.05,184.90,189.16,193.58,198.18,203.17,208.32,213.59,218.98,224.04,229.30,235.37,242.30,248.90,253.91,257.85,261.10,263.91,266.45,268.71,270.48,271.77,273.75,277.21,280.97,284.21,286.20,287.95,289.31,290.61,292.18,293.68,295.03,296.29,298.02,301.85,308.12,314.84,321.03,326.15,330.93,335.29,339.76,344.62,349.15,351.07,352.20,353.40,354.79,356.05,357.46,359.02,360.56,361.84,363.26,364.75,366.21,367.62,368.93,370.97,373.80,377.08,379.90,382.31,384.76,387.42,389.61,391.54,393.58,395.82,398.22,401.69,406.41,411.66,416.69,421.82,427.29,433.51,440.35,446.02,451.35,456.65,461.99,467.31,472.10,476.56,480.71,484.48,488.18,492.41,496.92,501.54,506.27,511.33,516.67,522.15,527.42,531.15,533.94,536.50,539.21,542.40,545.80,549.45,553.40,557.57,561.03,564.06,566.93,569.85,572.87,575.89,578.98,582.18,585.48,588.81,592.53,596.60,601.17,607.57,613.93,620.26,626.74,633.23,639.94,646.46,652.28,656.66,661.12,665.62,670.39,675.78,682.08,689.06,695.68,701.18,704.81,706.80,706.04,703.13,699.06,694.88,691.31
272.49,270.99,268.62,264.87,261.33,257.89,254.51,251.14,247.23,242.47,238.59,236.83,235.03,233.04,231.51,230.16,227.62,226.16,225.89,226.49,227.73,229.23,230.29,231.07,231.71,232.17,232.26,232.56,232.81,232.10,230.74,228.30,225.07,221.54,219.19,217.13,215.19,213.24,210.95,208.50,206.06,203.62,200.97,197.41,193.44,189.52,185.86,182.38,179.54,176.99,174.57,172.14,169.50,166.77,164.01,161.29,158.72,156.67,154.74,152.77,150.87,148.78,146.51,144.16,141.85,139.94,138.67,137.59,136.45,135.36,134.22,133.11,132.06,131.05,129.99,128.57,126.94,125.36,123.93,122.49,120.99,119.33,117.28,115.10,114.53,115.38,116.81,118.33,121.72,126.49,131.57,134.44,137.04,140.84,145.76,150.32,152.51,152.57,151.38,149.72,148.75,149.22,150.69,152.70,154.38,156.80,159.11,161.33,163.97,166.93,169.72,172.50,175.44,178.61,182.58,186.86,191.25,195.82,200.49,205.52,210.92,216.58,221.98,227.11,232.90,239.48,245.41,250.39,254.22,257.14,259.47,261.44,263.05,264.35,265.65,268.13,271.35,274.98,278.40,280.38,282.17,283.73,285.49,287.93,290.49,292.76,295.06,297.75,301.63,308.53,315.40,321.33,326.40,331.17,335.56,339.90,344.46,349.01,351.13,352.49,353.86,355.36,356.83,358.34,359.87,361.34,362.61,363.89,365.14,366.30,367.42,368.59,370.29,372.67,375.79,378.66,381.37,384.30,387.60,390.32,392.41,394.46,396.64,399.06,403.69,409.10,414.47,419.39,424.48,430.17,436.35,442.66,448.12,453.45,458.77,464.10,469.28,473.67,477.83,481.68,485.14,488.66,492.91,497.39,501.93,506.57,511.77,517.34,522.96,528.10,531.45,534.07,536.50,539.09,542.24,545.74,549.62,553.81,558.02,561.49,564.55,567.49,570.49,573.61,576.70,579.82,583.00,586.27,589.63,593.32,597.42,602.27,608.67,614.92,621.00,627.14,633.55,639.85,646.05,651.79,656.28,661.00,665.74,670.80,676.73,683.69,690.50,696.52,701.36,704.67,705.22,703.50,700.24,696.02,691.69,687.01
270.57,269.37,267.42,264.57,261.58,258.54,255.49,252.52,249.57,244.89,240.39,237.79,235.51,233.09,230.93,228.63,224.87,222.30,221.41,221.84,223.18,224.90,226.23,227.20,227.85,228.34,228.44,228.36,227.93,226.57,224.92,222.99,220.74,218.28,216.46,214.69,212.83,210.80,208.49,206.04,203.55,200.83,197.50,193.75,190.12,186.62,183.25,180.14,177.64,175.31,172.95,170.46,167.74,164.96,162.23,159.63,157.20,155.16,153.27,151.39,149.52,147.44,145.22,142.97,140.88,139.38,138.28,137.24,136.13,135.07,133.97,132.87,131.79,130.74,129.58,128.06,126.32,124.64,123.30,121.93,120.29,118.32,116.21,114.59,114.67,115.94,117.34,118.87,122.16,126.29,130.38,133.91,137.57,142.50,148.53,154.14,157.78,159.06,158.54,156.71,155.03,154.16,154.25,155.11,155.84,157.24,158.72,160.38,162.67,164.97,167.49,170.24,173.25,176.67,180.53,184.74,189.18,193.65,198.01,202.75,207.89,213.36,218.88,224.14,229.68,235.61,241.28,246.20,249.90,252.51,254.26,255.83,257.18,258.66,260.66,263.58,266.64,269.88,272.94,274.84,276.72,279.12,282.05,285.39,288.78,291.70,294.51,297.64,301.77,309.06,316.06,321.88,326.83,331.47,335.78,340.07,344.56,349.02,351.23,352.51,353.61,354.82,356.18,357.84,359.64,361.26,362.49,363.64,364.74,365.80,366.91,368.11,369.57,371.57,374.53,377.58,380.83,384.48,388.40,391.07,393.22,395.25,397.29,399.69,405.54,411.75,417.38,422.40,427.38,433.25,439.27,444.91,450.16,455.27,460.40,465.57,470.56,474.87,478.82,482.43,485.65,489.06,493.34,497.85,502.34,506.92,512.05,517.62,523.27,528.35,531.54,534.00,536.30,538.76,541.78,545.39,549.41,553.70,558.00,561.59,564.77,567.85,571.00,574.20,577.37,580.52,583.71,586.97,590.39,594.05,598.18,603.34,609.74,615.80,621.66,627.64,633.89,639.97,645.89,651.42,656.13,661.00,665.91,671.27,677.65,685.08,691.71,697.27,701.62,704.50,703.87,701.30,697.66,693.24,688.58,683.74
267.46,266.37,264.80,262.93,260.61,258.09,255.52,252.96,250.29,246.20,241.82,238.35,235.73,233.24,230.61,227.40,222.93,219.44,217.76,217.68,218.96,220.57,222.05,223.13,223.79,224.32,224.44,224.22,223.59,222.31,220.63,219.03,217.47,215.81,214.12,212.31,210.33,208.15,205.84,203.41,200.72,197.52,193.51,189.97,186.86,183.81,180.74,178.07,175.78,173.57,171.28,168.70,165.88,163.06,160.34,157.80,155.48,153.42,151.57,149.84,147.97,145.94,143.79,141.66,139.88,138.74,137.78,136.79,135.73,134.72,133.65,132.58,131.50,130.37,128.98,127.29,125.44,123.64,122.40,121.10,119.34,117.11,115.10,114.44,115.09,116.47,117.88,119.44,122.10,125.26,128.69,133.09,138.18,144.28,151.19,157.94,163.08,165.86,166.44,164.95,162.94,161.02,159.92,159.79,159.81,160.04,160.54,161.48,163.08,164.26,166.16,168.61,171.48,175.00,178.61,182.68,187.16,191.57,195.67,200.03,204.73,209.81,215.21,220.69,226.02,231.26,236.80,241.53,245.04,247.32,248.44,249.68,251.16,253.32,256.40,259.67,262.61,265.39,267.93,269.86,272.06,275.58,279.85,284.00,288.03,291.35,294.39,297.65,302.11,309.62,316.70,322.45,327.20,331.66,335.86,340.11,344.57,348.84,351.03,352.10,352.74,353.51,354.54,356.32,358.54,360.62,361.89,362.93,363.93,364.98,366.21,367.51,368.83,370.59,373.56,376.95,380.82,385.16,389.49,391.85,394.00,396.01,397.95,400.59,407.45,414.34,420.29,425.56,430.54,436.45,442.18,447.16,452.12,456.88,461.75,466.70,471.47,475.81,479.64,483.03,486.08,489.37,493.69,498.26,502.74,507.24,512.23,517.69,523.31,528.36,531.47,533.83,536.03,538.38,541.23,544.93,549.00,553.27,557.66,561.45,564.84,568.11,571.42,574.69,577.93,581.13,584.30,587.55,591.04,594.71,598.89,604.34,610.70,616.55,622.25,628.17,634.25,640.21,645.86,651.16,656.10,661.06,666.12,671.74,678.50,686.28,692.76,697.96,701.85,704.09,702.53,699.24,695.16,690.55,685.57,681.12
262.78,261.82,260.57,259.14,257.24,254.98,252.74,250.93,247.95,244.36,240.81,237.77,235.21,232.69,229.93,226.72,222.88,219.17,216.18,214.77,215.89,217.01,218.14,219.04,219.63,220.20,220.37,220.18,219.68,218.86,217.54,216.13,214.74,213.35,211.73,209.69,207.35,204.90,202.65,200.24,196.89,193.12,189.84,186.90,184.09,181.33,178.63,176.10,173.78,171.62,169.42,166.84,163.94,161.01,158.19,155.56,153.35,151.39,149.64,148.00,146.14,144.19,142.16,140.32,139.12,138.14,137.21,136.24,135.23,134.27,133.22,132.16,131.10,129.81,127.78,125.87,124.08,122.32,121.14,119.75,117.96,115.88,114.20,114.55,115.72,117.09,118.49,120.25,122.79,125.67,128.92,133.74,139.81,146.73,154.41,162.56,167.98,170.91,171.96,171.36,169.95,168.14,166.79,166.24,166.31,166.58,166.98,167.45,167.90,167.85,168.13,168.91,170.46,173.38,176.75,180.58,184.85,189.42,193.48,197.45,201.68,206.45,211.33,216.78,222.12,227.09,232.18,236.29,239.29,241.14,241.68,242.50,244.87,248.48,252.75,256.20,258.97,261.53,264.03,266.52,269.92,274.38,279.25,283.81,288.09,291.56,294.66,297.92,302.52,310.00,317.02,322.63,326.99,331.29,335.45,339.58,343.68,347.47,349.57,350.50,350.79,351.28,351.83,353.48,356.19,359.41,361.06,362.09,363.03,364.11,365.43,366.75,368.09,370.02,373.65,377.86,382.21,386.52,390.41,392.73,394.89,396.88,399.10,403.03,409.99,416.82,422.96,428.70,434.33,439.78,444.89,449.53,453.88,458.34,462.98,467.66,472.18,476.57,480.26,483.45,486.39,489.50,493.89,498.54,502.97,507.30,512.25,517.68,523.21,528.14,531.27,533.66,535.87,538.15,540.86,544.54,548.50,552.58,556.96,561.04,564.79,568.34,571.76,575.12,578.39,581.57,584.69,587.85,591.38,595.11,599.46,605.18,611.34,617.02,622.66,628.62,634.64,640.39,645.87,651.09,656.10,661.14,666.37,672.16,679.09,687.24,693.65,698.51,701.74,702.76,700.81,697.01,692.41,687.81,682.88,679.12
257.62,256.59,255.34,253.81,252.00,249.86,247.54,245.28,242.39,239.91,237.86,236.04,233.88,231.40,228.54,225.38,222.04,217.88,214.18,212.09,212.70,213.47,214.27,214.98,215.56,216.13,216.38,216.29,215.94,215.40,214.47,213.22,211.78,210.14,208.29,206.19,203.98,201.72,199.31,196.70,193.34,189.82,187.11,184.51,181.83,179.22,176.77,174.31,171.91,169.72,167.56,165.00,162.06,158.96,155.92,153.25,151.27,149.52,147.83,146.14,144.34,142.44,140.70,139.32,138.44,137.52,136.59,135.65,134.68,133.74,132.72,131.70,130.59,128.95,126.45,124.32,122.53,120.88,119.68,118.23,116.47,114.71,114.05,115.02,116.38,117.73,119.14,121.19,123.78,126.60,129.97,135.38,141.97,149.44,157.77,166.58,171.66,174.67,176.27,176.32,175.68,174.69,173.81,173.37,173.73,174.26,174.87,175.38,175.33,174.45,173.37,172.68,172.99,174.80,177.06,179.63,182.81,187.13,191.03,194.81,198.72,202.99,207.48,212.68,217.91,222.79,227.23,230.81,233.32,234.80,235.38,236.78,239.74,243.82,248.54,252.79,256.15,259.21,262.21,265.32,269.07,273.70,278.68,283.41,287.95,291.48,294.42,297.56,302.69,310.13,317.03,322.50,326.51,330.53,334.52,338.37,341.97,345.14,346.90,347.51,347.45,347.67,347.99,349.75,352.93,356.90,359.30,360.82,362.04,363.22,364.68,366.25,367.87,370.14,374.35,379.05,383.63,387.88,391.48,393.86,396.00,398.10,400.78,405.69,412.39,419.25,425.77,431.87,437.72,442.87,447.58,451.94,455.92,459.89,464.14,468.58,472.94,477.15,480.66,483.69,486.51,489.46,493.86,498.55,502.99,507.21,512.16,517.63,523.12,527.89,531.09,533.50,535.70,537.93,540.50,544.06,547.85,551.75,556.08,560.32,564.37,568.21,571.84,575.38,578.76,581.94,584.95,588.02,591.55,595.35,599.85,605.77,611.80,617.41,623.08,629.05,634.86,640.43,645.81,651.01,655.98,661.14,666.57,672.60,679.73,687.96,694.31,698.85,701.42,701.44,698.68,694.34,689.50,685.04,680.50,677.18
251.96,250.59,249.12,247.22,245.35,243.21,240.57,237.25,234.88,233.84,233.55,233.29,231.66,229.26,226.34,223.10,219.80,215.15,211.37,209.23,209.15,209.75,210.28,210.80,211.36,211.88,212.19,212.19,211.93,211.46,210.79,209.71,208.17,206.14,204.05,202.15,200.49,198.78,196.11,193.26,190.45,187.78,185.35,182.88,180.25,177.74,175.41,172.92,170.43,168.13,165.90,163.30,160.31,156.90,153.60,151.01,149.32,147.80,146.14,144.33,142.60,140.78,139.47,138.57,137.77,136.87,135.95,135.02,134.09,133.16,132.17,131.18,129.95,127.79,125.02,122.71,120.89,119.39,118.12,116.65,115.02,113.80,114.53,115.76,117.08,118.41,119.90,122.24,124.91,127.85,131.61,137.77,144.62,152.44,161.17,169.75,174.09,177.23,179.44,180.05,180.29,180.53,180.65,180.75,181.51,182.43,183.51,184.44,184.49,183.25,181.31,179.64,178.95,179.35,179.90,180.59,182.04,185.56,188.95,192.45,196.00,199.56,203.71,208.46,213.46,218.29,222.07,225.26,227.50,228.96,230.23,233.00,236.25,240.02,244.61,249.99,254.41,258.41,262.24,265.94,269.32,273.48,278.13,282.72,287.41,290.84,293.55,296.65,302.55,309.90,316.64,322.04,325.77,329.43,333.11,336.58,339.59,342.12,343.40,343.62,343.24,343.19,343.48,345.48,349.00,353.36,356.70,359.13,360.97,362.43,364.08,366.04,368.09,370.81,375.47,380.35,384.99,389.19,392.70,395.27,397.42,399.71,402.88,408.26,414.58,421.56,428.60,434.97,440.63,445.64,450.19,454.33,458.12,461.54,465.30,469.48,473.69,477.56,480.86,483.76,486.50,489.32,493.68,498.38,502.84,507.04,512.01,517.50,522.96,527.55,530.87,533.31,535.48,537.70,540.15,543.50,547.07,550.79,555.03,559.38,563.66,567.79,571.71,575.50,579.04,582.23,585.12,588.10,591.59,595.44,600.06,606.12,612.12,617.75,623.46,629.40,634.89,640.32,645.70,650.91,655.80,661.10,666.74,673.02,680.40,688.45,694.65,698.88,700.86,700.05,696.19,691.35,686.55,682.32,678.30,675.17
244.88,242.66,240.91,239.40,238.01,235.92,233.34,231.12,229.61,229.00,229.07,229.26,227.67,225.39,222.45,218.64,213.81,209.75,206.67,204.79,204.61,205.14,205.44,205.69,206.06,206.38,206.46,206.25,205.77,205.01,204.08,203.11,202.10,201.02,199.99,198.96,197.95,196.64,194.22,191.87,189.65,187.47,185.20,182.80,180.66,178.45,175.96,173.26,170.58,167.98,165.34,162.32,158.85,154.87,151.35,149.22,147.75,146.22,144.52,142.69,140.97,139.64,138.63,137.80,137.02,136.20,135.30,134.38,133.45,132.52,131.57,130.50,128.96,126.23,123.36,121.10,119.39,118.05,116.71,115.21,114.20,114.14,115.24,116.56,117.90,119.31,121.06,123.37,125.92,129.16,133.79,140.57,148.08,156.20,164.35,170.97,174.76,177.84,180.53,182.42,183.78,185.09,186.28,187.27,188.14,189.79,191.69,193.25,193.55,192.73,191.25,189.83,188.91,188.30,187.64,187.31,187.60,188.79,190.37,192.16,194.23,196.84,200.17,204.24,208.75,213.33,217.11,220.24,223.31,226.37,229.32,233.36,236.97,240.74,245.38,250.70,255.29,259.58,263.78,267.79,271.10,274.55,278.17,281.79,285.72,288.62,291.52,295.50,301.69,308.66,315.27,320.81,324.48,327.87,331.22,334.30,336.86,339.00,340.11,340.31,339.94,339.65,339.80,341.55,344.89,349.49,353.48,357.00,359.91,362.16,364.16,366.34,368.61,371.62,376.72,381.65,386.34,390.57,394.13,397.22,399.70,402.06,405.04,410.00,416.23,423.39,430.75,437.38,442.83,447.71,452.25,456.41,460.11,463.32,466.73,470.43,474.19,477.76,480.88,483.74,486.50,489.35,493.54,498.15,502.67,506.94,511.81,517.09,522.31,526.83,530.42,532.96,535.16,537.44,539.86,542.84,546.12,549.67,553.73,558.35,562.89,567.28,571.52,575.48,579.18,582.42,585.23,588.12,591.52,595.37,600.02,606.09,612.27,618.00,623.61,629.25,634.68,640.08,645.51,650.83,655.86,661.20,666.96,673.39,680.81,688.50,694.16,698.03,699.65,697.68,693.28,688.55,684.09,679.87,675.78,672.68
237.98,235.14,233.04,231.81,230.70,228.94,227.08,226.51,225.62,225.00,224.65,224.15,222.05,219.31,216.15,212.28,207.20,203.77,201.19,199.52,199.31,199.73,199.81,199.77,199.81,199.92,199.82,199.47,198.87,198.04,197.17,196.66,196.42,196.31,196.13,195.82,195.41,194.62,192.74,190.92,189.18,187.38,185.31,183.11,181.26,179.24,176.67,173.86,171.07,168.23,165.24,161.91,157.98,153.51,149.79,148.00,146.51,144.90,143.16,141.38,139.76,138.78,137.91,137.03,136.26,135.48,134.63,133.73,132.81,131.93,131.05,129.67,127.54,124.48,121.73,119.66,118.10,116.80,115.42,114.22,113.94,114.78,116.05,117.40,118.78,120.30,122.28,124.54,126.99,130.53,136.03,143.30,150.74,158.22,165.32,170.88,174.35,177.31,180.20,182.97,185.59,188.03,190.24,192.07,193.44,195.88,198.52,200.64,201.39,201.16,200.32,199.31,198.33,197.08,195.71,194.81,194.40,194.07,194.15,194.43,195.18,196.81,198.86,201.81,205.64,210.11,214.34,218.14,222.24,226.62,230.96,235.80,240.04,244.09,248.41,253.03,257.22,261.39,265.68,269.88,273.39,276.46,279.25,281.88,284.85,287.24,290.20,294.74,301.25,307.60,313.67,319.01,322.69,325.87,328.90,331.72,334.12,336.02,337.09,337.41,337.13,336.72,337.03,338.62,341.55,345.89,350.76,355.36,359.22,362.12,364.38,366.67,369.16,372.49,377.80,382.87,387.66,391.98,395.61,398.94,401.61,404.07,406.97,411.52,417.80,425.07,432.54,439.31,444.59,449.42,454.00,458.20,461.73,464.86,468.03,471.33,474.67,477.96,480.99,483.88,486.74,489.67,493.58,497.93,502.40,506.81,511.60,516.68,521.67,526.11,529.95,532.62,534.90,537.27,539.71,542.45,545.46,548.75,552.52,557.36,562.19,566.85,571.34,575.40,579.17,582.44,585.24,588.07,591.39,595.21,599.87,605.95,612.27,618.04,623.51,628.93,634.34,639.74,645.22,650.65,655.85,661.24,667.06,673.58,680.98,688.37,693.38,696.49,697.38,694.76,690.41,685.96,681.69,677.39,673.16,669.85
231.62,228.62,226.16,224.93,223.79,222.67,222.19,223.27,222.55,221.50,220.05,217.75,214.69,210.96,207.41,204.14,200.58,197.61,195.22,193.67,193.44,193.63,193.51,193.21,192.89,192.77,192.62,192.32,191.84,191.23,190.91,191.15,191.69,192.18,192.36,192.51,192.66,192.51,191.39,189.99,188.63,187.19,185.37,183.52,181.68,179.60,177.13,174.36,171.59,168.64,165.47,162.04,157.80,153.00,149.14,147.41,145.69,143.94,142.21,140.55,139.14,138.22,137.30,136.35,135.60,134.82,134.02,133.15,132.22,131.41,130.58,128.63,125.64,122.59,120.19,118.45,117.04,115.66,114.31,113.79,114.25,115.56,116.92,118.26,119.72,121.41,123.49,125.77,128.17,131.98,138.18,145.76,152.13,157.87,163.56,169.44,172.92,175.74,178.50,181.51,185.38,189.07,192.21,194.73,197.05,200.27,203.51,206.17,207.58,208.02,207.84,207.25,206.22,204.75,203.19,202.09,201.49,200.96,200.26,199.65,199.57,200.34,200.85,202.33,205.26,209.67,214.53,219.70,224.78,229.77,234.88,239.98,245.14,249.71,253.27,256.69,260.00,263.64,267.69,271.96,275.94,279.07,281.44,283.27,285.34,287.40,290.29,294.88,301.72,307.17,312.14,316.77,320.48,323.42,326.13,328.82,331.39,333.23,334.40,334.88,334.73,334.33,335.22,336.91,339.29,342.90,348.93,354.44,358.88,362.11,364.48,366.83,369.64,373.34,378.58,383.95,388.92,393.35,397.08,400.25,402.87,405.46,408.51,412.93,419.35,426.61,433.98,440.73,445.93,450.77,455.43,459.65,462.93,466.03,469.09,472.15,475.21,478.27,481.28,484.28,487.28,490.32,493.83,497.74,502.02,506.63,511.40,516.36,521.19,525.48,529.50,532.34,534.75,537.22,539.71,542.41,545.21,548.11,551.47,556.43,561.57,566.53,571.17,575.24,578.98,582.25,585.10,587.92,591.22,594.99,599.63,605.75,612.11,617.82,623.18,628.47,633.87,639.28,644.80,650.35,655.68,661.15,667.03,673.56,680.86,688.05,692.37,694.31,694.00,691.43,687.69,683.55,679.24,674.80,670.47,666.68
225.56,222.89,221.09,220.04,219.06,218.47,218.50,219.08,217.45,215.08,212.40,209.41,206.24,203.40,200.36,197.03,193.88,191.66,190.14,189.25,189.05,188.95,188.80,188.62,188.44,188.32,188.21,188.15,188.04,187.66,187.44,187.24,186.81,186.36,187.53,188.68,189.46,189.63,188.82,188.08,187.62,186.94,185.30,183.43,181.47,179.32,176.89,174.15,171.58,168.70,165.45,161.97,157.63,152.88,149.09,147.31,145.57,143.87,142.18,140.53,139.12,138.08,137.31,136.70,136.11,135.29,134.34,133.17,131.87,131.03,129.77,127.05,123.38,120.67,118.82,117.36,116.00,114.67,113.64,113.95,114.99,116.38,117.77,119.21,120.92,122.84,124.86,126.98,129.64,133.69,139.79,147.10,152.41,156.87,161.37,166.61,170.70,173.80,176.46,179.38,183.55,188.32,192.25,194.98,197.72,201.49,205.86,209.85,212.05,213.36,214.47,214.74,213.63,211.94,210.45,209.50,209.01,208.56,207.80,207.02,207.00,208.33,209.27,210.68,212.54,214.94,218.15,223.09,228.44,233.79,239.19,244.72,250.23,254.95,258.24,260.73,263.52,266.42,269.66,273.92,277.95,280.95,283.16,284.97,286.81,289.44,293.55,299.22,304.84,308.73,312.24,315.76,318.96,320.98,323.12,325.60,328.25,330.50,331.93,332.53,332.36,331.84,333.50,335.69,338.24,342.02,348.51,353.69,357.69,360.82,363.22,365.93,369.22,373.36,378.85,384.72,389.89,394.39,398.22,401.30,403.86,406.38,409.44,414.23,420.57,427.74,435.06,441.74,446.88,451.82,456.59,460.79,463.90,466.88,469.87,472.87,475.84,478.84,481.86,484.89,487.92,490.85,494.15,497.72,501.69,506.47,511.33,516.27,520.98,525.07,529.10,532.09,534.65,537.23,539.83,542.39,544.95,547.52,550.40,555.38,560.83,566.06,570.75,574.72,578.55,581.93,584.82,587.68,590.97,594.76,599.40,605.45,611.73,617.38,622.66,627.86,633.22,638.72,644.26,649.80,655.29,661.00,667.06,673.52,680.42,687.32,691.29,692.55,691.36,688.60,684.94,680.85,676.54,672.06,667.64,663.34
220.60,218.42,217.16,216.20,215.26,214.55,213.98,212.98,210.68,207.85,204.94,202.17,199.53,197.77,195.23,191.65,188.53,186.80,185.93,185.50,185.25,184.93,184.80,184.77,184.79,184.74,184.68,184.85,185.10,184.94,184.66,183.90,182.49,181.01,182.67,184.40,185.55,185.92,185.53,185.45,185.85,186.04,184.99,183.22,181.21,179.02,176.57,173.80,171.38,168.56,165.26,161.77,157.46,152.84,149.15,147.32,145.64,144.00,142.35,140.73,139.33,138.31,137.78,137.50,137.13,136.30,135.10,133.56,131.87,130.77,128.74,125.26,121.24,119.02,117.60,116.31,114.97,113.77,113.41,114.39,115.79,117.20,118.60,120.25,122.22,124.35,126.35,128.37,131.13,135.10,140.70,147.34,151.79,155.35,158.93,163.23,167.54,171.15,174.17,177.06,181.06,186.38,190.98,194.16,197.11,200.93,205.91,210.90,214.07,216.91,219.52,220.89,220.30,218.93,217.75,216.94,216.45,216.05,215.27,214.49,214.63,216.49,218.24,219.94,221.18,221.99,223.50,227.35,232.36,237.81,243.33,249.02,254.53,259.23,262.52,264.64,267.00,269.27,271.81,275.94,279.80,282.61,284.74,286.75,289.03,292.68,297.80,303.77,307.96,310.53,312.80,315.29,317.94,319.17,320.74,322.90,325.53,328.04,329.56,330.17,330.13,330.24,332.76,335.50,338.36,342.36,348.62,353.03,356.39,359.31,361.75,364.86,368.55,373.03,378.92,385.37,390.76,395.30,399.18,402.18,404.69,407.13,410.22,415.42,421.68,428.75,435.99,442.48,447.57,452.63,457.47,461.63,464.69,467.59,470.55,473.55,476.50,479.50,482.49,485.51,488.54,491.37,494.48,497.70,501.38,506.55,511.55,516.43,520.99,524.88,528.81,531.92,534.66,537.32,539.99,542.41,544.76,547.09,549.64,554.54,559.96,565.25,570.11,574.12,578.04,581.53,584.50,587.43,590.74,594.56,599.19,605.12,611.31,616.84,622.02,627.21,632.61,638.25,643.86,649.40,654.99,660.86,667.09,673.55,680.09,686.32,689.92,690.66,688.79,685.90,682.31,678.31,674.07,669.64,665.21,660.41
217.63,216.02,214.67,213.44,212.18,210.19,207.31,203.72,201.74,200.43,199.26,198.02,196.67,195.50,193.00,189.12,185.80,183.99,183.01,182.40,181.92,181.52,181.39,181.43,181.51,181.50,181.48,181.78,182.24,182.31,181.94,180.97,179.30,177.44,178.35,179.59,180.50,181.02,181.44,181.93,182.88,183.92,184.24,183.04,181.19,178.97,176.39,173.52,171.07,168.23,164.89,161.41,157.31,152.81,149.15,147.34,145.75,144.13,142.51,140.96,139.73,139.10,138.83,138.73,138.58,137.82,136.29,134.38,132.41,130.67,127.45,123.33,119.51,117.94,116.59,115.28,113.97,113.02,113.80,115.10,116.52,117.96,119.40,121.40,123.59,125.82,128.00,130.08,132.50,135.83,140.47,145.92,149.90,153.16,156.20,159.38,162.92,167.26,171.47,174.66,178.05,182.98,188.09,192.41,195.38,198.37,202.69,207.70,212.13,217.66,221.91,224.61,225.71,225.73,225.18,224.35,223.50,222.98,221.94,221.14,221.26,222.92,225.27,227.35,228.88,229.83,230.65,232.52,236.28,241.43,246.94,252.25,257.31,261.81,265.40,268.05,270.06,271.97,274.35,278.11,281.56,284.15,286.26,288.59,292.29,297.37,302.46,306.75,309.87,311.87,313.52,315.31,317.54,318.58,319.67,321.38,323.83,326.05,327.28,327.77,328.27,330.45,333.90,337.09,340.24,344.18,349.12,352.55,355.31,357.96,360.54,363.94,367.82,372.47,378.86,385.91,391.55,396.11,399.94,402.85,405.34,407.80,410.99,416.40,422.70,429.71,436.75,442.91,447.94,453.07,457.93,462.03,465.18,468.19,471.20,474.21,477.21,480.16,483.10,486.08,489.07,491.93,494.79,497.62,501.15,507.10,512.25,516.96,521.26,524.99,528.69,531.91,534.83,537.56,540.19,542.48,544.72,546.97,549.49,554.13,558.90,563.84,569.18,573.54,577.55,581.11,584.21,587.23,590.56,594.41,599.02,604.78,610.90,616.21,621.28,626.60,632.24,638.02,643.77,649.42,655.01,660.84,667.13,673.72,680.11,685.03,688.03,688.31,686.02,683.26,679.93,676.20,672.19,667.91,663.63,658.36
215.16,213.67,211.98,209.29,206.44,203.89,201.47,198.77,197.33,196.46,195.77,195.04,194.13,193.12,190.83,187.12,183.29,181.36,180.27,179.43,178.59,177.64,176.86,176.25,175.77,175.28,175.05,175.22,175.90,177.17,178.00,178.02,177.26,176.15,176.71,177.12,177.55,178.14,178.76,179.41,180.43,181.66,182.60,182.48,181.39,179.58,177.11,174.16,171.47,168.41,164.90,161.21,157.09,152.70,149.18,147.44,145.87,144.29,142.75,141.36,140.42,140.02,139.93,139.95,139.81,139.03,137.27,135.11,132.92,130.63,125.92,121.49,118.49,117.04,115.64,114.30,113.35,113.32,114.45,115.78,117.17,118.62,120.20,122.38,124.72,127.04,129.22,130.95,133.25,136.21,139.81,143.79,147.33,150.39,153.12,155.83,158.69,162.14,166.67,172.29,175.86,179.85,184.76,190.02,193.53,196.44,199.89,204.14,209.32,215.74,221.44,226.06,229.29,230.80,231.32,231.09,230.33,229.46,228.46,227.72,227.56,228.40,230.47,232.65,234.50,235.97,237.41,238.91,241.58,245.51,250.43,255.50,259.80,263.67,267.27,270.04,271.97,273.71,275.73,278.67,282.34,285.63,288.37,291.11,296.12,300.59,304.45,307.80,310.50,312.50,314.12,315.64,317.21,318.24,319.25,320.63,322.55,324.47,326.01,327.34,329.05,332.45,336.40,340.15,343.77,347.44,350.69,353.22,355.48,357.75,360.24,363.85,367.89,372.57,378.86,385.86,391.72,396.58,400.60,403.54,406.03,408.63,412.00,417.30,423.52,430.30,437.05,443.02,448.03,453.18,458.02,462.10,465.38,468.65,471.89,475.04,478.01,480.92,483.79,486.68,489.62,492.34,495.02,497.66,501.21,507.81,513.04,517.61,521.73,525.27,528.79,531.98,534.93,537.73,540.46,542.71,544.88,547.08,549.50,553.63,558.03,563.22,569.48,573.88,577.88,581.41,584.49,587.54,590.97,594.89,599.62,605.62,611.64,617.04,622.53,628.45,634.03,639.53,645.05,650.56,655.91,661.54,667.66,674.04,680.08,684.28,686.23,685.83,683.42,680.81,677.72,674.31,670.64,666.66,662.62,657.24
212.58,210.60,208.23,204.46,200.53,197.94,196.54,195.32,194.36,193.54,192.79,192.07,191.04,189.92,187.97,184.91,181.20,179.45,178.39,177.46,176.40,175.04,173.70,172.48,171.31,170.09,169.41,169.19,169.75,171.92,173.84,174.97,175.55,175.90,176.56,176.30,176.19,176.59,177.02,177.49,178.33,179.49,180.72,181.56,181.29,180.03,177.80,174.91,172.06,168.81,165.11,161.14,156.89,152.58,149.20,147.55,145.99,144.55,143.21,142.08,141.43,141.17,141.18,141.20,140.85,139.89,137.92,135.56,133.09,130.06,124.19,119.78,117.66,116.19,114.72,113.50,113.07,113.98,115.19,116.47,117.80,119.26,121.03,123.27,125.70,128.09,130.15,131.51,133.67,136.30,138.97,141.56,144.56,147.40,149.96,152.49,154.87,157.44,162.16,170.08,174.12,177.36,181.94,187.78,191.89,194.90,197.58,200.87,206.09,212.77,219.66,226.08,231.30,234.20,236.07,236.86,236.61,235.60,234.88,234.22,233.65,233.54,235.01,237.32,239.63,241.74,243.85,245.48,247.51,250.32,254.24,258.68,262.15,265.31,268.64,271.34,273.32,275.06,276.80,278.97,283.07,287.19,290.63,293.63,299.05,302.57,305.42,308.34,310.80,312.82,314.47,315.78,316.79,317.96,319.06,320.28,321.85,323.64,325.62,327.88,330.75,334.90,339.21,343.47,347.43,350.60,352.45,354.29,356.20,358.21,360.71,364.43,368.58,373.23,379.13,385.70,391.67,396.92,401.28,404.39,406.95,409.71,413.20,418.15,424.24,430.76,437.20,443.03,448.02,453.15,457.99,462.13,465.59,469.12,472.61,475.93,478.93,481.76,484.54,487.35,490.19,492.78,495.32,497.93,501.65,508.70,513.98,518.38,522.26,525.57,528.90,531.99,535.00,537.96,540.76,543.00,545.12,547.28,549.61,553.30,557.54,563.08,570.15,574.56,578.51,581.99,585.00,588.06,591.62,595.62,600.51,606.96,612.94,618.60,624.59,630.98,636.46,641.59,646.79,652.09,657.26,662.71,668.63,674.69,680.20,683.82,684.55,683.38,680.99,678.51,675.62,672.50,669.17,665.52,661.74,656.40
209.15,205.27,201.34,198.84,196.65,194.94,193.62,192.43,191.56,190.50,189.35,188.06,185.88,184.33,182.97,181.58,180.27,179.57,179.05,178.49,177.80,176.91,175.95,174.81,173.24,170.99,169.38,168.10,167.53,168.78,170.10,171.64,173.80,176.69,178.49,178.34,177.70,177.21,176.88,176.45,176.76,177.73,178.93,179.82,180.02,179.32,177.56,175.19,172.57,169.39,165.61,161.36,156.86,152.48,149.19,147.66,146.06,145.06,144.29,143.62,143.12,142.85,142.82,142.59,141.53,140.00,137.72,135.16,132.24,127.75,122.10,118.38,116.75,115.28,113.82,113.19,113.51,114.73,116.02,117.23,118.49,119.94,121.88,124.09,126.48,128.78,130.58,131.90,133.68,135.84,138.06,139.69,141.86,144.34,146.94,149.47,151.88,155.23,160.64,168.36,173.02,176.58,181.07,186.63,190.98,193.97,196.41,198.89,202.41,209.03,216.48,223.79,230.13,234.07,237.70,240.27,241.39,241.09,241.14,240.51,239.38,238.49,239.31,242.02,245.22,247.99,249.61,251.47,254.09,256.99,259.19,261.65,264.30,266.94,269.46,271.86,274.10,276.13,277.97,280.00,284.52,289.11,292.82,295.46,298.61,302.10,305.73,309.12,311.25,312.92,314.14,315.06,316.03,317.61,318.96,320.46,322.51,324.80,326.97,329.50,332.75,337.04,341.65,346.17,349.88,351.99,353.73,355.50,357.44,359.71,362.69,366.36,370.43,374.93,380.19,385.79,391.55,397.16,402.14,405.75,408.54,411.40,414.75,418.95,424.88,431.23,437.38,442.99,447.96,453.01,457.93,462.37,466.11,469.74,473.30,476.78,480.07,482.80,485.44,488.13,490.85,493.42,495.92,498.79,502.95,509.94,515.28,519.44,522.85,525.78,528.79,531.76,534.99,538.41,541.12,543.33,545.42,547.52,549.82,553.58,558.01,563.70,570.77,575.40,579.29,582.70,585.71,588.78,592.50,596.52,601.59,608.74,614.89,621.03,627.22,633.27,638.76,643.69,648.65,653.79,659.11,664.66,670.52,676.17,680.82,683.78,683.15,681.16,678.88,676.50,673.71,670.72,667.60,664.28,660.76,655.57
204.57,200.56,197.06,194.92,193.29,191.96,190.77,189.56,188.52,187.80,187.23,186.51,185.08,184.10,183.26,182.46,181.86,181.47,181.02,180.50,179.93,179.22,178.37,177.26,175.59,173.02,170.80,168.61,166.79,166.43,167.46,169.16,172.09,176.61,180.30,181.02,180.51,179.56,178.30,177.43,177.05,177.05,177.36,177.96,178.43,178.14,176.78,174.92,172.71,169.81,166.14,161.70,157.10,152.60,149.30,148.07,147.00,146.35,145.83,145.30,144.81,144.53,144.05,143.13,141.53,139.61,137.13,134.47,131.07,124.57,119.98,117.30,115.80,114.34,113.24,113.31,114.22,115.53,116.81,118.05,119.38,120.93,122.86,124.88,127.06,129.20,130.86,132.19,133.70,135.40,137.14,138.46,140.11,142.26,144.79,147.33,149.84,153.66,159.36,166.82,172.11,175.88,180.10,185.32,190.31,193.44,196.18,198.90,201.79,207.21,213.18,219.64,226.40,231.38,235.55,239.17,241.97,243.38,245.41,245.92,245.29,244.60,244.96,246.83,249.38,251.94,253.56,255.53,257.80,260.04,261.74,263.28,265.07,266.98,269.00,271.55,274.63,277.26,279.37,281.86,285.86,289.39,292.39,295.36,298.45,302.24,306.27,309.81,311.44,312.46,313.23,313.96,314.95,316.66,318.35,320.22,322.56,325.11,327.52,330.43,334.11,338.56,343.45,347.84,351.16,353.00,354.77,356.55,358.61,361.24,364.63,368.40,372.36,376.57,381.28,386.20,391.65,397.29,402.61,406.96,410.05,412.91,416.01,419.66,425.48,431.67,437.56,442.95,447.82,452.84,457.79,462.38,466.34,470.22,474.05,477.73,480.99,483.69,486.27,488.91,491.59,494.19,496.65,499.93,504.69,511.30,516.67,520.44,523.23,525.79,528.47,531.58,535.17,538.90,541.48,543.65,545.72,547.79,550.14,553.97,558.60,564.39,571.32,576.12,579.98,583.27,586.19,589.25,593.12,597.36,602.64,609.98,616.51,622.94,629.14,634.91,640.27,645.12,650.15,655.49,660.86,666.31,672.00,677.26,681.04,682.52,681.25,679.15,676.94,674.45,671.74,668.89,665.92,662.73,659.18,654.29
200.21,196.69,194.15,192.04,190.51,189.40,188.47,187.43,186.36,186.25,186.58,186.76,186.68,186.53,186.08,185.33,184.65,184.20,183.61,182.94,182.37,181.67,180.78,179.63,178.02,175.54,172.91,169.99,167.00,164.85,165.49,167.18,170.36,175.80,181.56,183.82,184.09,183.11,181.22,180.03,178.71,177.35,176.52,176.63,177.04,176.91,175.84,174.39,172.66,170.17,166.72,162.19,157.63,153.19,150.00,149.04,148.55,148.10,147.57,147.00,146.44,146.01,144.88,143.17,141.22,139.00,136.38,133.63,129.82,121.50,118.06,116.34,114.81,113.44,112.96,113.72,115.05,116.35,117.60,118.89,120.32,121.94,123.74,125.56,127.52,129.47,131.05,132.39,133.70,135.04,136.37,137.68,139.01,140.88,143.29,145.84,148.43,152.43,158.04,165.03,171.04,175.02,178.93,183.83,189.65,193.08,196.30,199.58,202.37,206.17,209.95,214.71,220.98,226.65,230.87,235.22,239.75,243.19,247.47,249.66,250.20,250.18,250.36,251.07,252.40,254.22,255.80,257.58,259.17,260.70,262.54,263.75,264.94,266.39,268.36,271.30,275.26,278.48,280.80,283.54,286.30,288.37,290.64,294.32,298.29,302.42,306.56,310.07,311.32,311.72,312.07,312.67,313.72,315.48,317.52,319.78,322.31,325.01,327.66,330.94,335.03,339.64,344.78,348.91,351.84,353.78,355.65,357.47,359.73,362.74,366.46,370.37,374.25,378.19,382.44,386.83,391.94,397.42,402.85,407.90,411.27,414.11,416.97,420.28,426.02,432.06,437.74,442.88,447.60,452.58,457.57,462.28,466.45,470.62,474.76,478.63,481.74,484.45,487.05,489.67,492.37,495.01,497.50,501.26,506.66,512.74,517.98,521.33,523.53,525.80,528.16,531.44,535.36,539.32,541.77,543.90,545.96,548.07,550.55,554.44,559.31,565.20,571.86,576.70,580.50,583.69,586.52,589.53,593.53,598.04,603.54,610.87,617.79,624.38,630.51,636.06,641.28,646.14,651.40,657.04,662.42,667.67,673.03,677.83,680.83,680.71,679.18,677.25,675.11,672.49,669.83,667.07,664.18,661.03,657.37,652.85
198.86,194.98,191.73,190.12,189.04,188.47,188.30,188.24,188.26,188.74,189.31,189.57,189.54,189.34,188.89,188.22,187.48,186.94,186.22,185.42,184.75,183.96,182.91,181.66,180.13,178.02,175.14,171.89,168.38,164.85,164.18,165.48,168.50,173.70,180.82,185.98,188.34,188.18,187.26,185.33,182.39,179.52,178.19,177.62,177.11,176.34,175.21,173.92,172.58,170.53,167.44,163.02,158.69,155.22,152.84,151.69,150.94,150.19,149.38,148.59,147.84,146.71,144.95,142.86,140.81,138.41,135.69,132.82,128.82,120.51,117.01,115.26,113.80,112.77,113.27,114.46,115.82,117.13,118.43,119.73,121.06,122.45,124.03,125.87,127.81,129.65,131.13,132.41,133.67,134.93,136.19,137.45,138.75,140.50,142.76,145.30,147.82,151.49,156.17,161.84,169.05,173.45,177.17,181.90,188.62,192.66,196.03,199.23,201.91,204.56,207.20,210.08,213.62,218.50,223.13,228.45,234.24,239.15,244.44,248.38,250.70,251.43,252.13,252.88,253.57,254.13,254.63,255.23,256.63,258.73,260.93,262.09,263.81,266.24,269.37,272.88,276.70,279.87,281.98,282.94,283.32,285.19,288.61,293.17,297.55,301.58,305.43,308.78,310.44,310.84,310.97,311.35,312.50,314.43,316.78,319.34,322.06,324.86,327.66,331.13,335.42,340.19,345.49,349.50,352.28,354.31,356.29,358.24,360.76,364.14,367.91,371.86,375.87,379.85,383.76,387.68,392.50,397.74,402.95,408.02,411.49,414.40,417.31,420.71,426.39,432.34,437.86,442.74,447.14,452.06,457.20,462.18,466.60,470.95,475.24,479.22,482.29,485.03,487.70,490.40,493.15,495.84,498.51,502.78,508.70,514.26,518.88,521.88,523.95,526.08,528.25,531.36,535.24,539.29,541.78,543.88,545.99,548.29,551.12,555.07,560.25,566.30,572.54,577.02,580.62,583.74,586.60,589.62,593.58,598.14,603.81,611.39,618.41,625.03,631.08,636.48,641.81,646.88,652.34,658.10,663.42,668.45,672.99,676.98,679.69,678.98,677.29,675.42,673.41,670.98,668.21,665.33,662.42,659.36,655.77,651.53
196.72,193.32,190.62,189.66,189.14,189.22,189.86,190.90,191.71,192.36,192.77,192.78,192.49,192.06,191.48,190.73,189.95,189.37,188.64,187.80,186.95,185.94,184.75,183.41,181.87,179.92,177.02,173.62,169.70,165.16,162.73,163.38,166.50,172.01,180.03,186.75,190.31,190.76,190.45,188.85,186.36,183.71,181.60,179.61,178.15,176.93,175.72,174.30,172.93,171.13,168.64,165.21,161.70,158.93,156.86,155.39,154.14,152.89,151.54,150.16,148.94,147.31,145.19,142.79,140.37,137.67,134.82,130.92,125.34,119.17,116.18,114.30,112.93,112.80,113.87,115.23,116.59,117.91,119.22,120.49,121.77,123.09,124.54,126.16,127.94,129.68,131.12,132.36,133.59,134.82,136.06,137.29,138.57,140.22,142.35,144.89,147.42,150.74,154.66,159.26,165.92,171.00,175.10,179.52,186.46,191.05,194.58,197.68,200.42,202.66,204.84,206.89,209.00,212.36,216.05,221.35,228.18,235.00,241.31,246.60,250.17,251.30,252.05,252.44,252.49,252.26,252.12,252.13,253.14,255.11,257.65,259.90,262.50,265.54,269.05,272.73,275.43,277.65,279.08,278.56,278.55,281.35,285.99,290.81,294.75,298.37,301.96,305.26,307.29,308.32,308.82,309.46,311.19,313.50,316.12,318.86,321.65,324.50,327.45,331.07,335.49,340.43,345.90,349.91,352.61,354.72,356.80,358.92,361.69,365.33,369.17,373.24,377.39,381.43,385.16,388.87,393.25,398.13,403.28,408.35,411.78,414.63,417.50,420.86,426.49,432.50,438.08,442.83,447.11,452.03,457.23,462.29,466.81,471.25,475.64,479.69,482.81,485.63,488.40,491.21,494.03,496.78,499.96,504.59,510.42,515.41,519.48,522.24,524.27,526.32,528.38,531.42,535.21,539.19,541.83,544.03,546.25,548.71,551.82,555.74,561.21,567.32,572.96,577.07,580.52,583.63,586.55,589.56,593.39,597.68,603.28,611.43,618.44,624.96,631.00,636.54,642.08,647.47,652.98,658.53,663.80,668.76,672.79,676.25,678.74,677.41,675.49,673.57,671.61,669.22,666.41,663.52,660.62,657.59,654.17,650.17
194.36,192.20,190.94,190.69,190.73,191.44,192.86,194.82,196.03,196.50,196.49,196.11,195.39,194.66,193.85,192.94,192.12,191.51,190.86,190.05,188.95,187.68,186.38,184.95,183.32,181.35,178.59,175.10,170.83,165.58,161.29,161.11,164.39,170.64,179.26,186.32,190.29,191.25,191.22,190.65,189.97,188.70,185.94,182.56,180.17,178.49,177.07,175.37,173.69,171.99,170.22,168.26,165.96,163.67,161.53,159.64,157.77,155.92,153.89,151.75,149.87,147.87,145.50,142.80,139.85,136.81,133.84,128.43,120.58,117.56,115.41,113.50,112.34,113.35,114.63,115.99,117.35,118.67,119.97,121.17,122.43,123.78,125.17,126.47,127.98,129.60,131.04,132.25,133.47,134.70,135.94,137.18,138.41,139.98,142.02,144.57,147.19,150.24,153.62,157.43,162.31,167.94,172.65,176.79,183.54,188.55,192.25,195.31,198.22,200.63,202.84,204.88,206.71,208.42,210.38,215.01,222.53,231.12,238.24,244.31,248.58,249.91,250.46,250.24,249.70,249.13,248.79,248.74,249.22,250.53,253.22,256.92,260.22,263.22,266.25,269.53,270.77,271.79,272.58,271.57,272.88,277.18,282.65,287.14,290.10,293.22,296.62,299.95,302.42,304.57,305.99,307.30,309.84,312.59,315.41,318.25,321.09,323.99,327.08,330.81,335.31,340.42,346.06,350.13,352.86,355.02,357.19,359.54,362.53,366.33,370.28,374.52,378.81,382.93,386.63,390.33,394.23,398.68,403.84,408.88,412.17,414.87,417.58,420.83,426.42,432.58,438.36,443.13,447.46,452.48,457.68,462.65,467.14,471.57,475.95,480.01,483.24,486.20,489.16,492.13,495.06,497.92,501.79,506.62,511.88,516.27,519.90,522.50,524.50,526.51,528.54,531.57,535.24,539.02,541.88,544.33,546.70,549.29,552.61,556.45,562.14,568.26,573.19,576.96,580.29,583.42,586.42,589.44,593.09,596.92,602.33,611.13,618.01,624.35,630.43,636.28,642.10,647.84,653.27,658.46,663.69,668.71,672.56,675.72,677.94,676.00,673.73,671.68,669.65,667.19,664.43,661.62,658.78,655.74,652.49,648.66
195.28,194.57,194.01,194.16,194.45,195.51,197.27,199.13,200.07,200.23,199.89,199.15,198.07,197.04,195.95,194.87,194.11,193.41,192.75,191.92,190.67,189.33,187.93,186.37,184.56,182.47,179.94,176.30,171.53,165.88,160.68,159.63,162.39,168.75,178.13,184.80,189.01,191.14,191.59,191.31,190.93,190.35,189.13,187.41,184.18,180.86,178.40,176.61,174.90,173.31,171.86,170.55,169.35,167.76,165.68,163.13,160.66,158.28,155.90,153.46,150.94,148.19,145.19,142.07,139.06,135.97,132.92,127.28,119.16,116.56,114.50,113.03,112.61,113.91,115.31,116.68,118.03,119.36,120.59,121.77,122.94,124.15,125.48,126.70,128.00,129.43,130.92,132.17,133.39,134.63,135.86,137.10,138.33,139.89,141.94,144.58,147.34,150.28,153.40,156.73,160.45,164.88,169.18,173.82,180.99,185.97,189.77,193.04,196.05,199.00,201.38,203.39,205.24,207.09,209.00,213.36,220.31,227.94,234.17,239.62,243.82,245.88,246.93,246.73,246.14,245.61,245.33,245.31,245.63,246.55,248.62,250.99,252.75,254.21,255.67,257.18,258.81,260.81,263.03,265.14,268.71,273.17,277.62,281.11,283.58,286.82,290.18,293.42,297.27,300.99,303.78,306.01,308.64,311.34,314.15,317.11,320.25,323.41,326.62,330.40,334.95,340.13,345.73,349.95,352.92,355.18,357.44,360.06,363.26,367.09,371.14,375.48,379.96,384.33,388.33,392.04,395.75,399.90,404.74,409.50,412.52,415.00,417.60,420.84,426.56,432.72,438.50,443.60,448.09,453.39,458.73,463.51,467.87,472.00,476.00,479.82,483.26,486.59,490.02,493.36,496.48,499.71,504.03,508.71,513.25,517.15,520.29,522.69,524.70,526.72,528.77,531.66,535.05,538.58,541.77,544.63,547.20,549.87,553.40,557.23,563.11,569.17,573.46,576.89,580.08,583.19,586.27,589.49,593.04,596.76,602.05,610.61,617.33,623.45,629.47,635.52,641.69,647.48,652.89,658.06,663.26,668.50,672.44,675.33,676.83,674.61,672.01,669.61,667.34,664.87,662.25,659.55,656.77,653.79,650.42,646.50
197.16,197.61,197.93,198.39,198.80,199.82,201.40,202.89,203.61,203.64,203.22,202.36,200.96,199.50,198.05,196.77,195.99,195.21,194.54,193.73,192.38,191.00,189.46,187.69,185.66,183.47,180.95,177.19,172.22,166.54,160.73,158.84,160.75,166.52,176.17,182.74,187.32,190.42,191.51,191.56,191.35,191.09,190.77,190.30,187.54,183.71,180.05,177.95,176.25,174.74,173.41,172.42,171.74,170.51,168.52,165.73,162.84,160.03,157.32,154.65,151.73,148.44,144.88,141.35,138.23,135.11,130.97,125.03,118.17,115.62,113.56,112.65,113.07,114.45,115.89,117.26,118.62,119.97,121.13,122.28,123.42,124.56,125.81,126.99,128.18,129.47,130.91,132.16,133.37,134.59,135.83,137.06,138.30,139.85,141.93,144.72,147.57,150.50,153.52,156.63,159.81,163.39,167.29,172.18,179.60,184.40,188.20,191.62,194.66,197.82,200.33,202.41,204.37,206.44,208.50,212.37,218.07,223.83,228.17,232.97,237.45,240.17,242.02,242.01,241.51,241.31,241.56,241.72,241.99,242.66,244.06,245.29,246.07,246.65,247.19,247.69,249.55,252.47,256.31,260.97,265.42,269.23,272.48,275.23,277.73,281.15,284.77,288.53,293.43,298.24,301.93,304.68,307.22,309.77,312.51,315.60,319.07,322.53,325.89,329.74,334.29,339.55,345.16,349.60,352.84,355.22,357.63,360.51,363.89,367.80,371.98,376.43,381.10,385.75,389.97,393.68,397.33,401.39,406.00,410.20,412.97,415.33,417.91,421.32,427.18,433.20,438.82,444.08,448.93,454.52,459.92,464.53,468.73,472.42,475.98,479.59,483.40,487.27,491.16,494.87,498.26,501.72,505.97,510.23,514.12,517.62,520.44,522.71,524.71,526.71,528.78,531.50,534.59,537.83,541.11,544.44,547.48,550.49,554.21,558.13,564.15,570.11,573.87,577.10,580.28,583.53,586.85,590.21,593.78,597.63,602.90,610.98,617.59,623.35,629.05,635.06,641.31,647.05,652.53,657.93,663.36,668.62,672.54,675.03,675.59,673.14,670.38,667.77,665.29,662.76,660.07,657.37,654.65,651.70,647.93,643.84
199.88,201.04,202.43,203.12,203.54,204.14,205.00,206.04,206.69,206.81,206.55,205.83,204.13,202.13,200.26,198.74,197.78,196.97,196.32,195.51,194.14,192.74,190.99,188.95,186.68,184.39,181.61,177.77,173.00,167.69,161.44,158.72,159.49,164.00,173.20,180.12,185.26,188.94,190.80,191.42,191.52,191.33,190.81,190.49,189.56,186.73,182.04,179.36,177.64,176.15,174.81,173.84,173.01,171.71,169.82,167.26,164.20,161.08,158.06,155.13,152.08,148.52,144.59,140.73,137.42,134.24,127.94,121.45,117.12,114.66,112.69,112.38,113.57,114.96,116.36,117.74,119.13,120.47,121.59,122.73,123.89,125.04,126.21,127.38,128.54,129.75,131.06,132.25,133.43,134.62,135.85,137.08,138.31,139.87,141.99,144.94,147.81,150.81,153.88,156.99,160.21,163.71,167.44,172.15,179.51,184.04,187.73,191.19,194.18,197.12,199.72,202.02,204.09,206.19,208.33,211.42,215.33,218.77,220.58,224.88,229.98,233.19,235.83,236.05,235.77,236.13,237.44,237.90,238.23,238.78,239.68,240.53,241.30,241.99,242.59,243.24,244.84,248.25,253.42,259.15,262.80,265.37,267.65,270.20,273.21,276.78,280.95,285.82,291.15,296.34,300.27,303.08,305.45,307.87,310.51,313.67,317.49,321.30,324.89,328.78,333.29,338.66,344.36,349.06,352.60,355.14,357.75,360.86,364.43,368.45,372.82,377.40,382.27,387.17,391.49,395.19,398.89,403.03,407.57,410.94,413.52,415.91,418.57,422.40,428.36,434.10,439.37,444.63,450.00,455.83,461.20,465.65,469.70,472.88,475.96,479.45,483.84,488.38,492.66,496.65,500.34,503.76,507.43,511.03,514.42,517.57,520.25,522.48,524.47,526.43,528.50,531.04,533.85,536.81,539.91,543.72,547.52,551.21,555.07,559.19,565.27,571.07,574.43,577.62,580.97,584.57,588.26,591.71,595.41,599.58,604.98,612.47,619.05,624.38,629.55,635.23,641.23,646.86,652.51,658.35,664.24,669.20,672.88,674.84,674.28,671.60,668.88,666.28,663.69,661.04,658.00,655.11,652.40,649.40,645.02,640.79
205.31,206.82,207.98,208.48,208.74,208.94,209.32,210.17,210.56,210.47,210.10,209.38,207.44,205.26,203.17,201.32,199.92,198.96,198.18,197.28,195.96,194.50,192.67,190.54,188.17,185.56,182.41,178.44,173.95,169.36,162.66,158.66,158.11,161.61,168.97,176.12,181.90,185.94,188.24,189.79,190.69,190.97,190.61,190.17,189.32,187.17,183.57,180.62,178.77,177.24,175.76,174.38,173.01,171.75,170.10,167.54,164.41,161.19,157.96,154.72,151.47,147.64,143.55,139.69,136.61,133.49,126.17,119.47,116.42,114.00,112.56,112.72,114.08,115.47,116.87,118.23,119.56,120.83,121.97,123.13,124.29,125.44,126.60,127.76,128.92,130.10,131.31,132.53,133.73,134.93,136.11,137.26,138.44,140.00,142.14,145.04,147.91,150.91,153.99,157.05,160.24,163.80,167.65,172.36,179.31,183.72,187.40,190.88,193.80,196.79,199.64,202.17,204.32,206.53,208.78,211.37,214.09,216.07,217.63,220.50,224.29,227.93,229.66,229.78,229.78,230.63,232.94,233.66,234.20,235.06,236.14,236.92,237.25,237.53,238.13,239.06,240.99,244.98,250.62,255.78,259.19,261.69,264.17,267.39,270.84,274.65,278.86,283.54,288.63,293.56,297.64,300.85,303.37,305.74,308.17,311.19,315.28,319.93,323.89,327.81,332.18,337.42,343.03,348.10,352.12,354.82,357.62,360.96,364.74,368.90,373.43,378.23,383.29,388.38,392.96,396.87,400.56,404.47,408.56,411.58,414.06,416.41,419.28,424.03,429.79,435.06,440.12,445.75,451.42,457.18,462.55,467.12,470.75,473.54,476.29,479.74,484.82,489.99,494.56,498.50,501.84,505.07,508.43,511.57,514.40,517.11,519.68,521.91,523.92,525.95,527.99,530.31,533.00,536.06,539.29,543.49,547.95,552.27,556.16,560.66,566.43,571.71,575.00,578.15,581.93,585.86,589.67,593.36,597.12,601.72,607.43,614.41,621.14,626.72,631.90,637.28,643.00,648.65,654.31,660.14,666.18,670.37,673.41,674.61,672.92,670.30,667.79,665.36,662.90,660.18,656.62,653.16,649.88,646.42,642.21,638.33
210.79,212.45,213.29,213.69,213.88,213.94,214.15,214.79,214.88,214.52,213.94,212.99,210.83,208.49,206.29,204.35,202.81,201.91,200.98,199.74,198.09,196.38,194.41,192.23,189.75,186.74,183.20,179.16,174.98,170.99,164.44,159.09,156.95,159.50,164.80,171.47,177.35,181.67,184.67,186.91,188.34,189.02,188.92,188.38,187.44,186.01,183.92,181.32,179.21,177.34,175.62,174.10,172.45,171.13,169.54,166.96,163.85,160.65,157.34,153.93,150.48,146.44,142.33,138.64,135.79,132.80,125.06,118.30,115.85,113.41,112.57,113.13,114.53,115.92,117.31,118.67,119.95,121.15,122.33,123.49,124.66,125.83,126.99,128.15,129.31,130.47,131.68,132.90,134.13,135.32,136.47,137.56,138.70,140.29,142.46,145.17,147.92,150.93,154.08,157.23,160.46,164.00,167.77,172.28,178.77,183.10,186.77,190.16,193.02,195.98,199.00,201.64,203.68,205.64,207.67,209.85,211.97,213.51,215.07,216.66,219.24,223.25,224.31,224.12,223.80,224.15,226.10,227.00,228.21,230.04,232.10,233.20,233.15,233.02,233.67,235.08,237.59,241.95,247.63,252.37,255.96,258.93,262.10,266.13,269.94,274.00,278.22,282.63,287.50,292.15,296.22,299.66,302.45,304.85,306.96,309.63,313.67,318.86,323.05,326.94,331.11,336.12,341.65,347.05,351.56,354.44,357.40,360.97,364.95,369.26,373.94,378.91,384.11,389.36,394.28,398.47,402.18,405.82,409.45,412.21,414.62,416.94,420.11,426.03,431.47,436.26,441.17,447.04,452.78,458.44,463.88,468.62,471.77,474.31,476.86,480.32,486.19,491.79,496.48,500.26,503.19,506.17,509.25,512.00,514.38,516.73,519.17,521.37,523.41,525.47,527.49,529.64,532.29,535.55,538.95,543.55,548.53,553.25,557.23,562.09,567.50,572.29,575.59,578.81,582.96,587.17,591.09,594.96,598.90,603.81,609.74,616.51,623.38,629.23,634.54,639.77,645.37,651.18,656.92,662.63,668.24,671.56,673.65,673.93,671.57,669.21,666.95,664.73,662.41,659.66,655.73,651.58,647.52,643.58,639.76,636.22
215.23,216.87,217.79,218.38,218.71,219.11,219.57,219.86,219.63,219.08,218.17,216.66,214.27,211.66,209.49,207.93,206.93,206.52,205.43,203.44,200.75,198.46,196.24,193.93,191.28,187.85,183.95,179.93,176.03,172.31,167.00,160.40,156.28,157.84,161.31,166.25,171.22,175.73,179.97,182.28,183.59,184.36,184.56,184.07,183.50,182.95,182.25,180.93,178.41,175.78,173.69,172.66,171.34,169.78,167.84,165.29,162.38,159.31,156.14,152.81,149.21,145.06,141.13,137.71,134.98,132.16,124.63,117.93,115.38,112.82,112.49,113.41,114.85,116.25,117.64,119.02,120.30,121.43,122.63,123.81,125.00,126.21,127.38,128.53,129.69,130.89,132.17,133.41,134.61,135.77,136.92,138.01,139.16,140.85,143.07,145.41,147.85,150.87,154.26,157.74,161.17,164.46,167.71,171.57,177.62,181.94,185.48,188.63,191.40,194.09,197.03,199.57,201.18,202.18,203.40,205.18,207.50,210.03,211.16,212.18,214.51,218.75,220.25,219.51,217.82,216.00,215.23,216.18,218.79,222.57,226.66,228.64,228.61,228.35,229.23,231.44,234.73,239.12,244.36,249.66,253.91,257.87,262.09,266.81,270.88,275.15,279.54,284.07,289.06,293.63,297.45,300.76,303.89,306.32,308.01,310.04,313.46,318.43,322.54,326.26,330.17,334.90,340.37,346.03,350.90,354.02,357.10,360.88,365.06,369.53,374.35,379.39,384.61,389.98,395.33,399.83,403.61,407.08,410.38,412.86,415.20,417.56,421.14,428.46,433.43,437.84,442.68,448.39,453.93,459.55,465.12,470.02,472.72,475.19,477.69,481.30,488.04,493.74,498.27,501.81,504.49,507.18,509.89,512.32,514.48,516.67,518.89,521.03,523.08,525.10,527.11,529.23,531.94,535.37,538.84,543.97,549.22,553.95,558.13,563.27,568.43,572.87,576.21,579.70,584.03,588.42,592.49,596.40,600.76,605.75,611.64,618.71,625.61,631.50,636.90,642.29,648.04,654.20,660.26,665.80,670.05,672.55,673.26,672.43,670.24,668.37,666.43,664.36,662.11,659.44,655.40,650.55,645.58,641.28,637.90,634.52
219.96,221.84,222.93,223.56,223.97,224.21,224.25,223.94,223.20,222.41,221.29,219.49,217.27,214.82,212.84,211.59,210.93,210.46,209.31,207.24,204.12,201.07,198.40,195.77,192.76,188.83,184.66,180.59,176.77,173.17,168.63,162.07,156.79,156.19,158.77,162.18,165.66,169.06,172.36,174.59,176.21,177.46,178.29,178.18,178.22,178.18,177.77,177.05,175.29,173.31,171.62,170.55,169.05,167.33,165.36,162.99,160.54,158.00,155.41,152.65,149.24,144.32,140.14,136.97,134.33,131.61,124.10,117.38,114.78,112.25,112.44,113.67,115.13,116.56,117.99,119.35,120.59,121.72,122.91,124.11,125.31,126.50,127.70,128.87,130.07,131.32,132.59,133.87,135.12,136.34,137.53,138.66,139.90,141.57,143.64,145.81,148.03,150.90,154.40,158.27,161.59,164.57,167.38,170.67,175.88,180.07,183.42,186.18,188.46,190.59,192.83,194.72,195.90,196.70,197.31,198.20,199.53,201.22,202.62,204.25,206.49,209.29,210.48,209.88,208.45,206.86,206.21,207.69,210.45,214.02,218.04,220.90,222.40,223.97,226.69,230.11,234.66,239.70,244.92,250.03,254.31,258.70,263.47,268.53,272.96,277.55,282.40,287.45,292.38,296.92,300.98,304.59,307.63,309.82,311.40,313.21,315.97,319.71,323.24,326.55,329.97,334.26,339.29,344.64,349.51,353.11,356.48,360.45,364.81,369.45,374.38,379.48,384.77,390.28,395.95,400.66,404.48,407.85,410.93,413.39,415.82,418.60,422.73,429.92,434.85,439.41,444.32,449.75,455.08,460.78,466.33,470.99,473.66,476.08,478.99,483.25,490.10,495.71,499.69,502.62,504.99,507.49,509.99,512.32,514.46,516.65,518.83,520.94,523.00,525.01,527.02,529.17,531.92,535.42,538.98,544.66,550.18,554.89,559.25,564.46,569.29,573.41,576.83,580.51,584.96,589.47,593.72,597.78,602.49,607.78,613.74,620.62,627.36,633.24,638.80,644.49,650.55,657.05,663.31,668.49,671.15,672.64,672.45,671.13,669.21,667.49,665.70,663.82,661.73,659.08,654.89,649.45,643.77,639.34,636.12,632.98
224.83,226.78,227.95,228.55,228.93,228.89,228.41,227.53,226.32,225.20,223.82,221.85,219.88,217.82,216.21,215.26,214.77,213.95,212.59,210.50,207.33,203.73,200.63,197.59,194.09,189.75,185.41,181.27,177.42,173.90,169.92,163.82,157.76,154.73,156.52,158.56,160.59,162.69,164.63,166.59,168.33,169.90,171.23,171.58,172.09,172.31,171.93,171.53,170.77,169.76,168.65,167.54,165.95,164.30,162.51,160.46,158.57,156.58,154.56,152.30,148.95,143.46,139.17,136.25,133.62,130.46,123.19,116.78,114.18,111.83,112.45,113.92,115.40,116.87,118.34,119.66,120.88,122.04,123.19,124.39,125.59,126.77,127.99,129.16,130.42,131.73,132.99,134.29,135.60,136.89,138.14,139.37,140.74,142.35,144.21,146.24,148.22,150.83,154.26,158.41,161.58,164.09,166.51,169.43,173.75,177.74,180.88,183.27,185.07,186.62,188.03,189.17,189.95,190.65,190.79,190.97,191.38,192.04,193.75,195.99,198.06,199.38,200.20,200.17,199.77,199.43,199.80,202.08,205.02,208.25,211.93,215.57,218.68,222.07,226.25,230.39,235.78,241.38,246.69,251.42,255.49,260.02,265.07,270.36,275.14,280.09,285.42,290.98,295.94,300.46,304.76,308.64,311.47,313.50,315.18,316.94,319.12,321.69,324.67,327.63,330.65,334.48,338.82,343.47,348.00,351.90,355.58,359.77,364.33,369.17,374.20,379.38,384.75,390.41,396.33,401.25,405.17,408.50,411.42,413.96,416.50,419.75,424.39,431.06,436.26,441.20,446.22,451.24,456.27,462.09,467.57,471.83,474.59,477.04,480.54,485.55,492.13,497.51,500.88,503.19,505.31,507.62,509.97,512.25,514.45,516.68,518.89,521.05,523.15,525.20,527.21,529.51,532.37,535.90,539.60,545.67,551.33,555.98,560.51,565.63,570.13,573.97,577.45,581.31,585.83,590.45,594.90,599.24,604.44,610.04,615.96,622.37,628.83,634.70,640.45,646.49,653.02,659.76,665.91,670.49,671.85,672.33,671.51,669.97,668.26,666.60,664.91,663.19,661.24,658.50,654.24,648.16,641.82,637.61,634.51,631.52
229.86,231.21,232.05,232.44,232.63,232.39,231.70,230.57,229.15,227.47,225.57,223.50,221.66,220.36,219.50,218.93,218.22,216.67,214.53,212.10,209.47,206.07,202.72,199.13,195.03,190.60,186.25,182.03,178.08,174.64,171.05,165.49,159.00,153.84,154.31,155.28,156.46,157.87,159.15,160.34,161.36,162.38,163.59,164.31,164.61,164.66,164.52,164.22,164.13,163.76,163.10,162.45,161.48,160.44,159.26,157.85,156.50,154.84,152.95,150.52,146.53,141.70,138.05,135.42,132.52,127.45,121.20,116.19,113.66,111.88,112.64,114.14,115.66,117.13,118.59,119.95,121.20,122.35,123.45,124.66,125.85,127.02,128.19,129.35,130.67,132.07,133.37,134.68,135.99,137.30,138.63,140.09,141.59,143.15,144.81,146.62,148.19,150.32,153.34,157.29,160.52,162.17,164.19,167.38,171.00,174.63,177.58,179.84,181.54,182.65,183.43,184.05,184.53,184.72,184.66,185.06,185.89,186.54,188.04,189.85,191.48,192.61,193.57,194.78,196.30,198.04,199.57,203.07,207.36,211.87,216.33,220.34,224.02,227.42,230.49,233.42,237.94,243.28,248.67,253.11,256.80,261.08,266.11,271.60,276.68,281.95,287.48,293.17,298.70,303.11,307.19,310.89,313.55,315.88,317.99,319.90,321.77,324.28,327.25,330.25,333.30,336.79,339.93,343.29,346.78,350.22,354.19,358.67,363.50,368.59,373.74,379.01,384.51,390.32,396.41,401.64,405.82,409.26,412.15,414.77,417.34,420.86,425.81,432.13,438.14,443.70,448.72,453.11,457.58,463.49,468.93,472.73,475.55,478.25,482.48,488.11,493.88,498.76,501.72,503.76,505.79,507.87,510.05,512.30,514.57,516.82,519.15,521.45,523.72,525.95,527.98,530.73,533.91,537.39,541.43,547.44,552.85,557.31,561.93,566.83,571.00,574.61,578.11,582.11,586.71,591.40,596.05,601.00,607.17,612.99,618.38,623.92,629.91,635.85,641.82,648.19,655.57,662.25,667.45,670.86,671.98,671.64,670.51,668.98,667.26,665.72,664.11,662.44,660.44,657.37,653.33,646.44,639.30,636.23,633.38,630.18
