710.14,709.12,705.84,702.49,699.04,695.56,692.34,688.96,685.48,681.98,678.60,675.54,673.55,672.22,671.33,670.63,669.96,669.30,668.42,666.93,665.25,663.49,661.41,658.55,654.18,647.93,641.24,635.07,630.53,627.82,625.99,624.63,623.73,623.15,622.77,622.13,621.05,619.57,617.01,613.99,610.78,607.26,603.11,599.35,596.91,596.66,598.48,602.17,606.39,610.53,614.25,616.97,619.01,620.67,622.04,622.95,623.51,623.72,623.46,622.72,621.93,621.16,620.38,619.63,619.93,621.11,622.56,623.91,625.12,626.25,628.06,631.13,636.17,641.92,647.61,652.31,654.90,655.74,654.77,652.29,648.38,643.63,639.89,638.32,638.75,640.42,641.36,642.00,643.27,645.88,649.22,655.20,663.80,673.67,681.22,686.29,690.10,692.82,693.95,694.02,693.33,692.37,691.35,690.22,689.29,688.88,689.73,693.28,697.25,701.32,705.54,709.95,714.13,717.88,720.98,723.69,727.14,731.13,735.05,738.35,740.42,741.49,741.51,740.63,738.85,736.56,734.11,731.71,729.52,727.73,725.97,723.70,720.75,716.85,711.63,706.16,700.77,696.21,694.48,697.61,702.98,708.90,714.14,718.01,720.23,721.43,721.83,721.48,720.88,720.20,720.28,722.87,726.60,731.70,737.58,743.84,750.17,756.37,763.22,770.02,773.88,777.18,779.65,781.14,781.34,780.33,777.32,773.46,769.58,766.13,762.82,759.63,756.76,754.67,753.07,751.27,748.75,745.13,740.87,737.39,733.61,729.08,724.32,720.28,717.99,717.08,716.77,716.05,714.45,711.92,708.41,704.41,699.77,694.37,689.19,686.57,684.37,682.35,680.37,678.29,676.01,673.16,669.88,666.28,662.39,657.57,652.06,646.55,641.88,636.91,631.23,624.63,617.10,609.57,602.46,595.97,589.75,582.83,575.48,568.38,561.32,554.32,549.49,548.23,548.09,547.86,547.28,545.58,543.25,540.51,537.36,534.03,531.45,529.78,529.04,528.46,528.39,528.48,528.66,529.12,530.01,531.39,533.07,534.89,536.63,536.30,534.53,531.42,526.48,519.38,512.25,505.66,499.36,492.58,487.15,482.32
707.25,704.97,701.53,698.15,694.65,691.03,687.61,684.10,680.53,676.99,673.63,670.61,668.85,667.67,666.73,665.91,665.34,664.86,664.26,663.21,661.71,659.72,657.23,653.87,648.72,643.05,637.64,632.79,628.81,625.81,623.48,621.44,619.71,619.25,619.09,618.64,617.66,616.12,613.77,610.89,607.62,603.86,599.69,595.70,592.76,591.96,593.94,597.53,601.48,605.48,609.72,613.11,615.65,617.60,619.08,619.89,620.39,620.45,620.00,619.23,618.21,617.15,616.13,615.23,614.91,616.35,618.46,620.40,622.43,624.61,627.12,630.41,635.39,641.13,646.59,650.69,652.22,652.21,650.42,647.49,643.75,639.78,636.78,635.64,636.05,637.20,637.99,639.13,641.16,644.67,649.53,655.84,663.87,672.64,679.16,683.47,686.17,687.72,688.14,687.68,686.68,685.50,684.37,683.59,682.89,683.18,684.95,688.70,692.46,696.32,700.19,704.14,708.64,713.36,717.77,721.70,725.23,728.74,731.90,734.45,736.01,736.61,736.35,735.38,733.70,731.65,729.67,727.85,726.18,724.62,723.08,720.99,718.24,714.62,710.06,704.97,699.53,694.23,690.71,692.26,696.77,702.46,707.92,712.18,714.56,715.72,715.95,715.48,714.74,714.78,716.34,720.42,724.92,730.22,735.97,741.86,747.95,753.75,759.60,765.34,770.01,773.57,776.37,778.45,779.47,779.58,777.18,773.84,770.63,767.56,764.56,761.73,759.28,757.61,756.25,754.76,752.64,749.36,745.26,741.24,737.13,732.87,728.81,725.96,724.36,723.48,722.64,721.56,720.02,717.70,714.28,709.98,705.18,699.55,693.63,689.05,686.45,684.32,682.25,680.22,678.02,675.04,671.44,667.41,663.41,658.77,653.27,647.55,642.58,637.20,631.32,624.66,616.99,608.88,601.63,595.20,589.03,581.93,574.15,567.17,560.51,553.62,548.05,544.77,543.13,542.56,541.85,540.07,537.70,534.94,531.89,529.22,527.30,526.09,525.49,524.98,524.81,524.73,524.70,525.00,525.92,527.24,529.16,531.85,533.75,534.41,533.53,530.68,525.66,518.33,511.07,504.58,498.75,493.20,488.49,483.67
703.14,699.93,696.66,693.26,689.67,686.00,682.49,678.85,675.06,671.40,668.17,665.40,663.75,662.51,661.38,660.41,659.96,659.72,659.43,658.73,657.27,654.64,651.54,648.04,643.11,638.54,634.43,630.68,627.19,623.92,620.88,617.86,615.14,614.61,614.74,614.64,613.93,612.42,610.27,607.53,604.26,600.42,596.30,592.19,588.86,587.47,589.45,592.87,596.58,600.47,604.98,609.14,612.36,614.71,616.20,616.90,617.31,617.21,616.55,615.69,614.46,613.03,611.58,610.33,609.45,611.17,614.01,616.85,620.23,623.39,626.39,629.69,634.29,639.75,644.77,648.19,648.82,648.16,645.85,642.75,639.37,636.22,633.81,632.93,633.33,634.31,635.23,636.93,639.59,643.58,649.42,655.80,663.05,670.61,676.27,679.94,681.76,682.33,682.05,681.09,679.78,678.48,677.48,677.20,677.21,678.36,680.80,684.41,688.35,692.47,696.51,700.54,705.54,710.75,715.93,720.60,723.69,726.24,728.55,730.49,731.64,731.86,731.36,730.29,728.67,726.82,725.28,723.97,722.75,721.41,719.97,718.05,715.49,712.11,708.13,703.54,698.17,692.32,687.60,687.63,691.10,696.28,701.70,706.02,708.27,709.21,709.22,708.56,708.45,710.00,713.49,718.83,723.79,728.82,734.02,739.44,745.16,750.52,755.36,759.90,764.88,768.59,771.97,774.97,776.95,778.28,777.08,774.62,771.83,769.07,766.41,764.01,762.03,760.67,759.43,758.13,756.37,753.60,749.75,745.54,741.47,737.82,734.74,732.77,731.38,730.08,728.52,727.03,725.25,722.89,719.62,715.34,710.37,704.66,698.33,692.07,688.55,686.06,683.92,681.95,679.82,676.72,672.78,668.32,664.21,659.67,654.17,648.32,643.02,637.32,631.37,624.70,616.83,608.24,600.88,594.46,588.22,580.88,572.99,566.49,560.61,554.30,548.41,543.24,539.86,538.39,536.85,534.86,532.49,529.88,527.29,525.43,524.03,522.98,522.26,521.68,521.27,520.90,520.59,520.63,521.43,522.66,524.74,528.16,530.97,532.64,532.59,530.15,525.07,517.74,510.68,504.62,499.60,495.42,491.40,486.54
697.80,694.73,691.59,687.96,684.18,680.46,676.89,673.11,668.85,664.84,661.92,659.79,657.97,656.26,654.70,653.56,653.18,653.26,653.32,652.69,651.12,647.35,643.40,640.62,638.03,635.11,631.84,628.39,625.04,621.83,617.89,613.58,609.85,608.74,609.34,609.93,609.73,608.55,606.52,603.83,600.65,596.98,592.89,588.65,585.02,583.20,584.82,588.08,591.82,595.73,599.95,604.99,609.22,612.13,613.44,614.03,614.29,614.00,613.10,612.05,610.74,608.95,606.88,605.04,604.21,606.11,609.43,613.44,618.93,622.57,625.55,628.68,632.55,637.28,641.44,644.08,644.28,643.20,640.95,638.27,635.49,632.75,630.84,630.00,630.19,631.43,632.95,635.20,638.20,642.33,648.43,654.50,660.72,666.99,672.36,675.33,676.54,676.54,675.57,674.18,672.56,671.37,671.04,671.51,673.16,675.36,677.91,681.09,685.91,691.03,696.13,701.35,707.10,711.72,716.18,720.24,722.07,722.98,724.43,726.10,727.03,727.23,726.65,725.53,723.93,722.18,720.89,719.80,718.80,717.87,716.50,714.74,712.41,709.26,705.65,701.57,696.46,690.50,685.37,684.25,686.47,690.65,695.47,699.24,700.84,701.30,701.12,700.25,702.45,706.90,712.62,718.38,723.03,727.17,731.49,736.49,741.68,746.50,750.70,754.38,758.15,761.78,766.16,770.55,773.52,775.96,776.93,776.00,773.23,770.75,768.51,766.66,765.19,763.95,762.76,761.57,760.15,757.94,754.05,750.39,747.19,744.48,742.30,740.36,738.57,736.59,734.08,732.24,729.76,726.85,723.69,720.14,715.09,709.12,702.61,696.07,690.80,687.54,685.38,683.37,681.28,677.97,673.76,669.08,664.86,660.22,654.69,648.72,643.08,637.37,631.61,624.94,616.77,607.98,600.54,593.92,587.34,579.69,572.24,566.72,562.08,556.80,550.96,544.71,539.72,536.33,532.65,530.17,527.84,525.52,523.60,521.97,520.75,519.76,518.91,518.22,517.48,516.78,516.20,515.89,516.34,517.44,519.43,522.95,528.06,530.76,531.38,529.70,524.68,518.12,512.04,507.04,503.29,500.25,496.60,491.78
692.81,689.42,685.89,682.51,678.95,675.23,671.63,667.37,662.31,657.50,654.19,652.30,649.85,647.66,646.22,645.34,645.05,645.10,645.14,644.69,643.63,641.19,638.57,636.60,634.77,632.15,629.01,625.66,622.40,618.72,614.23,609.30,604.78,602.67,603.66,604.94,605.19,604.40,602.60,600.13,597.13,593.49,589.50,585.30,581.43,578.96,579.99,582.82,586.67,591.22,596.19,601.56,605.99,609.06,610.39,610.79,610.75,610.13,608.91,607.54,605.88,604.00,602.03,600.40,600.01,602.08,605.83,610.88,617.24,621.48,624.56,627.20,629.85,632.74,635.39,637.45,638.37,638.01,636.31,634.02,631.52,629.10,626.91,625.35,625.01,627.07,630.31,633.42,636.68,640.85,646.78,652.45,657.69,662.48,666.51,668.96,669.61,669.07,667.87,666.43,665.72,665.77,666.63,668.15,670.38,673.86,678.17,682.42,687.76,693.35,698.80,703.99,709.05,713.11,716.02,717.65,717.88,717.96,719.36,721.29,722.21,722.40,721.81,720.70,719.17,717.45,716.35,715.52,714.79,714.01,712.87,711.23,708.97,706.00,702.67,698.69,693.80,688.14,682.85,680.99,682.54,686.07,689.94,692.95,694.02,694.02,693.79,694.82,699.34,705.40,711.63,716.76,721.09,724.94,728.82,733.15,737.88,742.26,746.15,749.60,752.96,756.68,761.21,766.33,771.36,774.33,776.35,776.42,774.08,772.00,770.39,769.16,768.17,767.22,766.03,764.82,763.45,761.53,758.50,755.65,753.07,750.74,748.64,746.66,744.62,742.24,739.17,736.48,733.56,730.42,727.06,723.39,718.72,712.84,706.07,699.34,693.19,689.13,686.46,684.28,682.01,678.67,674.38,669.53,665.15,660.51,655.01,648.97,643.13,637.46,631.74,625.13,617.08,608.54,601.41,595.07,588.76,581.60,574.79,569.36,564.68,559.87,554.30,548.10,542.37,537.44,532.60,528.69,525.06,521.82,519.68,517.94,516.81,515.98,515.24,514.47,513.54,512.56,511.61,510.92,511.02,511.94,513.63,516.76,523.39,527.57,529.34,528.64,524.95,520.13,515.34,511.06,507.60,504.55,501.06,496.50
687.90,684.29,680.60,677.64,674.38,670.70,667.12,662.46,656.61,650.84,646.74,644.87,642.00,639.57,638.33,637.74,637.51,637.48,637.44,637.18,636.72,635.95,634.94,633.64,631.84,629.13,625.95,622.61,619.30,615.12,610.32,605.11,599.95,596.66,597.72,599.55,600.37,600.08,598.63,596.48,593.71,590.11,586.26,582.16,578.05,574.88,575.28,577.76,581.82,587.11,592.97,598.35,602.68,605.72,607.06,607.25,606.85,605.89,604.40,602.81,600.92,599.08,597.42,596.19,596.41,598.81,603.10,609.09,615.65,620.26,623.33,625.32,626.82,627.97,629.22,630.74,632.35,632.81,631.71,629.80,627.56,625.40,622.90,620.63,619.81,622.68,627.50,631.50,635.08,639.22,644.62,649.78,654.23,657.78,660.33,662.21,662.30,661.23,659.98,658.93,659.60,661.17,663.27,666.06,668.95,673.83,680.12,685.67,691.38,696.96,702.25,707.00,710.92,713.99,715.05,714.04,712.52,712.16,713.80,716.08,717.07,717.31,716.75,715.66,714.17,712.49,711.48,710.91,710.50,709.93,709.06,707.51,705.33,702.55,699.43,695.47,690.76,685.44,680.08,677.50,678.53,681.62,684.63,686.81,687.41,687.26,687.63,691.17,697.34,704.00,710.00,714.31,718.32,722.12,725.78,729.50,733.88,737.89,741.65,745.24,748.70,752.74,757.29,762.91,769.88,773.08,775.58,776.41,774.83,773.18,772.14,771.39,770.75,770.05,768.95,767.79,766.51,764.86,762.80,760.73,758.66,756.52,754.30,752.17,749.90,747.23,743.82,740.24,736.87,733.51,729.90,725.90,721.60,715.97,709.15,702.33,695.68,690.75,687.32,684.92,682.43,679.05,674.72,669.75,665.19,660.53,655.04,648.99,643.02,637.37,631.63,625.10,617.35,609.33,602.69,596.74,590.87,584.40,578.18,572.57,567.54,562.90,557.69,551.80,545.63,539.55,534.00,528.69,523.55,519.02,515.99,513.73,512.43,511.68,511.10,510.25,509.21,508.00,506.73,505.74,505.62,506.42,507.93,510.84,518.23,523.55,526.37,526.67,524.71,521.90,518.54,514.93,511.47,508.27,504.90,500.69
682.89,679.88,677.23,674.71,671.65,668.11,664.63,660.20,653.95,647.13,641.63,639.56,637.40,635.47,634.17,633.45,633.24,633.31,633.39,633.20,632.92,632.52,631.86,630.59,628.11,625.38,622.31,618.91,615.22,610.99,606.32,601.18,595.63,591.04,591.18,593.11,594.97,595.51,594.66,592.94,590.50,587.19,583.55,579.45,575.06,571.33,571.12,573.87,578.36,584.00,590.15,595.10,599.14,602.04,603.14,603.08,602.32,601.12,599.62,598.22,596.71,595.18,593.71,592.71,593.63,596.91,602.15,608.84,614.78,618.95,621.44,622.66,623.67,624.54,625.39,626.35,627.39,627.74,626.91,625.47,623.70,621.72,619.60,617.46,616.62,619.71,624.46,629.15,633.41,637.32,641.48,645.86,650.04,653.44,655.07,656.05,655.45,653.93,652.68,653.04,655.42,658.28,661.26,665.65,670.55,676.97,684.22,690.38,696.27,700.89,705.05,709.24,712.07,712.76,711.86,709.48,705.97,705.69,707.64,710.04,711.17,711.61,711.13,710.01,708.43,706.87,705.78,705.36,705.41,705.45,704.74,703.34,701.41,698.93,695.88,692.05,687.47,682.23,676.78,673.19,673.61,676.51,679.32,680.70,680.83,681.56,684.43,690.24,695.89,701.37,706.42,710.38,714.08,717.99,721.77,725.22,729.52,733.25,737.15,741.49,745.90,750.72,755.77,761.83,769.36,772.38,774.64,776.00,775.82,774.63,773.69,772.93,772.23,771.50,770.78,770.09,769.28,768.13,766.41,764.84,763.17,761.23,758.99,756.55,753.91,751.00,747.55,743.40,739.32,735.46,731.72,727.60,723.18,717.96,711.87,705.13,698.33,692.34,687.82,685.19,682.54,678.97,674.54,669.53,664.83,659.90,654.37,648.42,642.44,636.71,630.90,624.43,617.07,610.01,603.99,598.39,592.81,586.90,580.91,575.23,569.99,565.26,560.52,554.51,548.05,541.70,535.83,530.08,524.26,518.49,513.28,509.44,507.31,506.27,505.75,504.82,503.72,502.46,501.14,500.12,500.23,501.17,503.08,506.78,513.31,518.26,521.25,522.37,522.23,521.27,519.44,516.75,513.28,510.64,507.54,503.73
679.78,677.28,675.07,672.70,669.75,666.35,662.92,658.56,652.43,645.52,639.39,636.27,633.99,631.90,630.04,628.79,627.79,627.13,626.82,626.94,627.13,627.21,626.77,625.35,622.64,619.60,616.66,613.77,610.51,606.63,602.18,597.14,591.48,586.19,585.64,587.39,589.75,591.04,590.84,589.54,587.38,584.30,580.67,576.50,572.14,568.45,567.88,570.32,574.72,580.33,586.13,590.90,594.74,597.47,598.59,598.37,597.56,596.42,595.07,593.81,592.58,591.30,590.00,589.24,591.21,595.17,600.57,606.88,612.17,615.73,617.79,618.81,619.64,620.56,621.45,622.16,622.50,622.55,621.37,620.04,618.92,617.28,615.53,613.77,613.33,616.76,621.55,626.39,630.96,635.10,638.55,641.91,645.62,649.09,650.46,650.99,650.37,649.24,648.70,650.18,653.69,657.64,661.71,667.31,673.49,680.63,688.16,694.61,699.41,703.17,706.42,709.20,710.78,709.57,706.93,703.55,700.16,700.21,701.89,703.79,704.80,705.18,704.80,703.78,702.24,700.82,699.91,699.93,700.64,701.21,700.96,699.93,698.42,696.46,693.62,689.39,684.18,678.39,672.88,668.88,668.75,671.17,673.65,674.56,674.64,676.38,681.17,687.49,692.81,697.66,702.09,705.61,709.00,712.65,716.44,720.32,724.78,729.08,733.85,739.19,744.33,749.42,754.65,760.75,768.02,771.46,773.58,774.90,775.27,774.79,774.26,773.75,773.27,772.81,772.17,771.52,770.84,770.02,768.90,767.97,766.76,764.96,762.44,759.64,756.51,753.14,749.49,745.02,740.50,736.19,732.14,728.04,723.73,718.84,713.23,706.96,700.43,693.58,687.95,685.07,682.26,678.47,673.95,668.95,664.08,658.89,653.28,647.41,641.53,635.73,629.80,623.46,616.72,610.44,604.80,599.37,593.94,588.41,582.46,576.83,571.65,566.84,562.04,555.98,549.46,543.01,537.05,531.32,525.31,518.83,512.06,507.17,503.69,501.39,500.18,498.95,497.82,496.61,495.37,494.51,495.00,496.61,499.40,503.93,510.12,514.40,517.05,518.39,518.87,518.71,517.86,516.36,514.23,512.12,509.38,505.87
677.76,675.63,673.51,671.10,668.21,664.95,661.50,657.10,651.31,644.76,638.48,634.12,631.11,628.43,625.87,623.90,621.87,620.20,619.29,619.68,620.38,620.93,620.65,619.01,616.20,612.69,609.88,607.81,605.38,602.03,597.86,592.95,587.33,581.78,580.57,582.01,584.74,586.73,587.13,586.24,584.32,581.41,577.68,573.48,569.25,565.80,564.93,566.85,570.94,576.35,581.51,586.11,589.74,592.34,593.60,593.33,592.66,591.77,590.68,589.56,588.53,587.45,586.37,586.01,589.06,593.49,598.53,603.83,608.33,611.06,612.79,613.97,615.00,616.25,617.34,617.84,617.38,616.86,615.22,614.02,613.70,612.54,611.10,609.74,609.76,613.59,618.46,623.22,628.02,632.78,635.90,638.40,641.60,645.03,646.35,646.64,646.35,646.11,646.84,649.28,653.56,658.48,663.74,670.12,676.96,684.26,691.66,698.07,701.38,704.20,706.46,707.50,707.78,705.23,701.37,697.40,694.95,695.42,696.68,697.86,698.55,698.72,698.35,697.43,696.01,694.72,694.13,694.77,696.20,697.25,697.57,697.02,695.97,694.54,692.09,687.45,681.49,674.96,669.19,664.82,663.87,665.43,667.68,668.44,668.87,671.64,677.72,683.63,688.68,693.21,697.21,700.31,703.45,706.82,710.75,715.51,720.40,725.67,731.56,737.82,743.42,748.46,753.67,759.54,766.09,770.23,772.36,773.43,773.88,774.06,774.01,773.84,773.66,773.58,772.97,772.28,771.63,771.06,770.54,770.18,769.37,767.65,764.79,761.68,758.05,754.10,750.11,745.41,740.67,736.07,731.71,727.65,723.57,718.96,713.73,708.05,701.86,694.35,687.86,684.74,681.77,677.77,673.14,668.15,663.06,657.61,651.91,646.11,640.39,634.53,628.50,622.38,616.31,610.67,605.25,599.90,594.60,589.33,583.27,577.75,572.73,567.83,562.76,556.66,550.19,543.78,537.85,532.33,526.41,519.66,512.08,506.49,501.63,497.78,495.33,493.32,491.95,490.75,489.65,489.02,489.87,492.32,496.14,501.29,507.27,510.95,513.20,514.54,515.05,515.17,514.99,514.68,514.24,512.68,510.39,507.13
676.33,674.19,672.03,669.46,666.54,663.34,659.79,655.22,649.56,643.31,637.16,632.51,628.09,624.42,621.68,619.11,616.62,614.51,613.15,613.14,613.99,614.65,614.43,612.71,609.30,605.30,602.68,601.38,599.65,596.95,593.10,588.31,582.78,577.54,575.42,576.59,580.26,582.86,583.64,583.05,581.37,578.50,574.70,570.58,566.38,562.68,561.33,563.09,567.07,572.26,576.94,580.81,584.13,586.75,588.13,588.02,587.65,587.14,586.44,585.57,584.67,583.69,583.00,583.73,587.34,591.71,596.05,599.96,603.00,604.42,605.76,607.57,609.71,611.82,612.88,612.68,611.12,609.35,608.14,607.96,608.58,608.16,606.81,605.35,605.38,609.55,614.41,619.22,624.68,630.73,633.88,636.75,639.70,642.23,642.98,643.03,643.13,644.09,646.83,650.29,655.08,660.85,667.25,673.51,680.00,686.88,693.75,699.39,702.19,703.56,704.06,703.70,702.74,700.11,696.69,693.17,690.69,691.50,692.75,693.57,693.84,693.58,692.83,691.78,690.52,689.28,689.12,690.33,692.34,693.88,694.67,694.56,693.80,692.52,690.87,686.93,681.28,674.48,667.58,661.85,658.74,658.53,661.19,662.46,664.05,667.71,673.78,679.07,683.67,687.83,691.51,694.43,697.67,701.49,706.30,712.37,718.32,724.51,730.96,737.35,742.79,747.55,752.51,757.87,763.47,768.28,770.76,771.84,772.18,772.36,772.38,772.31,772.25,772.39,772.25,772.04,771.78,771.42,770.97,770.56,769.72,768.04,765.10,761.93,758.00,753.55,748.97,743.98,739.34,734.92,730.60,726.51,722.55,718.26,713.49,708.11,701.57,693.94,687.50,684.34,681.23,677.04,672.27,667.14,661.72,655.89,650.15,644.57,638.97,633.05,627.23,621.48,615.79,610.60,605.22,599.99,594.98,589.83,583.52,577.95,573.00,568.08,562.85,556.65,550.24,544.02,538.15,532.74,527.09,520.91,514.17,508.25,502.99,498.27,493.99,489.64,487.01,485.48,484.58,484.00,484.77,487.73,492.10,497.07,502.25,506.09,508.80,510.44,511.07,511.45,511.78,512.06,512.07,511.33,509.51,506.64
674.64,672.41,670.03,667.36,664.44,661.21,657.30,652.56,646.90,640.89,635.15,630.04,624.60,620.15,617.08,614.07,611.21,608.68,606.88,606.60,607.45,608.17,608.01,606.32,602.75,598.38,595.57,594.51,593.68,591.38,587.70,583.11,577.92,572.72,570.06,570.84,574.63,577.98,579.58,579.51,578.07,575.32,571.69,567.71,563.35,558.91,556.30,558.10,562.32,567.51,572.13,575.63,578.67,581.15,582.54,582.73,582.60,582.31,581.83,581.18,580.50,579.70,579.50,581.48,585.35,589.36,592.94,595.78,597.59,598.12,599.33,601.83,605.07,607.55,608.46,607.87,605.79,603.08,602.05,602.60,604.03,604.12,602.73,600.85,600.54,605.03,610.01,615.01,620.91,627.75,631.66,634.57,636.91,638.48,638.70,639.08,640.56,643.17,646.89,651.17,656.71,663.14,669.87,675.47,681.41,687.76,694.00,698.87,701.31,701.83,701.24,699.89,698.03,695.40,692.28,688.92,686.15,686.68,687.99,688.96,689.05,688.60,687.59,686.36,685.06,683.74,684.17,685.94,688.37,690.46,691.84,692.19,691.77,690.75,689.44,686.13,681.31,675.14,667.73,661.27,655.91,652.95,654.32,656.17,659.07,663.58,669.55,674.56,678.77,682.35,685.47,688.51,692.90,698.08,704.00,710.73,717.20,723.82,730.39,736.63,741.97,746.58,751.27,756.11,760.85,765.32,767.88,769.11,769.52,769.79,769.87,769.92,770.16,770.80,771.20,771.34,771.29,771.04,770.52,769.64,768.38,766.54,763.79,760.62,756.60,751.97,747.08,741.95,737.34,733.03,728.84,724.87,720.99,716.92,712.38,706.79,699.76,692.62,686.87,683.60,680.25,675.93,671.18,666.16,660.69,654.64,648.89,643.45,637.89,631.89,626.38,621.06,615.70,610.58,605.23,600.05,595.13,590.03,583.58,577.89,572.88,567.85,562.46,555.99,549.54,543.64,538.00,532.65,527.25,521.63,515.71,509.95,504.77,499.79,494.60,488.78,484.09,481.05,479.49,478.83,479.47,482.55,487.14,492.09,496.73,500.57,503.52,505.38,506.00,506.31,506.84,507.54,508.00,507.99,506.94,504.88
672.60,670.24,667.53,664.78,661.85,658.46,654.09,649.18,643.52,637.81,632.59,626.88,620.83,615.77,612.08,608.73,605.59,602.68,600.48,599.95,600.72,601.48,601.42,599.87,596.57,592.07,588.78,587.43,587.44,585.40,581.87,577.56,572.79,567.28,564.42,564.75,568.04,572.16,574.93,575.64,574.53,571.97,568.73,564.89,560.19,554.69,550.33,552.22,556.82,562.15,566.97,570.45,573.29,575.54,576.88,577.37,577.39,577.13,576.66,576.16,575.77,575.39,575.95,579.17,583.04,586.45,589.27,591.32,592.16,592.18,593.58,596.89,601.02,603.42,604.08,603.35,601.22,597.93,596.71,597.56,599.62,600.00,598.47,596.10,595.32,600.03,605.34,610.75,616.98,624.13,629.12,631.67,633.08,633.75,633.63,634.87,638.51,643.07,646.86,651.64,657.99,664.87,671.27,675.93,681.27,687.05,692.61,696.73,698.84,699.05,698.01,696.08,693.70,691.06,687.96,684.45,681.29,681.16,682.56,683.95,684.09,683.63,682.45,680.94,679.37,677.98,679.12,681.47,684.25,686.87,688.86,689.65,689.61,688.97,687.73,684.96,681.23,676.25,668.97,662.39,655.08,648.99,647.73,649.96,654.04,659.26,665.18,670.21,674.11,677.02,679.55,683.10,689.39,696.40,703.40,710.16,716.65,723.27,729.66,735.58,740.95,745.52,749.92,754.25,758.26,761.65,763.94,765.31,765.90,766.29,766.45,766.70,767.34,768.66,769.60,769.97,769.97,769.69,769.00,767.46,765.56,763.48,761.11,758.00,754.11,749.63,744.72,739.55,734.86,730.55,726.53,722.79,718.98,714.99,710.41,704.24,696.81,690.64,686.00,682.57,678.89,674.50,669.90,665.20,659.97,653.89,648.15,642.76,637.20,631.15,625.94,621.03,615.92,610.63,605.28,600.10,595.09,589.95,583.48,577.63,572.39,567.16,561.55,554.72,548.21,542.66,537.37,532.09,526.90,521.75,516.51,511.33,506.52,501.71,496.39,489.94,482.90,477.55,474.54,473.49,474.05,477.04,481.60,486.61,490.97,494.63,497.56,499.47,500.02,500.01,500.44,501.35,502.35,502.95,502.87,501.84
670.04,667.40,664.53,661.52,658.20,654.44,649.98,645.02,639.94,634.91,629.83,623.91,617.59,611.67,606.64,602.77,599.75,596.97,594.52,593.16,593.72,594.67,594.85,593.51,590.74,586.83,583.26,580.91,580.46,579.13,576.39,572.46,567.36,561.11,558.04,558.31,561.51,565.68,569.56,571.42,571.11,568.83,566.14,562.39,557.22,550.72,545.13,546.60,551.08,556.31,560.93,564.48,567.44,569.81,571.16,571.44,571.37,570.89,570.02,569.43,569.36,570.50,572.99,576.80,580.41,583.03,584.97,586.27,586.34,586.11,588.26,592.85,597.15,599.30,599.63,598.57,596.13,592.72,590.73,591.08,593.35,593.99,592.37,590.13,589.59,594.16,600.16,606.75,613.96,621.32,625.87,627.68,628.26,628.27,628.36,630.98,636.87,643.17,646.75,651.17,657.45,664.25,670.35,674.46,679.29,684.53,689.47,692.78,694.31,694.26,693.16,691.27,689.10,686.59,683.37,679.54,676.17,676.02,677.48,678.95,679.12,678.58,677.05,674.83,672.49,671.56,673.37,676.54,680.00,682.68,684.90,685.95,686.14,685.84,685.54,683.61,680.45,675.90,669.29,662.78,655.12,647.84,644.29,645.86,649.89,655.19,661.13,666.12,669.93,672.80,675.70,680.74,688.53,696.22,703.24,709.65,716.00,722.36,728.50,734.29,739.68,744.16,748.26,752.13,755.54,758.08,759.64,760.54,760.92,761.01,761.17,761.69,762.71,764.29,765.64,766.38,766.48,765.88,764.80,763.10,761.17,759.19,757.15,754.24,750.87,747.03,742.37,737.02,731.98,727.51,723.68,720.09,716.49,712.33,707.17,700.41,693.50,688.52,684.82,681.33,677.38,672.99,668.55,664.16,659.40,653.66,648.02,642.61,637.07,631.20,626.01,621.07,615.95,610.63,605.19,599.89,594.74,589.39,583.05,576.97,571.21,565.47,559.47,552.75,546.37,540.81,535.81,530.80,525.90,521.15,516.55,512.02,507.52,502.89,497.65,490.69,482.78,475.87,470.75,468.02,468.98,472.32,476.70,481.18,485.23,488.63,491.32,493.09,493.68,493.51,493.41,493.87,495.26,496.40,496.98,496.47
666.97,664.08,660.89,657.54,653.92,649.97,645.57,640.98,636.54,632.09,627.18,621.30,614.74,608.09,601.97,597.51,594.32,591.41,588.63,586.57,586.51,587.36,587.84,587.10,585.11,581.85,578.16,575.01,573.86,573.06,570.92,567.24,561.87,555.08,551.38,551.61,555.44,559.93,564.53,567.43,568.07,566.13,563.76,559.77,553.98,546.68,540.50,541.37,545.42,550.41,554.98,558.68,561.64,563.88,565.07,565.04,564.70,563.85,562.55,561.89,563.15,566.21,570.33,574.45,577.74,579.66,580.75,581.23,580.82,581.01,584.01,589.31,593.36,595.22,595.23,593.80,591.02,587.57,584.73,584.30,586.31,587.00,585.55,583.67,583.56,588.59,596.22,604.38,612.12,618.45,621.89,622.79,622.67,622.58,623.95,628.22,635.56,642.68,646.03,649.81,655.32,661.48,667.24,671.45,676.07,680.93,685.34,688.03,689.14,689.06,688.11,686.41,684.42,681.75,678.11,673.92,670.86,671.04,672.51,673.86,673.98,673.07,670.96,668.07,665.26,665.00,667.67,671.66,675.72,678.46,680.78,681.96,682.24,682.09,682.62,681.63,679.11,674.97,669.08,662.88,655.21,647.32,642.09,642.53,646.17,651.24,656.91,662.08,666.02,669.33,673.02,679.03,687.57,695.49,702.40,708.58,714.84,721.13,727.12,732.70,738.03,742.44,746.33,749.84,752.77,754.64,755.52,755.86,755.78,755.36,755.52,756.25,757.46,759.13,760.66,761.64,761.88,761.17,759.79,757.89,755.96,754.26,752.76,750.37,747.61,744.38,740.10,734.83,729.79,725.31,721.51,718.01,714.58,710.24,704.47,697.09,690.88,686.76,683.61,680.11,675.86,671.52,667.34,663.28,658.85,653.38,647.91,642.58,637.06,631.30,626.06,621.01,615.81,610.44,604.98,599.60,594.26,588.62,582.24,575.99,569.88,563.64,557.28,550.74,544.47,538.81,533.82,529.11,524.58,520.21,516.08,512.00,507.71,503.17,497.95,490.70,482.41,474.44,467.50,462.70,463.89,467.51,471.77,475.84,479.52,482.57,484.92,486.34,486.70,486.18,485.53,485.56,487.32,489.05,490.15,490.08
663.34,660.20,656.50,652.79,649.09,645.24,641.03,637.27,633.42,629.32,624.74,619.11,612.39,605.36,598.69,593.54,589.64,586.11,582.86,580.41,579.30,579.62,580.31,580.53,579.62,576.94,573.36,569.83,567.89,567.25,565.30,561.70,556.31,549.36,544.63,544.81,549.97,555.29,560.25,563.92,565.53,563.94,561.49,556.87,550.31,542.53,536.46,536.61,539.92,544.58,549.26,553.19,555.97,557.77,558.56,558.21,557.43,556.15,554.56,554.04,557.70,562.81,567.92,572.15,575.15,576.50,576.79,576.39,575.77,577.13,580.94,586.11,589.51,591.09,590.82,589.03,585.90,582.38,578.79,577.45,578.78,579.23,578.24,576.88,577.41,583.85,594.04,603.91,611.40,615.30,617.06,616.90,616.32,616.81,620.73,626.73,634.40,641.23,644.48,647.50,651.59,656.48,661.75,666.65,671.44,676.13,680.24,682.62,683.64,683.76,683.14,681.67,679.66,676.29,671.91,667.49,665.38,666.14,667.52,668.53,668.52,666.94,664.12,660.75,657.97,658.49,662.17,666.90,671.37,674.31,676.64,677.79,678.01,677.81,678.75,678.77,677.11,673.55,668.35,662.64,655.15,647.00,640.86,639.70,642.75,647.39,652.47,658.03,662.38,666.60,671.37,677.51,685.88,693.70,700.56,706.71,712.99,719.49,725.46,730.75,735.89,740.32,744.09,747.33,749.89,751.22,751.58,751.35,750.61,749.52,749.72,750.55,751.77,753.45,754.89,755.92,756.34,755.82,754.37,752.16,750.20,748.91,748.13,746.58,744.47,741.72,737.89,733.08,728.51,724.26,720.34,716.86,713.55,709.05,702.75,694.72,689.20,685.51,682.44,678.92,674.34,670.13,666.30,662.59,658.22,652.88,647.64,642.53,637.02,631.27,625.96,620.77,615.42,609.98,604.61,599.21,593.65,587.68,581.02,574.72,568.53,561.92,555.32,548.88,542.70,536.89,531.57,527.11,522.95,518.90,515.01,511.17,506.94,502.36,497.05,489.78,481.43,472.89,464.57,457.59,458.63,462.35,466.52,470.44,473.63,476.31,478.26,479.18,478.96,477.88,476.77,476.61,478.70,481.06,482.57,482.97
659.18,655.21,651.35,647.79,644.31,640.79,637.20,633.74,630.32,626.67,622.42,617.40,611.52,605.41,599.24,592.85,587.19,582.23,578.15,575.58,574.09,573.34,573.16,573.43,573.55,571.88,569.08,565.66,562.37,560.93,558.87,555.45,550.31,543.77,539.18,539.45,544.99,551.45,557.56,561.71,563.37,561.90,558.72,553.19,546.11,538.46,532.51,532.03,534.74,539.00,543.14,547.17,550.10,551.88,552.44,551.81,550.62,549.32,548.50,549.55,553.91,559.66,565.49,570.09,573.01,573.79,573.32,572.21,571.05,573.32,577.52,582.11,584.85,586.04,585.55,583.53,579.97,576.03,572.25,570.79,571.97,572.08,571.12,570.46,572.59,581.71,593.39,602.91,609.24,611.78,611.38,609.97,609.57,611.72,618.22,624.66,631.50,637.79,641.97,644.66,647.57,650.79,654.39,658.80,663.88,669.22,673.99,676.69,678.12,678.60,678.20,676.74,674.34,668.98,663.87,660.62,659.82,660.73,661.62,662.03,661.67,660.08,657.59,654.55,651.94,652.67,656.87,662.06,666.88,670.15,672.26,673.20,673.22,672.74,673.43,674.43,673.94,671.29,666.97,661.48,654.46,646.90,640.56,636.86,639.03,643.54,648.36,653.81,659.11,664.31,669.68,675.91,683.53,690.99,697.86,704.06,710.11,716.82,723.00,728.26,733.23,737.73,741.45,744.36,746.16,746.67,746.31,745.44,744.16,742.77,742.97,744.13,745.82,747.63,748.95,749.93,750.46,750.19,749.04,747.31,745.70,744.55,743.89,742.83,741.15,738.81,735.59,731.32,727.16,723.23,719.53,716.40,713.23,708.65,701.90,692.81,687.99,684.70,681.47,677.48,672.67,668.67,665.08,661.46,657.07,651.88,646.85,641.93,636.58,630.93,625.52,620.10,614.50,609.09,603.89,598.55,592.88,586.70,579.98,573.60,567.40,561.03,554.34,547.90,541.74,535.87,530.31,525.35,520.87,516.76,513.01,509.16,504.89,500.22,494.83,487.91,479.82,470.51,460.60,452.61,452.70,455.95,459.80,463.09,465.90,468.51,470.58,471.57,470.85,469.51,468.55,468.76,471.09,473.61,475.44,476.46
655.40,650.51,646.38,643.00,639.81,636.64,633.59,630.40,627.33,624.07,620.22,615.87,610.95,605.85,600.34,593.32,586.34,580.00,574.68,571.01,568.90,567.27,566.26,566.23,567.05,566.53,564.84,561.90,557.33,554.17,551.52,548.42,543.96,538.26,534.20,534.69,540.43,547.85,554.74,559.26,560.96,559.27,555.45,549.13,541.77,534.55,528.52,527.18,529.33,533.44,537.23,541.03,543.87,545.65,546.25,545.66,544.37,543.40,543.79,546.88,551.68,557.47,563.38,568.02,570.70,570.86,569.64,567.92,566.50,569.47,573.82,577.71,579.78,580.52,579.71,577.25,572.94,568.55,565.03,563.79,564.74,564.47,563.63,564.24,568.55,579.99,592.89,601.78,606.71,607.82,605.57,603.17,603.26,607.13,615.19,622.00,628.01,633.50,638.17,640.97,643.34,645.53,647.82,651.37,656.02,661.46,666.78,670.37,672.56,673.40,672.94,670.93,667.87,661.46,656.26,654.08,654.16,654.97,655.50,655.49,654.81,653.36,651.28,648.64,646.34,647.41,651.75,657.11,662.21,665.86,667.88,668.62,668.38,667.58,667.99,669.85,670.42,668.65,665.07,659.78,653.19,646.19,639.88,634.32,635.41,639.62,644.57,650.00,655.99,661.92,667.74,673.96,680.80,687.93,694.83,701.11,706.94,713.60,719.94,725.43,730.23,734.69,738.34,740.93,741.96,741.72,740.49,738.69,736.67,735.15,735.63,737.43,739.82,741.82,743.09,744.02,744.59,744.50,743.66,742.46,741.25,740.26,739.71,739.09,737.79,735.80,733.08,729.43,725.68,722.05,718.69,715.88,712.88,708.33,701.33,691.60,687.26,684.23,680.81,676.35,671.14,667.21,663.75,660.10,655.60,650.52,645.62,640.84,635.66,630.12,624.58,618.96,613.27,608.01,603.00,597.72,592.00,585.75,579.05,572.60,566.49,560.56,553.85,547.46,541.37,535.49,529.74,524.15,519.11,514.59,510.53,506.48,502.13,497.36,491.92,485.38,477.42,467.62,456.86,448.45,446.82,448.97,452.35,455.33,457.81,460.03,461.83,462.68,461.70,460.52,460.04,460.81,463.45,466.31,468.57,470.26
652.61,646.96,642.16,638.78,635.84,632.96,630.09,627.38,624.53,621.49,618.20,614.48,610.23,605.70,600.71,594.49,587.50,580.32,573.13,566.43,562.90,560.94,559.67,559.11,560.01,560.70,560.47,558.43,553.05,546.86,542.90,540.27,537.20,532.84,529.53,530.46,536.53,544.33,550.94,555.76,557.87,555.42,551.39,544.69,537.40,530.89,524.38,521.76,523.34,527.79,531.90,534.88,537.07,538.70,539.68,539.79,539.00,538.89,540.87,546.24,551.75,557.03,561.92,565.87,567.83,567.25,565.33,563.14,562.14,565.51,569.70,572.90,574.30,574.51,573.14,569.81,564.21,559.43,556.77,555.98,556.36,555.68,555.39,558.26,565.38,577.84,591.99,600.63,604.10,603.22,599.94,597.16,598.04,603.20,610.82,618.44,624.18,628.52,632.35,635.87,638.86,641.38,643.61,646.17,648.99,653.08,658.28,663.53,666.90,668.12,667.06,663.56,659.51,654.41,650.38,648.38,648.30,648.81,649.34,649.42,648.54,647.18,645.22,642.82,641.03,642.88,646.92,652.00,657.22,661.28,663.60,664.26,663.72,662.57,662.98,665.46,666.80,665.68,662.44,657.50,651.10,644.23,638.04,632.42,632.16,635.62,641.28,647.02,653.01,659.16,665.33,671.35,677.68,684.62,691.58,697.92,703.66,709.78,716.14,722.19,726.79,731.01,734.49,736.81,737.22,736.50,734.17,730.96,727.74,726.26,727.56,730.46,733.80,736.06,737.45,738.39,738.91,738.80,738.14,737.21,736.33,735.68,735.46,735.37,734.47,732.71,730.27,727.32,723.94,720.60,717.58,714.89,712.14,707.75,700.89,691.53,687.25,684.19,680.67,675.89,669.93,665.79,662.28,658.48,653.72,648.66,643.78,639.00,633.96,628.53,622.83,617.13,611.70,606.72,601.92,596.73,591.00,584.89,578.22,571.77,565.89,560.54,553.87,547.65,541.75,535.97,530.05,523.97,518.22,512.79,507.55,503.06,498.57,493.75,488.32,482.02,473.81,464.16,454.09,445.86,441.42,441.49,444.24,447.68,449.82,450.97,451.56,451.58,450.79,450.42,450.78,452.19,455.27,459.06,461.98,464.36
651.32,645.65,640.82,636.87,633.31,630.01,627.07,624.49,621.83,618.99,615.94,612.65,608.55,604.09,599.26,593.43,587.22,580.31,572.58,564.32,558.37,554.88,552.97,552.48,553.84,555.27,555.79,554.71,550.79,544.05,538.15,533.88,531.03,527.67,525.25,526.73,532.99,540.83,547.06,551.68,553.63,550.58,545.98,539.83,533.38,527.28,520.79,517.19,517.78,521.69,525.76,528.75,530.75,532.09,532.88,532.98,533.57,535.93,540.65,546.78,552.08,556.88,561.15,564.18,564.77,563.13,560.28,557.46,557.49,560.51,563.96,566.60,567.72,567.31,565.36,561.66,556.01,551.11,548.44,547.50,547.72,547.64,548.14,552.48,561.40,575.06,589.90,597.89,600.13,598.19,594.56,592.37,593.92,599.38,606.67,613.78,619.65,624.21,627.55,630.76,633.66,636.39,639.11,641.94,644.52,647.85,652.13,657.08,660.99,662.29,661.18,657.90,654.05,649.17,645.21,643.02,642.53,642.91,643.31,643.13,641.88,640.10,638.11,636.53,636.15,638.13,642.51,647.26,651.63,655.35,658.36,659.25,658.32,656.66,658.00,661.61,663.69,662.77,659.43,654.31,648.10,641.63,635.80,630.84,629.96,632.43,637.56,643.50,649.92,656.59,663.13,668.88,674.89,681.43,688.13,694.46,699.88,705.92,712.43,718.79,723.84,727.93,730.85,732.51,732.47,731.00,727.99,723.94,719.57,716.93,717.60,721.73,727.29,729.97,731.52,732.44,732.90,732.86,732.42,731.92,731.47,731.26,731.65,731.96,731.33,729.83,727.67,725.05,722.06,719.06,716.28,713.66,710.67,706.22,699.72,691.21,687.00,683.89,679.96,674.26,668.52,664.33,660.45,656.16,651.36,646.34,641.41,636.57,631.65,626.39,620.88,615.40,610.19,605.33,600.53,595.42,589.92,584.05,577.66,571.42,565.73,560.62,554.24,548.08,542.15,536.34,530.40,524.09,517.94,511.99,506.12,500.79,495.65,490.49,485.06,478.80,470.94,461.91,452.56,444.83,439.37,437.26,437.81,440.20,442.06,443.07,443.48,443.36,442.85,442.73,443.27,444.68,447.43,450.79,454.00,457.25
650.50,644.95,640.19,635.72,631.52,627.73,624.59,621.84,619.17,616.43,613.48,610.27,606.09,601.59,596.87,591.40,586.17,579.89,572.25,563.35,555.49,550.26,547.17,546.21,547.74,549.68,550.83,550.70,548.57,542.38,535.03,528.87,525.51,522.70,521.01,523.01,529.41,536.90,542.66,546.75,548.20,544.82,539.92,534.63,529.20,523.50,517.29,512.94,512.41,515.40,519.39,522.62,524.59,525.63,526.11,526.39,529.13,534.33,541.32,547.51,552.27,556.51,560.19,562.25,561.44,558.43,554.35,550.84,551.83,554.61,557.52,559.80,560.70,559.80,557.36,553.51,548.24,543.33,540.38,539.14,539.42,540.60,542.58,548.44,558.75,573.26,587.71,594.55,595.63,593.14,589.50,588.27,590.33,595.55,602.57,608.88,614.77,619.77,623.06,625.90,628.55,631.36,634.49,637.77,640.69,643.74,647.20,651.29,655.17,656.45,655.58,653.06,649.62,644.75,640.51,637.85,636.81,636.96,637.13,636.75,635.35,633.35,631.45,630.65,631.50,633.42,637.95,642.44,646.13,649.35,652.69,653.70,652.52,650.56,653.01,657.81,660.61,659.82,656.19,650.63,644.59,638.66,633.31,629.20,628.13,629.73,633.93,639.89,646.64,653.81,660.78,666.49,672.23,678.29,684.59,690.81,696.07,702.18,708.84,715.50,721.19,725.24,727.50,728.37,727.93,725.71,722.02,717.30,712.11,708.27,707.98,712.68,719.87,723.33,725.30,726.35,726.87,726.98,726.79,726.80,726.91,727.24,728.25,728.96,728.51,727.11,725.16,722.75,720.07,717.38,714.81,712.23,708.92,704.34,698.21,690.64,686.50,683.28,678.90,672.32,667.03,662.76,658.43,653.68,648.79,643.79,638.81,633.92,629.12,624.03,618.86,613.74,608.78,604.00,599.22,594.29,589.11,583.45,577.38,571.34,565.76,560.73,554.59,548.42,542.44,536.61,530.71,524.26,517.87,511.63,505.40,499.32,493.56,488.07,482.67,476.45,469.18,460.92,452.31,444.93,439.12,435.11,433.11,433.50,434.66,435.68,436.23,436.28,436.11,436.10,436.59,437.78,439.99,442.66,445.93,449.70
649.69,644.01,639.03,634.69,630.66,626.86,623.34,619.82,616.57,613.59,610.63,606.59,602.14,597.71,593.31,588.60,584.08,578.53,571.64,563.51,556.38,549.90,544.28,540.60,541.03,543.22,545.25,546.08,544.50,539.86,533.21,526.47,521.45,518.10,516.50,518.87,525.38,531.62,536.71,539.72,540.16,537.18,533.13,528.78,524.18,519.13,513.52,508.82,507.19,509.00,513.03,516.43,518.44,519.31,519.64,521.36,527.87,535.48,542.16,547.74,551.77,555.21,558.01,559.09,557.46,552.38,546.33,542.15,543.33,546.88,550.45,552.94,553.45,552.46,549.87,546.04,541.28,536.48,533.30,531.82,532.48,535.95,541.29,549.56,560.95,575.12,586.33,590.78,590.81,588.38,585.17,585.11,587.29,591.57,598.42,604.27,609.43,614.23,618.59,621.77,624.42,627.02,629.81,632.86,636.35,640.07,643.82,647.23,649.89,651.08,650.90,649.14,645.61,641.07,636.59,632.96,631.21,630.54,630.41,630.28,629.64,628.45,627.14,626.52,627.13,628.99,632.46,636.97,641.50,644.40,646.55,647.12,646.14,644.72,647.94,653.57,657.10,656.68,652.61,646.29,640.34,635.13,630.44,627.16,626.50,627.81,631.08,636.56,642.95,650.23,657.77,664.18,669.64,675.20,680.98,686.86,692.67,698.81,705.54,712.66,719.00,723.22,724.86,724.87,724.09,721.36,716.57,711.16,706.13,702.13,701.26,704.35,710.12,715.26,718.46,720.14,721.02,721.52,721.69,722.31,723.19,724.30,725.65,726.98,726.48,724.64,722.68,720.48,717.95,715.40,713.00,710.42,706.95,702.31,696.40,689.50,685.48,682.01,677.29,670.52,665.47,660.87,656.23,651.35,646.11,640.98,635.98,631.13,626.48,621.54,616.82,612.22,607.62,603.01,598.49,593.96,589.17,583.63,577.66,571.63,565.96,560.79,554.56,548.30,542.34,536.68,530.82,524.31,517.90,511.69,505.44,499.28,493.44,487.96,482.68,476.76,470.04,462.66,454.80,447.10,441.26,436.38,432.14,429.01,428.23,428.75,429.47,429.96,430.23,430.47,430.85,431.67,433.46,435.99,438.89,441.94
648.69,643.01,638.17,634.04,630.15,626.36,622.71,618.89,615.13,611.39,607.47,602.88,598.34,594.04,589.93,585.72,581.48,576.46,570.51,563.73,557.40,551.15,544.75,538.89,536.51,537.78,539.71,540.69,539.39,535.52,529.74,523.45,518.09,514.17,511.89,513.49,519.35,525.61,530.34,532.22,531.46,528.53,524.74,521.35,517.91,513.89,509.18,504.33,501.13,500.93,505.11,508.72,511.34,513.03,514.64,520.37,528.67,536.47,542.46,547.16,550.68,553.40,555.13,554.72,551.47,545.37,538.75,534.32,535.40,538.37,541.36,543.58,544.31,543.61,541.59,538.42,534.14,529.57,526.50,526.46,530.16,536.15,543.25,552.51,564.13,577.34,585.52,587.73,586.65,584.12,581.28,582.10,584.63,588.25,593.54,599.29,604.44,609.04,613.25,616.58,619.44,622.13,624.84,627.86,631.68,635.98,640.29,643.78,646.07,647.17,647.23,645.87,642.60,638.25,633.68,629.59,627.18,626.19,626.00,625.98,625.59,624.72,623.61,622.80,623.04,625.32,628.24,631.77,635.43,638.02,639.57,639.34,638.50,638.94,643.50,649.73,653.97,654.51,650.99,643.76,636.87,631.47,627.81,624.99,624.75,626.22,629.05,633.43,639.24,645.96,653.46,661.57,667.13,672.33,677.70,683.39,689.98,696.47,703.21,710.23,716.72,720.78,722.11,721.69,720.37,716.97,711.80,706.26,701.30,697.35,696.09,698.23,702.77,707.24,710.63,712.75,714.09,715.08,715.96,717.24,719.15,721.52,723.44,725.22,724.77,722.74,720.67,718.18,715.64,713.17,710.74,708.12,704.72,699.75,693.61,687.97,684.12,680.25,675.44,669.53,664.91,660.49,655.96,651.09,645.55,640.01,634.87,630.07,625.36,620.54,616.22,612.10,607.82,603.23,598.67,594.15,589.42,583.95,578.04,571.92,566.06,560.69,554.41,548.19,542.30,536.69,530.85,524.18,517.75,511.64,505.46,499.33,493.60,488.25,483.08,477.48,471.37,464.75,457.67,450.48,445.02,439.89,434.55,429.14,425.52,423.82,423.37,423.80,424.34,424.86,425.45,426.36,428.01,430.23,432.53,434.85
647.63,642.08,637.51,633.52,629.69,625.93,622.31,618.45,614.31,609.74,604.62,599.61,594.98,590.74,586.80,582.84,578.66,574.05,569.03,563.69,558.10,552.61,546.26,538.92,533.36,533.03,534.20,534.87,533.62,530.12,525.20,519.82,514.75,510.34,507.17,507.62,512.52,519.19,523.78,524.84,523.14,519.98,515.93,513.16,510.82,507.89,504.09,499.33,494.83,492.74,496.87,500.55,504.11,507.41,511.33,521.51,530.35,537.24,542.34,546.13,549.22,551.19,551.64,549.54,544.47,537.94,531.51,527.05,527.62,529.40,531.38,533.22,534.45,534.23,532.97,530.55,526.60,522.47,520.47,523.02,530.59,538.75,546.75,556.25,567.52,579.27,584.69,584.98,582.92,580.20,577.76,579.28,582.23,585.42,588.84,594.29,599.48,603.91,607.66,610.94,614.01,616.85,619.59,622.83,626.89,631.57,636.35,640.26,642.91,644.07,644.12,642.95,639.93,635.74,631.22,626.97,623.93,622.75,622.54,622.55,622.17,621.38,620.25,619.19,619.13,622.04,624.72,627.04,629.21,631.36,632.49,631.57,631.06,633.67,639.50,646.16,651.02,652.63,649.94,642.23,634.33,628.41,625.52,622.75,622.90,624.75,627.44,630.65,635.81,641.80,649.02,658.77,664.70,669.74,674.83,680.50,687.77,694.63,701.33,708.01,714.35,718.11,719.25,718.61,716.71,712.71,707.49,702.09,697.19,693.30,691.77,693.30,696.79,699.71,702.73,705.00,706.64,707.97,709.56,711.73,714.91,718.78,721.51,723.53,723.21,721.23,718.97,715.96,713.26,710.77,708.26,705.57,702.12,696.81,690.56,686.26,682.57,678.35,673.66,668.94,664.82,660.82,656.58,651.80,646.15,640.17,634.85,630.06,625.20,620.46,616.42,612.63,608.60,603.98,599.28,594.57,589.71,584.29,578.44,572.19,566.07,560.47,554.19,548.09,542.28,536.65,530.79,524.03,517.67,511.73,505.64,499.58,494.02,488.84,483.83,478.55,473.00,467.06,460.76,454.42,449.36,444.17,438.27,431.50,425.12,420.42,417.91,417.65,418.16,418.89,419.80,420.99,422.75,424.82,426.66,428.42
646.73,641.56,637.04,632.88,628.88,625.05,621.61,617.89,613.80,609.09,603.55,598.14,593.07,588.46,584.26,580.06,575.87,571.56,567.14,562.50,557.30,551.82,545.64,538.51,531.46,529.06,528.77,528.74,527.10,523.82,519.62,514.97,510.21,505.68,502.13,502.05,506.33,512.52,517.22,518.80,517.50,513.71,508.43,505.00,502.74,500.49,497.11,492.97,489.16,487.34,490.30,493.46,498.21,504.30,511.94,523.64,531.72,537.40,541.67,544.83,547.45,548.28,547.06,543.42,537.22,530.64,524.73,520.48,519.31,520.06,521.66,523.61,525.28,525.59,524.52,521.94,517.76,514.80,516.99,523.61,533.28,541.91,550.37,559.83,570.11,579.49,582.71,582.06,579.64,576.72,574.90,576.95,580.17,583.33,586.31,589.85,593.97,598.40,602.69,605.60,608.34,611.02,613.86,617.79,622.16,626.65,631.09,635.36,639.65,641.42,641.45,640.21,636.81,632.76,628.62,624.54,620.84,619.00,618.53,618.55,618.16,617.38,616.22,615.26,615.54,618.77,621.68,623.74,625.16,626.34,626.55,626.11,626.76,630.26,636.14,642.87,648.04,650.07,647.51,641.25,634.13,628.01,624.22,620.49,620.84,623.17,625.96,628.91,633.51,639.34,646.58,655.81,662.50,667.85,673.02,678.97,686.15,692.90,699.46,705.91,711.79,715.23,716.13,715.28,713.13,709.05,703.80,698.50,693.78,689.70,687.97,688.94,691.67,694.03,696.40,698.05,699.14,700.09,701.67,705.55,710.59,715.86,720.03,721.79,721.69,720.25,717.64,714.20,711.01,708.19,705.65,702.99,698.63,693.42,688.27,684.50,680.87,676.81,672.53,668.42,664.77,661.11,657.11,652.54,647.30,641.41,635.96,630.99,626.09,621.30,617.08,613.13,609.11,604.60,599.88,594.93,589.77,584.48,578.74,572.37,565.93,559.99,553.83,547.93,542.18,536.46,530.53,524.16,518.22,512.59,506.58,500.41,494.88,489.91,485.27,480.30,475.07,469.67,464.10,458.37,453.03,447.28,440.97,434.08,426.92,419.39,413.80,411.34,410.83,411.44,412.49,413.94,416.25,419.04,421.47,423.45
645.72,640.97,636.50,632.20,628.06,624.12,620.52,616.84,612.84,608.10,602.31,596.87,591.71,586.94,582.48,577.75,573.08,568.77,564.63,560.19,555.11,549.64,543.66,536.84,529.24,525.02,523.18,522.32,520.32,517.19,513.35,509.19,504.92,500.62,497.18,497.10,501.08,506.23,510.75,512.60,511.55,507.45,500.97,496.44,493.97,492.73,490.38,487.20,484.34,483.41,487.05,491.33,497.41,505.08,514.30,525.49,532.46,537.22,540.92,543.57,545.33,545.16,542.65,537.23,530.60,524.23,518.66,514.37,511.80,511.78,513.08,514.96,516.69,517.06,515.83,513.13,509.64,509.66,515.69,525.15,535.89,544.72,553.51,562.59,571.51,578.61,580.01,578.35,575.52,572.77,572.06,574.63,577.98,581.09,583.88,586.46,589.56,593.14,596.88,599.84,602.71,605.65,608.95,613.26,617.81,622.21,626.46,630.83,635.94,638.16,638.22,636.77,633.25,629.19,625.16,621.13,616.89,614.48,613.80,613.86,613.59,612.81,611.79,611.02,611.39,614.56,617.81,619.97,621.04,621.36,620.99,621.32,623.19,627.27,632.71,639.62,644.85,646.71,644.54,639.43,633.20,627.34,622.98,617.95,618.39,621.46,624.95,628.19,632.73,638.53,645.73,654.59,661.65,667.18,672.35,678.19,684.83,691.17,697.34,703.39,709.04,712.54,713.35,712.06,709.22,704.99,699.94,694.87,690.21,685.98,683.94,684.59,687.01,689.07,690.97,692.18,692.96,693.88,696.04,700.81,706.62,712.47,717.33,719.53,719.81,718.66,716.10,712.71,709.03,705.62,702.55,698.72,694.43,690.12,686.13,682.77,679.05,675.05,671.15,667.71,664.48,661.16,657.38,652.94,647.95,642.20,636.69,631.56,626.62,621.83,617.45,613.28,609.11,604.64,599.90,594.74,589.35,584.24,578.62,572.22,565.67,559.63,553.64,547.81,542.05,536.30,530.55,524.73,519.15,513.63,507.71,501.66,496.21,491.28,486.66,481.78,476.81,471.84,466.77,461.20,455.44,449.19,442.57,435.70,428.46,419.43,411.35,406.02,403.78,403.68,404.14,404.99,407.00,410.10,412.98,415.41
644.48,640.12,635.75,631.36,627.12,623.04,619.11,615.35,611.39,606.65,600.78,595.59,590.62,585.89,581.22,575.83,570.42,565.81,561.65,557.04,551.85,546.36,540.48,533.91,526.43,520.84,517.53,515.69,513.33,510.33,506.72,502.92,499.26,495.43,492.51,492.82,496.67,500.54,504.54,506.24,505.20,501.13,493.77,488.13,485.34,485.18,484.16,482.08,480.35,480.83,486.58,493.08,500.37,508.48,517.48,526.86,532.62,536.68,539.99,542.20,542.88,541.81,538.38,531.44,525.00,519.01,513.59,508.98,505.28,504.59,505.54,507.21,508.62,508.68,507.17,504.70,502.96,506.93,516.03,527.13,538.20,547.05,556.05,564.48,571.79,576.71,576.63,574.04,570.85,568.55,569.24,572.26,575.63,578.64,581.35,583.81,586.09,588.33,590.79,593.96,597.26,600.79,604.76,609.20,613.78,618.21,622.47,626.88,632.09,634.52,634.61,632.87,629.44,625.21,620.99,616.83,612.27,609.42,608.57,608.69,608.57,607.83,607.05,606.47,606.76,609.70,613.28,615.73,616.70,616.30,615.62,616.75,619.80,624.54,629.38,636.30,641.28,642.64,641.11,636.80,631.42,626.15,621.54,615.18,615.46,619.38,624.18,628.04,632.79,638.63,645.75,654.45,661.61,667.20,672.27,677.67,683.49,689.23,694.86,700.42,705.93,709.65,710.39,708.60,704.88,700.48,695.79,691.00,686.27,681.98,679.64,680.18,682.64,684.57,686.13,687.13,687.90,689.11,692.30,697.34,703.12,708.93,713.82,716.92,717.65,716.56,714.34,711.32,707.19,703.00,699.01,693.55,690.10,687.15,684.13,681.10,677.12,673.10,669.57,666.79,663.94,660.91,657.31,652.94,648.04,642.45,636.96,631.74,626.74,621.94,617.38,612.94,608.55,604.06,599.28,593.98,588.51,583.64,578.11,571.76,565.28,559.37,553.55,547.68,541.85,536.15,530.71,525.51,520.19,514.64,508.83,502.99,497.63,492.60,487.74,482.81,478.02,473.37,468.54,462.81,456.62,450.01,443.21,436.43,429.49,420.12,410.43,402.38,398.08,396.68,395.86,395.37,396.30,399.05,402.03,405.00
642.38,638.25,634.09,629.75,625.42,621.23,617.24,613.44,609.26,604.43,598.95,594.02,589.26,584.61,579.83,574.16,568.54,563.34,558.41,553.40,547.93,541.93,535.63,529.05,521.99,516.39,512.22,509.04,506.06,503.30,500.44,497.46,494.38,491.01,489.00,489.75,493.26,496.67,499.34,500.13,498.90,495.27,488.29,482.90,480.13,479.83,479.16,477.65,477.58,480.62,488.35,496.04,503.46,511.08,519.31,527.04,531.96,535.43,538.12,540.02,539.95,537.81,533.78,527.99,522.40,516.78,511.22,505.85,500.78,498.90,499.25,500.66,501.39,501.08,499.82,499.00,500.82,506.84,517.25,528.94,539.85,548.38,557.30,564.88,570.42,573.02,572.16,569.72,566.88,564.95,566.68,569.83,573.03,575.93,578.71,581.13,583.11,584.88,586.83,589.32,592.62,596.57,601.06,605.58,610.07,614.48,618.99,624.00,629.22,631.55,631.47,629.43,625.80,621.23,616.41,611.68,607.39,604.49,603.45,603.43,603.34,602.68,601.93,601.38,601.82,605.11,608.71,611.25,612.22,611.25,610.09,611.38,615.53,622.10,627.07,632.49,636.44,637.89,636.83,633.19,628.73,624.08,619.02,612.17,611.39,615.74,622.86,626.99,631.58,637.44,644.65,653.02,660.38,666.03,670.92,675.91,680.97,686.14,691.36,696.61,701.73,704.68,705.01,703.20,699.61,695.41,690.92,686.15,681.24,677.15,674.97,675.62,678.17,680.09,681.47,682.47,683.47,685.19,689.14,694.70,700.68,706.42,711.22,714.51,715.40,714.42,712.35,709.41,705.03,700.03,695.04,690.51,687.87,685.47,682.74,679.64,674.93,671.05,668.10,665.63,663.03,659.97,656.36,652.10,647.24,641.94,636.68,631.51,626.40,621.33,616.23,611.38,606.91,602.38,597.50,592.39,587.33,582.72,577.05,570.88,564.72,558.94,553.23,547.26,541.38,535.81,530.51,525.58,520.48,515.06,509.25,503.32,497.82,492.61,487.56,482.61,477.85,473.15,468.21,462.36,456.03,449.45,442.82,436.25,429.56,420.72,411.67,403.90,398.30,394.75,391.77,389.33,388.56,389.35,391.56,394.60
639.85,636.06,632.13,627.77,623.38,619.13,615.11,611.13,606.75,601.97,596.91,592.17,587.56,582.99,578.17,572.44,566.92,561.42,555.93,550.49,544.62,537.83,530.89,524.38,518.27,513.05,508.19,503.66,499.97,497.24,494.89,492.52,489.91,487.01,485.66,486.73,490.08,493.23,495.00,495.11,493.53,489.67,483.50,478.67,475.96,475.27,474.62,473.66,475.55,481.31,490.27,498.42,505.75,512.87,520.15,526.52,530.81,533.85,535.94,537.07,536.19,533.49,529.58,525.10,520.20,514.90,509.36,503.57,497.47,494.14,493.61,494.78,495.10,494.51,494.31,495.76,500.46,507.95,518.45,529.88,540.59,548.76,557.33,563.94,567.94,568.95,567.59,565.23,562.80,561.51,563.96,567.12,570.21,573.08,575.76,578.12,579.93,581.49,583.25,585.47,588.74,592.79,597.41,602.08,606.76,611.35,616.17,621.82,626.84,628.80,628.46,626.40,622.82,618.11,612.85,607.49,602.75,599.06,597.55,597.42,597.38,596.95,596.16,595.63,596.42,600.34,603.95,606.29,606.95,605.45,604.17,606.08,611.50,619.59,624.83,629.02,631.94,633.22,632.58,629.64,626.00,621.77,616.25,609.56,608.25,612.69,621.04,625.42,629.65,635.46,642.78,650.63,658.13,663.94,668.74,673.31,677.84,682.58,687.43,692.31,696.86,699.22,699.23,697.42,694.15,690.15,685.66,680.75,675.73,672.03,670.27,671.08,673.58,675.50,676.80,677.85,679.29,681.99,686.52,692.26,698.44,704.44,709.06,712.22,713.17,712.35,710.33,707.03,702.53,697.30,692.02,688.43,686.14,684.02,681.59,678.40,673.01,669.15,666.59,664.32,661.91,658.66,654.92,650.75,645.92,640.87,635.73,630.50,625.10,619.62,614.15,609.11,604.64,600.14,595.35,590.50,585.81,581.34,575.71,569.83,564.06,558.47,552.84,546.80,540.91,535.47,530.31,525.44,520.36,514.91,509.01,503.00,497.34,491.95,486.80,481.83,477.04,472.14,466.88,460.75,454.34,447.93,441.60,435.37,428.99,421.07,413.19,406.15,399.61,395.04,391.11,387.34,384.00,382.63,383.48,385.66
637.04,633.68,629.91,625.49,621.01,616.75,612.67,608.38,603.90,599.28,594.59,589.97,585.44,580.93,576.15,570.61,565.42,560.03,554.37,548.52,542.20,534.49,526.87,520.62,515.87,511.21,505.80,500.04,495.53,492.49,490.22,488.10,485.78,483.33,482.24,483.46,486.84,489.82,491.30,491.14,489.06,484.32,479.20,475.03,472.32,471.21,470.39,470.21,474.24,482.55,491.85,499.79,507.00,513.75,519.96,525.31,529.18,531.96,533.52,533.41,531.62,528.98,525.89,522.36,517.82,512.78,507.46,501.71,495.11,490.24,488.59,489.46,489.77,489.21,490.90,494.98,501.33,509.85,519.36,529.70,540.12,548.00,555.88,561.43,564.30,564.66,562.96,560.45,558.37,558.10,560.94,564.08,567.17,570.07,572.45,574.72,576.46,577.95,579.75,582.35,585.66,589.51,593.92,598.84,604.01,608.99,614.16,620.33,624.92,626.25,625.58,623.77,620.55,615.94,610.53,604.60,598.52,593.17,590.83,590.54,590.63,590.58,589.72,589.27,590.63,595.27,598.88,600.78,600.83,598.89,597.85,601.02,607.92,616.94,622.54,626.07,628.11,628.83,628.53,626.32,623.27,619.21,613.36,607.48,606.24,610.36,618.50,623.30,627.11,632.70,640.00,647.26,654.75,660.82,665.73,669.94,674.23,678.70,683.22,687.61,691.44,693.58,693.42,691.54,688.57,684.61,679.92,674.80,669.84,666.69,665.54,666.54,668.88,670.79,672.15,673.31,675.38,679.46,684.42,689.91,696.25,702.84,707.21,710.00,710.92,710.30,708.18,704.22,699.74,694.97,690.26,687.09,684.59,682.53,680.46,677.19,671.42,667.48,665.04,662.87,660.44,656.88,652.95,648.85,644.10,639.15,633.97,628.50,622.64,616.64,611.11,606.16,601.79,597.44,592.91,588.36,583.89,579.46,574.08,568.65,563.33,557.99,552.39,546.33,540.48,535.16,530.18,525.21,519.94,514.30,508.27,502.22,496.40,490.86,485.64,480.66,475.76,470.57,464.81,458.25,451.82,445.65,439.71,433.92,427.93,421.26,414.71,408.37,401.38,397.19,393.79,389.48,382.93,379.49,378.50,378.86
634.79,631.36,627.32,622.81,618.22,613.73,609.42,605.00,600.49,595.93,591.42,587.08,582.70,578.26,573.62,568.51,563.46,558.11,552.52,546.82,540.49,533.04,525.80,519.90,515.42,510.93,505.40,499.11,493.55,489.36,486.44,484.11,481.79,479.48,478.15,479.22,482.58,485.06,486.07,485.34,483.05,479.27,475.05,471.21,468.41,467.02,466.29,468.06,473.91,483.06,492.14,500.06,507.26,513.66,518.89,523.49,526.88,529.40,530.79,530.02,527.83,525.13,522.18,518.70,514.38,509.66,504.53,498.68,492.07,486.81,484.33,484.30,484.68,485.99,489.67,495.13,501.82,510.35,519.31,528.24,536.98,545.24,551.90,556.54,559.15,559.27,557.08,554.53,553.24,554.42,557.58,560.84,563.88,566.63,568.95,571.16,572.93,574.55,576.63,579.51,583.09,587.24,592.03,597.46,602.82,608.00,613.45,619.70,623.64,624.30,623.22,621.29,617.85,613.40,608.19,602.15,595.27,588.84,585.00,583.63,584.09,584.15,583.43,583.38,585.31,589.78,593.06,594.77,594.93,593.41,591.82,596.12,604.56,614.16,620.46,623.43,624.73,625.06,624.69,622.85,619.73,615.55,610.42,605.50,603.01,605.58,613.60,620.40,624.63,629.25,635.35,642.95,649.84,656.24,661.82,666.25,670.56,675.00,679.26,683.14,686.35,687.97,687.60,685.63,682.28,677.47,672.63,667.98,663.82,661.09,660.37,661.66,664.21,666.46,668.02,669.58,672.14,676.66,682.01,687.45,694.02,701.01,704.72,707.53,708.38,707.47,705.15,701.41,697.41,693.23,689.01,685.74,682.98,680.48,677.83,674.21,669.65,666.14,663.54,661.07,657.50,653.69,649.89,645.97,641.45,636.37,630.98,625.24,618.87,612.53,607.20,602.64,598.54,594.40,590.14,585.83,581.50,577.13,572.09,567.34,562.68,557.56,551.95,545.66,539.76,534.66,529.87,525.05,519.90,514.46,508.77,502.53,496.37,490.54,485.15,479.96,474.71,469.17,463.24,456.83,450.63,444.53,438.68,433.35,428.12,422.59,416.90,411.21,405.85,401.53,397.39,392.33,385.19,380.01,377.50,376.31
632.71,628.92,624.52,619.78,614.99,610.25,605.66,601.20,596.70,592.22,587.89,583.80,579.57,575.20,570.68,565.99,561.14,555.97,550.59,545.11,538.97,532.15,525.60,520.07,515.54,510.99,505.40,498.92,492.69,487.45,483.65,480.72,478.12,475.72,473.96,474.37,477.04,479.16,480.10,479.31,477.25,474.49,470.88,467.32,464.53,463.04,462.77,466.49,473.68,482.92,491.50,499.38,506.65,512.86,517.36,521.36,524.33,526.60,527.79,526.63,524.16,521.18,517.91,514.31,510.20,505.75,500.67,494.73,488.57,483.40,480.27,479.26,479.89,483.39,488.90,495.25,501.83,509.86,518.30,525.98,532.93,541.04,546.89,550.91,553.23,553.13,550.70,548.33,547.87,550.40,554.01,557.42,560.42,563.02,565.34,567.48,569.30,571.18,573.77,577.24,581.45,586.19,591.46,597.22,602.61,607.89,613.38,619.06,622.08,622.16,620.76,618.60,614.88,610.50,605.43,599.43,592.20,585.27,580.07,577.26,577.43,577.46,576.95,577.29,579.58,583.64,586.55,588.19,588.61,587.70,586.91,592.50,601.76,611.02,617.59,620.29,621.01,620.61,619.50,617.70,614.94,611.42,607.41,603.43,599.64,600.53,608.13,616.66,621.83,626.00,630.95,638.26,644.79,651.29,657.36,662.41,667.05,671.74,675.88,679.18,681.69,682.55,681.76,679.48,675.47,670.27,665.41,661.08,657.47,655.10,654.94,656.65,659.50,662.25,664.29,666.35,669.19,673.53,678.91,684.56,691.34,698.50,702.36,705.21,705.86,704.64,702.20,698.84,695.26,691.54,687.74,684.33,681.36,678.46,675.34,671.62,668.21,665.11,662.07,658.63,653.93,649.89,646.23,642.46,637.93,632.82,627.20,621.11,614.52,608.21,603.19,598.96,595.11,591.21,587.19,583.08,578.92,574.71,570.10,565.93,561.73,556.73,551.10,544.70,538.87,534.08,529.50,524.93,520.06,514.92,509.57,503.24,496.83,490.73,485.13,479.76,474.25,468.64,462.99,457.30,451.59,445.57,439.63,434.35,429.47,424.65,419.55,414.42,410.49,406.22,401.31,395.46,388.35,382.05,378.27,375.78
630.70,626.27,621.49,616.29,611.15,606.17,601.27,596.89,592.48,588.14,584.07,580.10,575.96,571.67,567.25,562.79,558.32,553.60,548.61,543.28,537.54,531.50,525.72,520.60,515.83,510.98,505.30,498.94,492.84,487.11,482.28,478.27,475.04,472.26,469.90,468.87,469.69,471.72,473.33,473.53,472.39,470.06,466.58,463.35,460.79,459.43,460.22,465.42,473.15,481.86,489.63,497.35,504.83,511.15,515.32,518.89,521.61,523.62,524.48,523.06,520.43,516.77,512.68,508.96,505.10,500.72,495.53,489.61,484.49,479.77,476.21,474.44,475.62,481.03,488.01,494.93,501.10,508.08,515.90,522.75,528.34,535.06,541.00,544.86,546.55,546.09,543.95,542.08,542.35,545.86,550.21,553.76,556.72,559.29,561.59,563.62,565.54,567.84,571.26,575.91,581.30,586.94,592.62,598.27,603.51,608.80,613.95,618.00,619.71,619.41,617.89,615.38,611.58,607.07,601.92,595.98,589.07,582.44,576.43,571.99,570.53,570.37,570.11,570.69,572.93,576.47,579.10,580.77,581.43,581.15,583.92,591.17,599.90,607.31,613.18,616.10,616.48,614.73,611.90,609.67,608.26,606.86,604.25,601.08,596.50,596.01,602.67,611.75,618.43,623.41,627.83,633.33,640.14,646.38,652.33,658.47,663.88,669.25,673.45,676.07,677.68,677.50,675.92,672.90,668.06,663.64,658.97,654.41,650.62,648.55,649.25,651.54,654.67,658.02,660.99,663.67,666.45,669.88,674.68,680.93,687.88,694.85,700.47,703.26,703.50,702.10,699.78,696.68,693.21,689.68,686.21,682.83,679.73,676.75,673.73,670.49,667.49,664.47,660.63,655.27,649.95,645.67,641.98,638.22,633.21,628.34,622.51,615.99,609.72,604.00,599.33,595.27,591.51,587.93,584.06,580.12,576.20,572.28,568.29,564.37,560.15,555.10,549.46,543.26,537.80,533.45,529.09,524.88,520.40,515.60,510.41,504.23,497.80,491.56,485.76,480.31,474.79,469.62,464.97,460.79,455.89,450.04,443.80,437.83,432.44,427.54,422.71,418.03,414.24,410.58,405.37,398.75,391.72,385.32,380.64,377.22
628.96,623.70,618.40,612.79,607.33,602.00,596.60,592.28,588.12,583.99,580.03,576.12,572.01,567.79,563.49,559.14,554.94,550.62,546.08,541.19,535.80,530.33,525.13,520.32,515.33,510.13,504.52,498.54,492.44,486.62,481.50,477.14,473.64,470.42,467.53,465.25,463.87,463.65,464.43,464.99,464.83,463.53,461.10,458.59,456.42,455.34,457.25,463.32,471.55,480.24,487.25,494.50,501.72,508.10,512.71,516.10,518.85,520.69,521.09,519.48,516.57,512.58,508.00,503.51,499.12,494.48,489.52,484.37,479.94,475.42,471.75,470.13,472.68,478.93,486.48,493.67,499.51,505.59,512.06,518.21,523.77,529.18,533.88,537.61,539.79,539.22,537.42,536.22,537.06,540.81,545.41,549.51,552.84,555.48,557.85,559.89,562.23,565.41,570.13,575.73,581.71,587.72,593.64,599.38,604.48,609.24,613.50,616.38,616.86,616.05,614.35,611.58,607.43,602.55,597.20,591.48,585.47,579.16,573.24,568.51,566.09,565.14,564.77,565.33,567.12,569.40,571.07,572.41,573.56,574.98,580.65,589.39,598.20,604.74,609.49,611.71,611.77,609.93,606.96,604.60,603.23,602.04,599.75,596.74,592.67,592.50,599.03,608.26,615.63,621.23,625.78,630.54,637.20,643.76,650.00,656.04,661.44,666.77,670.91,673.37,674.35,673.63,670.68,666.27,661.50,657.24,652.58,648.11,644.69,643.32,644.18,646.38,649.33,652.59,656.17,659.88,663.33,666.46,670.78,677.31,684.37,691.18,697.43,700.85,701.21,699.61,697.25,694.24,690.68,687.15,684.00,681.11,678.38,675.58,672.65,669.67,666.86,664.00,660.09,654.20,648.42,643.66,639.07,634.25,629.34,624.58,618.38,611.57,606.11,600.93,596.33,592.17,588.40,584.86,581.13,577.29,573.42,569.65,566.03,562.20,557.88,552.78,547.04,541.42,536.57,532.55,528.51,524.59,520.50,516.15,511.32,505.46,499.19,493.08,487.37,481.66,476.39,471.66,467.47,463.74,459.25,453.42,447.09,441.19,435.51,430.05,424.89,420.22,416.28,412.79,407.83,401.48,394.82,388.77,383.73,379.50
627.37,621.55,615.72,609.77,603.96,598.16,592.16,587.66,583.60,579.62,575.67,571.72,567.63,563.50,559.38,555.19,551.33,547.44,543.35,538.90,533.85,528.87,524.11,519.46,514.27,508.79,503.30,497.72,491.73,486.04,480.91,476.47,472.81,469.22,465.92,462.64,459.33,456.47,455.88,456.33,456.89,456.62,455.30,453.57,451.88,451.22,454.34,461.03,469.50,478.08,484.46,491.11,497.87,504.26,509.57,513.19,516.08,517.76,517.72,515.96,512.83,508.71,503.83,498.25,492.83,487.90,483.33,479.06,475.10,470.76,467.19,466.00,469.97,476.55,484.22,491.53,497.30,502.68,507.94,513.58,519.40,524.02,527.40,530.64,533.02,532.43,530.97,530.50,531.88,535.57,540.11,544.65,548.41,551.34,554.09,556.45,559.45,563.65,569.58,575.87,582.19,588.45,594.55,600.36,605.34,609.49,612.73,614.43,613.89,612.44,610.34,607.24,602.78,597.62,592.24,586.87,581.63,575.68,570.21,565.65,562.36,560.04,559.21,559.56,560.80,561.97,562.72,563.96,565.99,569.45,577.20,587.08,596.19,602.29,605.98,607.38,607.16,605.51,602.72,599.98,598.16,596.68,594.45,591.54,588.91,589.96,596.56,605.70,613.48,619.64,624.54,629.03,635.72,642.53,648.83,654.42,659.48,664.35,668.21,670.48,670.95,669.65,665.49,659.96,655.36,650.93,646.44,642.41,639.57,638.77,639.54,641.40,643.96,646.87,650.82,655.42,659.67,662.98,667.13,673.68,680.71,687.37,693.62,697.64,698.42,696.95,694.61,691.58,687.83,684.21,681.32,679.02,676.86,674.40,671.65,668.89,666.23,663.56,659.78,653.86,647.84,642.70,637.31,631.51,626.63,621.74,615.33,608.58,603.81,598.96,594.22,589.85,585.98,582.27,578.59,574.75,570.80,567.03,563.53,559.62,555.12,549.90,544.15,539.30,535.13,531.42,527.73,524.08,520.37,516.52,512.24,506.97,501.10,495.23,489.61,483.59,478.49,474.06,470.08,466.37,462.05,456.29,450.01,444.29,438.46,432.38,426.75,421.97,417.87,414.40,409.96,404.48,398.58,393.01,387.63,382.48
626.05,620.59,614.34,608.21,601.96,595.43,588.70,583.30,578.78,574.65,570.61,566.34,562.23,558.30,554.50,550.71,547.49,544.15,540.45,536.22,531.54,526.99,522.44,517.63,512.21,506.71,501.35,496.05,490.58,485.31,480.43,476.02,472.17,468.47,465.04,461.40,457.24,452.61,450.34,449.83,450.20,450.43,449.56,448.48,447.43,447.46,452.00,459.04,467.03,474.83,480.94,486.82,492.96,499.25,505.27,510.23,513.32,514.73,514.45,512.68,509.59,505.69,500.69,493.68,486.48,481.38,477.43,473.63,469.81,465.80,462.65,462.02,466.75,473.07,480.31,487.61,494.01,499.18,504.31,509.82,515.65,520.92,523.91,525.57,526.25,525.70,524.50,524.83,526.78,530.21,534.20,538.45,542.50,546.32,550.29,553.77,557.89,563.06,569.51,575.92,582.44,588.94,595.22,600.96,605.79,609.58,611.94,611.98,610.95,608.62,605.50,601.79,597.35,592.49,587.67,582.87,577.53,571.99,567.25,563.00,558.56,553.69,551.61,551.35,552.17,553.38,553.95,556.04,559.99,565.49,573.51,583.61,593.03,599.17,602.43,603.45,603.04,601.33,598.16,594.07,591.48,589.92,587.93,585.52,585.98,589.46,596.00,604.68,612.81,619.49,624.75,629.43,637.07,643.43,648.75,653.89,658.23,662.14,665.07,666.65,666.74,664.29,659.89,654.66,649.72,644.74,641.01,638.18,636.10,635.09,635.61,637.03,638.99,641.37,645.23,649.95,654.73,659.10,663.95,670.06,676.66,683.13,688.58,692.38,694.04,693.77,691.71,688.50,684.47,680.65,677.84,676.09,674.60,672.70,670.37,667.95,665.56,663.04,659.38,653.63,647.89,642.90,637.79,632.23,626.65,620.97,615.05,609.30,604.37,599.19,594.04,589.32,585.19,580.97,577.01,572.98,568.78,564.61,560.68,556.35,551.46,545.96,540.62,536.70,533.25,529.82,526.51,523.13,519.79,516.48,513.06,509.10,504.18,498.69,492.86,486.60,481.14,476.55,472.58,468.54,464.00,458.56,452.63,446.71,440.95,434.49,428.53,423.71,419.61,416.13,412.62,408.83,404.59,399.49,393.35,386.87
625.79,620.34,613.70,607.29,600.75,593.93,586.98,580.95,575.65,570.81,566.17,561.01,556.41,552.55,549.33,546.13,543.34,540.38,537.01,533.05,528.81,524.56,520.04,514.97,509.55,504.18,499.07,494.15,489.05,484.12,479.41,474.99,470.96,467.14,463.62,459.69,454.94,449.55,445.68,444.19,444.41,444.98,444.34,443.41,443.32,445.34,450.76,457.92,465.17,471.74,477.15,482.57,488.23,494.30,500.79,506.42,509.95,511.54,511.19,509.34,506.38,502.49,497.15,489.27,481.48,475.98,471.84,468.13,464.36,460.80,458.33,458.35,463.26,469.35,476.79,484.72,491.87,497.30,502.70,508.21,513.51,517.83,520.01,520.80,520.78,520.24,519.34,520.10,522.29,525.50,529.05,532.91,537.11,541.71,546.73,551.64,556.91,562.82,569.49,575.93,582.44,588.93,595.18,600.74,604.98,607.92,609.32,608.37,606.57,603.63,600.10,596.29,592.21,587.87,583.38,578.64,573.42,568.88,564.96,560.85,555.45,548.78,545.15,543.94,544.45,545.46,546.28,549.29,554.49,560.74,568.32,578.13,587.48,593.64,597.03,598.03,597.58,595.88,592.68,588.22,584.66,582.43,581.63,582.13,585.81,591.32,597.95,605.60,612.99,619.44,624.89,629.85,637.24,643.15,647.91,652.38,656.11,659.26,661.42,662.27,661.60,658.08,653.27,648.20,643.67,639.86,637.00,634.75,632.90,631.25,631.68,633.21,635.22,637.48,640.64,644.73,649.50,654.72,659.78,665.83,672.43,678.99,684.47,688.30,690.40,690.74,688.91,685.95,682.00,677.92,674.62,673.18,672.02,670.42,668.38,666.30,664.14,661.62,657.82,652.10,647.20,642.73,638.01,632.77,627.09,621.25,615.72,610.55,605.56,600.32,594.98,589.95,585.44,580.95,576.75,572.46,567.91,563.05,557.92,552.69,547.33,541.93,537.24,533.72,530.43,527.12,524.21,521.15,518.39,515.83,512.96,509.70,505.59,500.82,495.32,488.72,483.31,478.66,474.38,470.12,465.51,460.39,454.79,448.81,442.88,436.40,430.71,426.35,422.41,418.78,415.55,412.47,408.90,404.24,397.85,390.73
625.80,620.21,613.17,606.55,599.89,593.03,586.12,579.71,573.69,568.07,562.75,556.63,551.32,547.20,544.21,541.55,539.06,536.36,533.29,529.64,525.83,521.70,517.04,511.78,506.53,501.42,496.67,492.12,487.29,482.63,478.06,473.62,469.44,465.51,461.81,457.54,452.33,446.61,441.69,439.35,439.19,439.86,439.35,438.65,439.75,444.02,450.02,457.14,463.57,468.83,473.46,478.65,483.97,489.75,496.33,502.21,506.19,508.12,507.84,505.94,503.07,499.10,493.43,485.03,477.25,471.22,466.52,462.71,459.00,455.84,454.10,454.84,459.81,465.98,474.08,482.87,490.55,496.36,501.98,507.32,511.83,514.59,515.88,516.23,516.00,515.42,514.86,515.91,518.21,521.32,524.75,528.39,532.71,537.85,543.60,549.83,556.10,562.53,569.30,575.70,582.07,588.45,594.60,599.80,603.27,605.22,605.65,604.08,601.58,598.33,594.73,591.02,587.35,583.37,578.98,574.24,569.49,566.05,562.78,558.68,552.62,544.91,539.75,537.40,537.51,538.21,539.46,543.27,549.29,555.73,562.58,571.58,580.44,586.62,590.41,591.63,591.29,589.65,586.52,582.11,577.79,575.12,576.27,580.64,587.17,594.17,600.86,607.39,613.62,619.44,624.82,629.84,636.32,641.85,646.37,650.15,653.37,655.87,657.33,657.42,655.71,651.29,646.17,641.36,637.65,635.49,633.38,631.23,629.11,627.11,627.80,629.70,632.02,634.38,636.78,640.06,644.53,650.23,655.25,661.27,667.94,674.76,680.74,684.77,687.13,687.84,686.32,683.73,679.94,675.61,671.69,670.21,669.16,667.75,665.96,664.18,662.11,659.37,655.38,649.97,646.05,642.18,637.89,633.01,627.57,621.91,616.71,611.86,606.88,601.68,596.24,590.94,586.07,581.45,577.04,572.48,567.55,561.94,555.45,549.15,543.27,538.01,533.84,530.35,526.96,523.70,521.17,518.52,516.41,514.56,512.13,509.29,505.91,501.99,497.05,490.14,484.94,480.30,475.70,471.29,466.72,461.94,456.73,450.86,444.85,438.67,433.51,429.72,425.97,422.13,418.69,415.54,412.13,407.88,401.49,394.03
625.02,619.33,611.83,605.36,598.97,592.33,585.71,579.28,573.28,567.67,562.20,555.78,549.78,544.30,539.77,537.16,534.77,532.19,529.33,526.14,522.62,518.05,513.04,508.02,503.14,498.61,494.29,489.97,485.30,480.75,476.31,471.97,467.75,463.70,459.37,454.51,448.94,442.76,438.78,436.09,434.57,434.71,434.31,435.00,437.71,442.95,449.30,456.16,461.88,466.31,470.63,475.95,481.25,486.58,492.25,498.03,501.97,504.03,504.11,502.40,499.33,495.31,489.72,481.19,473.63,467.06,461.70,457.73,454.25,451.15,449.82,451.34,456.90,464.35,473.80,483.29,490.52,496.25,501.19,505.62,509.15,510.75,511.60,511.89,511.67,510.96,510.72,512.19,514.77,518.06,522.38,526.66,531.22,536.23,541.69,548.28,554.87,561.50,568.44,574.58,580.71,587.03,593.13,597.54,600.23,601.41,601.15,599.14,596.72,593.78,590.40,586.70,583.05,578.42,573.75,569.57,566.16,563.25,559.84,555.50,549.72,542.55,536.47,532.82,532.05,532.41,534.02,538.15,544.35,551.07,557.29,564.37,571.67,578.04,582.25,583.97,584.07,582.62,579.26,574.84,570.95,569.76,574.24,582.07,589.76,596.79,603.19,609.14,614.49,619.44,624.03,628.21,633.25,638.65,643.42,646.77,649.75,651.59,652.35,651.65,648.55,643.68,638.98,635.11,632.46,630.83,628.88,625.93,622.54,622.04,624.01,626.52,628.97,631.51,634.06,637.07,641.02,646.19,651.01,656.37,662.75,670.02,676.81,681.31,684.05,685.18,684.28,681.91,678.02,673.55,669.43,666.96,665.75,664.53,663.04,661.49,659.00,655.51,651.58,647.77,644.39,640.83,636.86,632.40,627.47,622.29,617.32,612.49,607.52,602.41,596.80,591.27,586.32,581.81,577.23,572.42,567.20,561.10,553.95,546.83,540.27,534.70,530.08,526.18,522.61,519.42,517.09,515.16,513.54,511.99,510.10,507.56,504.89,501.76,497.33,490.33,485.25,480.78,476.27,471.86,467.46,463.19,458.64,453.31,447.93,442.62,438.08,434.42,430.60,426.66,422.13,417.57,414.10,410.26,403.92,396.05
623.48,617.68,610.39,604.22,598.07,591.58,585.08,578.77,572.88,567.38,562.12,556.15,550.02,543.80,538.08,534.47,531.34,528.39,525.49,522.44,518.86,514.20,509.17,504.34,499.89,495.78,491.86,487.85,483.32,478.80,474.28,469.97,466.08,462.06,457.47,452.41,446.86,440.78,436.94,433.73,431.23,430.60,430.30,431.82,435.57,441.58,447.94,454.44,459.88,464.23,468.64,473.84,479.01,484.01,488.97,494.20,497.81,499.73,499.79,497.94,494.62,490.27,484.64,477.00,470.02,463.38,457.54,452.98,449.16,446.05,445.75,448.96,455.22,463.37,473.44,483.25,490.21,495.69,500.26,503.73,505.67,506.07,506.55,506.84,506.72,506.15,506.47,508.69,512.02,515.93,520.67,525.21,529.82,534.67,539.90,546.56,553.31,560.01,566.86,572.99,578.92,584.94,590.68,594.55,596.57,597.04,596.22,594.21,591.80,588.91,585.46,581.38,577.21,573.02,569.11,565.62,562.55,559.40,555.61,551.14,545.96,539.75,533.53,528.75,526.46,526.77,528.69,532.89,538.99,545.81,551.66,557.34,563.05,568.49,572.58,574.36,574.20,572.39,569.55,566.22,563.89,565.10,573.13,583.22,591.88,598.99,604.79,609.96,614.16,618.30,622.40,625.88,629.74,634.25,638.59,642.00,644.90,646.30,646.34,644.78,641.01,636.51,632.61,629.58,627.45,625.97,624.07,621.18,617.96,618.00,620.45,623.27,625.83,628.34,631.09,634.58,638.79,643.55,647.77,652.17,657.80,664.88,672.34,677.72,681.21,682.93,682.40,680.07,676.20,671.70,667.33,664.07,662.24,660.66,658.94,657.00,654.43,651.29,648.12,645.33,642.37,639.09,635.44,631.36,626.86,622.12,617.27,612.33,607.28,602.17,596.56,591.07,586.23,581.82,577.15,572.19,566.87,560.74,553.15,545.54,538.59,532.70,527.48,522.94,518.75,515.09,512.65,510.61,508.93,507.55,506.26,504.38,502.19,499.29,495.06,489.18,484.58,480.38,476.11,471.82,467.98,464.34,460.49,456.00,451.21,447.01,442.97,438.81,434.56,430.52,425.61,420.30,415.98,411.83,405.74,398.26
621.33,615.44,608.89,603.10,597.13,590.71,584.19,578.08,572.33,567.00,562.13,556.96,551.13,544.79,538.42,533.29,528.95,525.33,522.13,518.85,514.93,510.27,505.41,500.78,496.75,492.98,489.43,485.84,481.55,477.12,472.48,468.21,464.77,460.92,456.38,451.44,446.15,440.46,436.08,432.20,429.00,427.41,427.09,428.98,433.25,439.74,445.92,452.08,457.54,462.26,466.91,471.80,476.79,481.66,486.21,490.69,493.73,495.23,494.94,492.72,489.18,484.38,478.66,472.48,466.33,460.01,453.89,448.46,444.01,441.14,442.37,447.69,454.58,462.87,472.88,482.62,489.52,494.63,498.93,501.40,501.52,500.75,500.88,501.17,501.26,501.14,502.32,505.48,509.74,514.42,519.20,523.70,528.22,532.93,538.05,544.65,551.46,558.16,564.76,571.07,576.81,582.36,587.51,591.02,592.48,592.30,591.06,589.22,586.60,583.46,579.76,575.39,570.74,567.70,565.06,562.10,558.46,554.55,550.32,545.92,541.46,536.30,530.46,524.72,520.51,520.85,523.03,527.24,533.15,539.93,545.57,550.41,554.74,558.63,562.15,563.64,562.92,560.61,558.77,557.10,556.95,560.89,572.07,583.62,593.15,600.40,605.42,609.58,612.48,615.83,619.66,622.90,626.09,629.34,632.76,636.28,639.04,640.12,639.60,637.43,633.76,630.18,627.16,624.67,622.66,621.16,619.29,617.03,614.90,614.54,616.78,619.62,622.26,624.66,627.69,632.00,636.92,641.60,645.20,648.67,653.31,659.73,667.56,673.97,678.41,680.76,680.46,678.12,674.41,669.95,665.24,661.44,658.68,656.33,654.00,651.35,648.96,646.86,644.83,642.63,640.03,637.05,633.73,630.00,625.85,621.47,616.66,611.55,606.38,601.20,595.69,590.41,585.79,581.48,576.75,571.74,566.47,560.60,552.77,544.96,537.85,531.68,525.88,520.66,515.72,511.31,508.35,505.35,503.03,501.55,500.80,499.67,497.80,494.88,490.81,486.78,482.95,479.14,475.20,471.09,467.90,464.91,461.78,458.29,454.15,451.13,447.50,442.57,437.72,433.55,428.78,423.31,417.77,412.97,407.41,400.98
618.67,612.77,607.15,601.78,595.89,589.40,582.81,576.90,571.45,566.37,561.62,556.56,551.13,545.33,539.30,533.64,528.82,524.72,520.85,516.58,512.13,506.64,501.43,497.38,493.55,490.26,487.26,484.25,480.79,476.98,472.89,468.92,465.39,461.73,457.45,452.77,447.63,441.72,436.66,432.08,428.04,425.22,424.39,426.50,430.78,436.66,442.79,448.98,454.55,459.35,463.69,468.27,473.38,478.57,483.22,487.44,489.74,490.37,489.37,487.05,483.50,478.61,473.01,467.68,462.37,456.68,450.60,444.51,439.98,438.98,441.93,448.01,454.93,462.97,472.10,481.05,488.11,492.86,495.97,497.24,496.51,494.93,494.81,495.06,495.47,496.60,499.17,503.03,507.52,512.27,517.05,521.58,526.05,530.66,535.82,542.36,549.23,555.96,562.40,568.86,574.42,579.49,584.01,587.00,587.94,587.47,586.02,583.72,580.15,576.18,572.62,569.87,566.82,564.43,561.68,557.95,553.01,548.21,544.03,540.22,536.21,531.42,525.95,519.56,513.60,513.19,515.60,520.21,526.37,533.01,538.45,543.13,547.18,550.45,552.97,554.09,553.81,552.47,551.17,550.06,551.45,557.00,568.65,581.97,592.01,599.06,603.55,606.40,608.23,610.53,613.92,618.60,622.60,625.74,628.31,630.46,632.10,632.81,632.58,631.33,629.13,626.66,623.55,620.46,618.53,617.26,615.60,613.63,611.62,610.04,611.56,614.13,616.83,619.55,623.21,627.51,632.55,638.21,642.46,646.04,650.22,655.79,663.15,669.94,674.88,677.65,677.70,675.77,672.46,667.99,662.73,658.65,655.13,651.92,648.93,646.16,643.93,642.25,640.80,639.27,637.29,634.65,631.64,628.30,624.49,620.28,615.49,610.30,605.03,599.75,594.26,589.14,584.75,580.43,575.69,570.72,565.54,559.85,552.19,544.49,537.40,531.13,525.06,519.89,515.08,510.38,505.81,500.67,496.48,493.86,493.14,492.02,490.43,488.22,485.33,482.47,479.55,476.35,472.78,468.89,465.36,462.74,460.42,457.65,454.89,452.61,449.35,444.57,439.44,435.05,430.29,424.90,419.17,414.53,410.34,405.34
615.71,610.18,605.34,600.20,594.33,587.84,581.25,575.40,570.02,565.05,560.48,555.48,550.37,545.08,539.56,533.98,529.03,524.64,520.32,515.39,510.34,504.14,498.44,494.37,490.64,487.69,485.12,482.60,479.81,476.57,473.04,469.40,465.80,462.21,458.08,453.55,448.44,442.22,436.60,431.54,426.97,423.31,421.81,423.82,427.82,432.87,438.79,445.07,450.88,455.82,459.78,464.14,469.84,475.95,481.15,485.11,486.41,486.04,484.38,481.57,477.80,473.16,468.13,463.44,458.68,453.36,447.37,441.12,436.72,437.53,441.98,448.59,455.38,462.82,471.00,479.08,485.73,490.01,492.06,492.26,490.79,488.69,488.22,488.96,490.66,493.44,497.19,501.50,506.03,510.65,515.29,519.75,524.11,528.57,533.64,540.10,546.84,553.52,560.16,566.85,572.31,576.81,580.38,582.68,583.03,581.99,579.95,577.04,573.30,569.64,566.85,565.26,563.28,560.85,557.60,553.20,547.47,541.79,537.63,534.32,530.57,526.07,520.24,513.28,506.77,505.63,508.06,512.99,519.40,525.83,530.95,535.42,539.40,542.65,544.79,545.87,546.02,545.36,544.38,544.28,547.30,553.86,564.63,578.75,588.76,595.39,599.42,601.34,602.46,604.41,607.93,613.51,618.48,622.18,624.67,626.06,627.05,627.54,627.50,626.86,625.56,623.72,620.41,616.74,614.62,613.44,611.83,609.75,607.20,604.34,605.31,607.77,610.60,613.69,618.02,622.54,627.66,633.84,639.22,643.50,647.61,652.48,659.38,666.27,671.48,674.46,674.67,673.25,669.85,665.20,660.04,655.97,651.77,647.77,644.22,641.41,638.91,637.08,635.87,635.13,633.98,631.92,629.32,626.31,622.84,618.89,614.36,609.32,603.89,598.44,592.95,587.91,583.59,579.28,574.70,569.96,565.05,559.71,552.59,545.38,538.64,532.56,526.66,521.11,515.93,510.88,505.01,498.41,492.64,488.52,486.69,484.75,482.99,481.09,478.88,476.89,474.77,472.24,469.17,465.60,461.85,459.11,456.92,454.62,452.77,451.09,448.44,444.34,439.57,435.27,430.55,425.23,419.75,415.78,412.62,408.65
612.50,607.74,603.40,598.26,592.38,585.98,579.50,573.61,568.05,563.01,558.64,553.75,548.85,543.91,538.92,533.91,529.12,524.67,520.24,515.15,509.51,502.94,496.74,491.93,488.19,485.27,482.87,480.70,478.32,475.54,472.46,469.13,465.55,461.92,457.76,453.19,447.98,441.45,435.47,430.19,425.50,421.55,419.26,420.83,424.32,428.51,433.94,440.25,446.35,451.57,455.36,459.74,466.44,473.97,480.01,483.68,483.79,482.35,480.01,476.33,472.20,468.10,464.04,459.80,455.25,449.95,444.09,438.23,434.13,436.39,442.05,449.10,455.69,462.23,469.53,476.71,482.26,485.94,487.19,486.55,484.44,482.21,481.45,483.29,487.16,491.81,496.34,500.84,505.32,509.77,514.16,518.48,522.69,526.94,531.76,538.12,544.55,551.07,558.18,565.15,570.54,574.33,576.59,578.01,577.71,575.87,572.94,569.48,566.34,564.13,562.59,561.33,559.48,556.40,552.51,547.86,542.14,535.75,531.35,528.18,524.47,520.19,513.39,506.09,500.37,498.64,500.89,505.89,512.34,518.48,523.19,527.35,531.33,535.03,537.53,538.93,539.31,538.77,537.97,539.49,544.31,551.44,560.41,573.88,583.30,589.44,593.15,594.63,595.46,597.85,602.16,607.78,613.55,618.23,621.47,623.10,624.24,624.69,624.59,623.92,622.59,620.73,617.22,613.14,610.48,609.12,607.38,604.85,601.40,597.56,598.27,600.84,603.99,607.57,612.45,617.45,622.67,628.63,635.36,640.85,645.32,649.74,656.29,663.15,668.38,671.35,671.54,670.53,666.54,661.62,657.28,653.50,648.66,643.98,640.07,637.21,634.06,631.60,630.28,630.30,630.08,628.80,626.73,624.01,620.91,617.37,613.34,608.67,603.06,597.41,591.92,586.89,582.49,578.24,574.03,569.75,565.33,560.54,554.31,547.95,541.86,536.17,530.84,524.46,518.26,512.52,505.91,498.87,492.14,486.40,482.52,479.04,476.55,474.28,471.83,470.26,468.72,466.82,464.38,461.25,457.62,454.27,451.43,449.25,447.63,446.42,444.58,441.58,437.72,433.81,429.20,424.03,419.23,416.28,413.62,410.13
609.14,604.99,600.78,595.68,589.79,583.44,577.25,571.50,566.01,560.85,556.10,551.22,546.48,541.85,537.26,532.65,528.27,524.04,519.65,514.59,509.00,502.61,496.34,490.94,486.38,482.84,480.00,477.73,475.87,473.72,471.13,468.04,464.33,460.57,456.32,451.47,445.81,439.19,433.08,427.99,423.61,419.59,416.69,417.66,420.61,424.23,428.72,434.29,439.93,445.41,451.05,456.65,464.14,472.05,478.04,481.58,481.21,478.53,474.62,470.89,467.16,463.62,460.00,455.77,451.18,445.80,440.25,435.25,431.52,435.01,441.63,448.95,455.36,461.23,467.35,473.22,477.76,480.51,480.92,479.93,478.18,476.88,477.56,480.59,485.38,490.88,495.54,500.09,504.69,509.30,513.87,518.33,522.59,526.79,531.48,537.78,543.99,550.25,557.23,563.89,568.58,571.35,572.34,572.41,571.63,570.09,567.83,564.69,560.65,557.98,556.40,555.21,553.24,550.23,546.58,542.40,537.59,531.26,525.76,521.22,516.97,512.17,506.07,500.07,495.46,493.31,495.53,499.72,504.83,510.49,515.23,519.56,523.74,527.63,530.45,531.92,532.35,532.03,531.74,534.44,540.43,548.31,556.80,566.92,575.64,582.20,586.09,587.53,588.52,591.37,596.24,602.12,607.74,612.45,616.25,619.04,621.09,621.78,621.54,620.47,618.46,615.54,611.52,607.09,603.39,601.26,599.20,596.87,594.25,591.62,592.16,594.90,599.09,604.02,608.75,613.48,618.30,623.61,630.63,637.69,643.28,647.71,653.79,660.82,665.78,668.39,668.89,667.13,663.20,658.92,655.27,651.63,645.77,640.69,637.12,634.13,631.11,628.51,626.70,626.04,625.85,625.08,623.57,621.36,618.81,615.83,612.29,607.93,602.34,596.76,591.39,586.49,582.22,578.22,574.48,571.05,567.56,563.08,557.85,552.30,546.54,540.60,535.29,529.46,522.45,514.49,507.33,500.50,493.72,487.61,483.32,479.28,475.53,471.54,467.18,463.85,462.01,460.45,458.59,456.17,452.97,449.07,445.20,442.27,440.38,439.32,437.90,435.47,431.98,427.77,423.52,419.62,416.45,413.86,411.56,408.23
605.81,602.02,597.74,592.59,586.71,580.50,574.66,569.07,563.64,558.34,553.21,548.30,543.67,539.29,535.09,530.89,526.94,522.98,518.74,513.80,508.27,502.12,495.97,490.23,484.77,480.36,476.83,474.15,472.49,470.81,468.83,466.29,462.97,459.25,454.99,449.84,443.65,436.90,430.75,425.78,421.60,417.54,414.22,414.21,416.39,419.85,423.73,428.67,434.06,440.08,447.63,454.58,462.46,470.10,475.58,479.01,478.05,474.32,469.30,465.53,462.15,458.95,455.56,451.39,446.73,441.57,436.52,432.23,429.39,433.71,440.80,448.16,454.32,459.68,464.81,469.49,472.99,474.80,474.46,473.25,472.09,472.12,474.58,478.71,483.97,489.87,494.59,499.22,503.95,508.74,513.46,518.14,522.55,526.78,531.46,537.62,543.65,549.75,556.49,562.55,566.45,568.34,568.33,567.27,566.14,564.99,563.37,560.23,555.33,551.34,548.89,547.82,546.07,543.61,540.63,537.19,533.24,527.32,520.98,514.96,509.61,504.31,499.12,494.38,490.53,488.25,490.56,494.16,498.11,502.88,507.32,511.92,516.52,520.68,523.81,525.41,525.89,525.61,525.57,529.32,536.33,544.97,553.47,560.35,567.34,573.48,577.64,579.61,581.23,584.76,590.20,596.23,601.66,606.28,610.33,613.80,616.30,617.01,616.64,615.34,612.91,609.36,605.14,600.61,596.28,593.64,591.60,589.79,588.17,586.77,587.40,590.17,594.94,601.39,606.08,610.61,615.21,620.09,626.75,634.47,641.02,646.11,651.96,658.95,663.58,665.83,666.45,664.08,660.48,656.89,653.65,649.84,643.44,638.31,635.08,632.01,629.10,626.35,623.93,622.22,621.58,620.92,619.82,618.22,616.38,614.01,610.87,606.75,601.36,595.92,590.80,586.15,582.10,578.44,575.10,572.35,569.65,565.62,561.28,556.51,551.06,544.87,539.48,534.12,526.86,517.63,509.72,503.08,496.67,490.68,486.05,481.54,476.80,471.38,465.14,459.52,456.29,454.23,452.57,450.62,447.80,443.58,438.84,434.82,431.85,430.49,429.28,427.33,424.26,420.24,416.71,414.01,411.97,409.46,406.98,403.29
602.55,598.77,594.18,588.86,583.05,577.14,571.71,566.23,560.75,555.32,550.00,545.01,540.41,536.22,532.39,528.67,525.09,521.43,517.43,512.69,507.02,501.00,495.11,489.39,483.24,477.84,473.38,469.97,467.88,466.31,465.04,463.67,461.60,458.28,454.23,448.89,442.16,435.13,429.00,423.92,419.54,415.43,411.88,410.33,411.44,415.36,419.35,424.20,429.97,436.99,445.76,453.79,461.44,468.07,472.64,475.89,473.95,469.57,464.58,460.47,457.02,453.77,450.41,446.58,441.92,437.52,433.15,429.15,428.10,432.65,439.45,446.53,452.35,457.32,461.90,465.76,468.13,469.12,468.21,466.86,466.28,467.96,472.09,477.13,482.58,488.41,493.33,498.14,502.98,507.81,512.54,517.44,522.07,526.46,531.23,537.10,543.02,549.14,555.74,560.90,564.12,565.46,564.87,563.20,561.83,560.80,559.22,555.28,550.11,544.15,539.93,539.15,538.26,536.92,535.01,532.43,528.96,523.70,517.34,510.34,503.15,497.62,493.04,488.78,484.99,483.02,485.55,489.27,492.88,496.19,499.68,504.50,509.77,514.40,517.81,519.76,520.33,519.75,519.40,524.14,532.11,541.49,550.30,555.30,558.96,562.87,567.27,570.57,573.37,577.90,584.00,589.91,595.45,600.12,603.99,606.96,608.84,609.14,608.66,607.57,605.41,602.36,598.58,594.38,590.34,587.83,586.42,585.41,584.44,583.46,584.62,587.13,591.51,599.28,604.43,609.20,614.06,619.01,624.66,631.34,638.27,644.96,651.03,657.57,661.84,663.88,664.22,661.90,658.84,655.72,652.43,647.99,642.01,637.30,634.18,631.09,627.98,624.92,621.87,618.99,617.41,616.26,615.27,614.37,613.42,611.67,608.76,604.79,599.85,594.57,589.86,585.66,581.92,578.65,575.57,573.07,570.77,567.50,563.82,559.72,554.72,548.47,543.03,537.56,530.89,522.59,513.64,506.90,501.17,495.72,490.23,485.02,479.97,474.12,466.74,458.77,452.64,448.79,446.65,444.60,441.93,437.72,432.55,427.23,422.09,419.81,418.56,417.10,414.70,411.91,409.52,407.50,405.35,402.68,399.13,394.42
598.84,594.93,590.33,585.07,579.60,574.17,568.94,563.57,558.09,552.43,546.64,541.35,536.89,532.96,529.38,525.95,522.72,519.30,515.55,511.15,505.20,499.19,493.42,487.76,481.69,476.10,471.05,466.64,463.22,461.01,459.90,459.22,458.12,455.78,452.44,447.63,441.20,434.13,427.91,422.38,417.31,412.63,408.52,406.55,407.59,412.01,416.97,422.54,428.87,436.27,445.22,453.16,460.11,466.11,470.71,473.18,470.95,466.50,461.36,456.81,452.66,448.99,445.62,442.16,438.19,434.19,429.87,426.04,426.95,431.78,438.03,444.47,450.15,454.90,458.87,461.91,463.55,463.99,462.63,461.33,461.58,464.68,469.71,475.23,480.83,486.53,491.68,496.62,501.45,506.17,510.92,516.04,520.92,525.41,529.95,535.86,541.97,548.11,554.24,559.18,561.78,562.30,560.71,557.50,554.95,553.51,552.29,549.26,544.62,538.34,533.42,532.18,531.78,531.08,529.70,527.56,524.63,520.20,514.59,507.98,500.39,493.28,488.06,483.44,479.17,477.12,479.78,483.71,487.44,490.56,494.19,498.50,503.08,507.46,511.27,513.41,513.82,512.89,512.39,517.37,526.51,536.95,545.46,551.51,554.38,556.95,560.64,564.11,567.20,571.35,577.00,583.90,589.76,594.42,598.11,600.77,602.31,602.36,601.74,600.65,598.83,596.41,593.16,589.46,586.00,583.65,582.39,581.41,580.33,579.46,581.59,584.74,588.86,595.51,601.94,607.24,612.07,617.20,622.65,628.48,635.52,643.43,649.82,655.73,659.85,662.17,662.60,660.60,657.82,654.88,651.55,646.71,641.09,636.60,633.37,630.19,626.99,623.88,620.66,617.18,614.16,611.73,610.30,609.88,609.51,608.15,605.69,602.14,597.44,592.44,588.13,584.34,580.94,578.17,575.66,573.45,571.30,568.49,565.13,561.48,556.87,550.69,545.08,539.64,533.71,526.73,518.43,511.89,506.23,500.71,494.63,488.32,482.77,476.69,468.99,460.39,452.88,447.38,443.63,440.14,436.24,431.73,426.78,421.53,416.14,412.92,410.82,409.08,406.97,404.44,402.06,399.86,397.50,394.34,390.12,385.34
594.71,590.67,586.19,581.22,576.21,571.25,566.20,561.00,555.60,549.77,543.45,537.88,533.47,529.65,526.19,522.94,519.87,516.66,513.13,508.80,502.79,496.97,491.43,485.93,480.12,474.45,468.99,463.80,459.15,456.00,454.47,453.84,453.40,452.23,449.70,445.63,439.90,433.13,426.96,420.98,415.14,409.75,404.99,402.94,404.21,409.02,414.97,421.45,428.25,435.69,444.47,452.10,458.41,463.92,468.56,470.44,468.40,464.25,459.11,454.29,449.28,444.92,441.28,438.13,434.87,430.96,426.42,422.81,425.52,430.74,436.51,442.22,447.69,452.30,455.75,458.09,459.13,459.03,457.30,456.20,457.37,461.58,467.20,473.01,478.72,484.31,489.62,494.69,499.54,504.22,509.05,514.29,519.38,524.04,528.34,534.13,540.33,546.41,552.04,556.65,558.57,558.24,555.70,551.20,547.53,545.67,544.86,543.04,539.21,533.05,527.76,525.98,525.82,525.50,524.47,522.66,520.24,516.56,511.72,505.74,498.34,490.07,483.94,478.56,473.59,471.23,473.79,477.81,481.77,485.27,489.35,493.19,496.91,500.76,504.55,506.58,506.82,505.75,505.39,510.31,519.95,531.00,539.62,546.90,549.98,551.92,554.70,557.98,561.32,565.16,570.23,577.64,583.90,588.70,592.30,594.75,596.11,596.08,595.37,594.25,592.71,590.95,588.31,585.08,581.97,579.60,578.20,577.05,575.78,574.92,577.88,582.04,586.45,591.67,599.25,605.04,609.71,614.79,620.27,625.63,632.74,641.45,648.32,653.75,657.77,660.38,661.09,659.50,656.97,654.16,650.86,645.70,640.31,635.89,632.44,629.11,625.86,622.75,619.51,615.75,611.52,607.55,605.24,604.89,604.89,603.91,601.92,598.84,594.38,589.81,585.91,582.45,579.35,577.06,575.18,573.31,571.21,568.65,565.53,562.18,557.86,551.81,546.15,540.87,535.60,529.84,522.73,516.53,510.82,505.05,498.53,491.25,485.16,478.95,471.38,463.00,455.09,448.46,443.07,438.05,432.86,427.90,423.00,417.78,412.14,407.52,404.00,401.48,399.30,396.70,394.15,391.73,389.16,385.67,381.26,376.73
589.70,585.75,581.48,577.25,572.82,568.16,563.42,558.56,553.44,547.60,540.87,535.30,530.51,526.37,522.79,519.51,516.12,513.05,509.62,504.49,499.20,494.17,489.26,484.23,478.48,472.43,466.79,461.65,456.80,452.51,449.32,447.39,446.93,446.94,445.12,441.81,437.18,431.52,425.88,419.68,413.19,407.24,401.79,399.76,401.25,406.13,412.45,419.60,426.55,433.56,442.03,449.68,455.94,461.04,464.96,467.31,466.22,462.93,458.38,453.85,448.07,442.49,437.91,434.91,431.80,427.39,422.49,419.33,423.20,429.08,434.75,439.78,444.65,449.19,452.48,454.45,454.91,454.08,452.08,451.47,453.71,458.31,464.19,470.15,475.87,481.42,486.77,491.93,496.97,501.97,507.01,512.14,517.32,522.31,526.63,531.63,537.34,543.25,548.49,551.92,552.90,551.85,548.84,544.56,540.72,538.81,538.26,537.13,534.19,528.09,522.49,520.56,520.20,519.95,519.22,517.81,515.65,512.44,507.77,501.95,495.27,488.18,481.36,474.77,468.93,465.82,467.80,471.51,475.64,480.02,484.58,488.62,492.18,495.26,497.73,499.02,499.15,498.60,499.06,503.71,511.77,521.89,532.33,538.97,542.94,545.55,547.62,550.63,554.93,559.71,564.77,570.45,577.15,582.52,586.33,588.64,590.00,590.26,589.77,588.65,587.16,586.05,584.13,581.19,577.52,574.51,572.64,571.36,570.28,569.40,572.47,577.95,584.10,589.03,596.69,602.59,606.98,611.25,616.81,622.60,629.83,638.50,646.21,651.82,655.64,658.16,659.39,658.22,656.06,653.56,650.39,644.99,639.54,634.94,631.14,627.50,624.24,621.08,617.84,614.22,609.83,604.24,600.28,599.03,599.06,598.62,597.05,594.27,590.29,586.42,582.90,579.62,576.70,574.75,573.41,571.90,569.89,567.22,564.32,561.05,556.77,550.95,545.72,540.77,535.84,530.69,524.92,519.28,513.61,507.61,500.79,493.21,486.65,480.39,473.66,466.48,459.69,453.26,447.16,441.38,435.89,430.31,424.46,418.06,410.49,403.21,397.31,393.25,390.31,387.52,385.23,383.13,380.48,377.34,373.76,369.66
584.05,580.55,576.82,573.13,569.26,565.11,560.63,556.02,550.92,545.14,538.75,533.50,528.67,524.14,519.93,515.94,511.96,508.16,504.29,499.93,495.51,491.32,487.19,482.73,477.23,471.23,465.69,460.70,455.75,450.78,445.93,442.19,440.81,440.95,439.87,437.47,433.83,429.23,424.25,418.12,411.33,405.07,399.43,397.24,398.45,403.01,409.29,416.47,423.27,429.91,437.81,445.38,451.95,457.51,461.90,464.94,464.62,462.02,457.96,453.75,448.24,441.89,435.79,431.59,427.88,423.14,418.51,416.42,420.77,426.89,432.46,437.02,441.12,444.93,447.78,449.38,449.23,447.40,445.73,446.34,450.04,455.13,460.96,466.68,472.18,477.78,483.39,488.80,494.02,499.10,504.25,509.26,514.42,519.59,524.12,528.78,533.88,539.00,543.30,545.88,546.24,544.77,541.63,537.57,534.35,532.96,532.78,531.92,528.61,522.83,517.56,515.28,514.65,514.31,513.76,512.66,510.41,507.07,502.61,497.34,491.47,485.35,478.81,471.98,465.42,461.10,462.62,466.31,470.62,475.28,479.86,483.76,487.06,489.79,491.87,492.99,493.17,492.93,494.06,498.57,505.26,513.54,523.01,530.43,535.41,538.77,541.33,545.05,549.50,554.12,558.82,563.95,570.26,575.93,580.28,582.87,584.53,585.07,584.55,583.18,581.85,581.22,579.56,576.62,572.71,569.41,567.35,566.01,565.09,564.70,567.90,573.75,580.81,587.11,594.39,599.92,604.06,607.84,612.51,618.37,625.86,634.72,643.11,649.60,653.66,656.09,657.60,656.54,654.71,652.66,649.68,643.47,637.95,633.17,628.89,624.98,621.73,618.77,615.79,612.38,607.69,601.54,596.34,593.42,592.92,592.76,591.86,589.88,586.57,582.78,578.51,574.97,573.00,571.75,570.71,569.33,567.43,564.98,562.20,558.51,553.93,548.64,543.83,539.50,535.26,530.73,525.32,519.77,514.16,508.29,501.62,494.10,487.26,480.92,474.73,468.47,462.62,456.68,450.57,444.56,438.72,432.53,425.95,418.98,411.51,403.23,396.11,390.98,386.58,382.39,378.70,375.50,372.65,369.65,366.52,362.81
578.28,575.35,572.25,569.03,565.67,562.01,557.78,553.32,548.10,542.38,536.67,531.85,527.13,522.31,517.37,512.44,507.74,502.97,498.57,495.35,491.85,488.47,485.06,481.19,476.11,470.42,465.13,460.30,455.32,449.95,443.79,438.32,435.46,434.99,434.38,432.82,430.08,426.42,422.08,416.19,409.37,402.96,397.34,394.83,395.61,399.81,405.81,412.67,419.16,425.39,432.63,440.20,447.43,453.96,459.29,462.98,463.29,461.26,457.63,453.75,448.83,441.87,434.17,428.38,423.72,418.46,414.20,413.45,418.12,424.21,429.67,433.95,437.30,440.16,442.42,443.63,442.96,440.46,439.52,441.43,446.32,451.87,457.57,462.97,468.21,473.77,479.61,485.27,490.67,495.86,501.18,506.12,511.17,516.35,521.18,525.79,530.32,534.48,537.63,539.35,539.04,537.22,534.15,530.55,528.42,527.82,527.97,527.18,523.30,517.94,513.06,510.14,508.98,508.44,507.96,507.02,504.64,501.08,496.89,492.29,487.21,481.85,475.90,469.21,462.13,456.60,457.70,461.50,466.11,470.73,475.07,478.64,481.65,484.21,486.19,487.37,487.79,488.03,489.88,494.22,499.75,506.11,513.57,521.83,527.61,531.76,535.42,540.24,544.71,548.87,553.10,558.15,563.97,569.82,574.64,577.53,579.28,579.74,578.92,577.28,576.45,576.30,574.81,571.85,567.89,564.23,561.80,560.24,559.50,560.15,563.76,569.58,576.85,584.57,591.48,596.69,600.80,604.46,608.18,613.86,621.38,630.32,639.27,646.83,651.51,654.13,655.74,654.75,653.23,651.43,648.34,641.36,635.73,630.69,625.86,621.55,618.46,615.85,613.24,609.99,605.08,599.00,593.01,588.37,586.97,586.99,586.78,585.64,583.00,578.99,573.60,569.51,568.38,567.86,567.04,565.77,564.02,561.76,558.94,554.87,550.16,545.55,541.31,537.72,534.23,530.25,524.84,519.17,513.59,507.90,501.53,494.12,487.13,480.79,475.05,469.53,464.43,459.07,453.29,447.34,441.20,434.50,427.39,420.16,413.45,405.08,397.43,391.48,385.65,379.94,374.46,369.55,365.85,362.68,359.60,356.08
573.17,570.62,567.97,565.24,562.17,558.68,554.71,550.18,544.70,539.04,534.07,529.48,525.05,520.30,515.04,509.44,503.87,498.63,494.16,491.13,488.45,485.62,482.60,479.21,474.86,469.84,464.88,460.11,455.17,449.73,443.63,437.48,432.45,430.17,429.05,427.80,425.80,422.68,418.77,413.29,406.80,400.46,394.90,391.91,392.32,396.61,402.18,408.41,414.32,420.00,426.63,434.67,443.27,451.33,457.53,461.40,462.07,460.45,457.17,453.58,448.82,441.27,432.46,425.70,419.95,413.23,408.64,409.43,414.78,420.55,425.81,430.18,433.19,435.37,436.86,437.46,436.73,435.24,435.52,437.90,442.42,448.18,453.92,459.33,464.44,469.53,475.14,480.76,486.42,492.23,497.99,503.14,507.95,512.74,517.89,522.82,527.16,530.65,532.73,532.95,531.38,528.94,526.21,523.94,523.46,523.72,523.94,523.08,519.85,514.93,509.67,505.33,502.84,501.87,501.17,500.04,497.93,494.75,491.00,486.88,482.32,477.28,471.56,465.00,457.81,451.90,452.50,456.56,461.79,466.13,469.91,473.07,475.82,478.15,479.78,480.94,482.11,483.77,486.69,490.55,495.39,500.89,506.86,513.97,519.59,524.52,529.64,535.53,540.77,545.08,548.99,553.86,560.20,566.09,570.68,573.26,573.77,572.92,571.17,569.53,570.38,571.01,569.97,567.39,563.63,558.77,554.89,552.40,552.00,554.87,559.93,565.69,571.81,578.66,585.84,591.75,596.63,600.98,605.14,610.11,616.62,624.90,634.19,642.48,648.51,652.31,653.78,653.16,651.87,649.48,645.06,638.28,632.37,626.82,621.34,616.20,613.66,611.68,609.33,606.00,601.43,596.10,590.39,585.09,582.23,582.41,582.58,581.74,579.42,575.09,568.85,563.78,561.93,561.64,561.24,560.39,558.87,556.17,552.91,549.37,545.63,541.82,538.65,535.78,532.82,529.17,523.73,518.05,512.28,506.44,500.29,492.52,485.63,479.70,474.44,469.38,464.76,459.80,454.40,448.87,442.67,435.87,428.66,421.32,414.61,407.05,399.69,393.14,387.02,381.21,375.02,368.31,361.55,357.42,353.50,349.44
568.54,566.09,563.84,561.20,558.18,554.78,550.87,546.32,540.98,535.68,531.22,526.98,522.72,517.98,512.53,506.50,500.14,494.41,489.82,486.97,484.75,482.37,479.75,476.75,473.03,468.58,463.97,459.34,454.42,449.05,443.13,436.63,429.99,425.83,423.68,422.11,420.34,417.75,414.31,409.53,403.81,397.99,392.75,389.58,389.53,393.20,398.18,403.75,409.66,415.99,423.19,431.24,440.26,448.97,455.64,460.02,460.99,459.50,456.24,452.72,447.71,439.85,430.51,422.52,415.28,407.97,403.51,404.85,410.71,416.35,421.27,425.29,427.88,429.67,430.84,431.30,430.79,430.32,431.76,434.67,438.92,444.34,449.94,455.52,460.85,465.66,471.04,476.54,482.19,488.15,494.40,500.04,505.04,509.80,515.22,520.66,524.95,527.40,527.22,525.79,523.70,521.46,519.36,517.81,518.14,518.94,519.37,518.61,515.99,511.47,506.17,501.06,497.13,495.38,494.30,493.08,491.22,488.38,484.92,481.04,476.73,472.03,466.61,460.32,453.46,447.82,448.13,451.95,457.13,461.35,464.73,467.49,469.89,472.00,473.58,475.33,477.54,480.38,483.88,487.50,491.73,496.52,501.90,508.83,514.56,519.82,525.36,531.41,537.19,542.15,546.64,551.75,558.02,563.19,566.57,567.65,566.90,565.35,563.43,562.27,564.32,565.75,565.24,562.91,559.01,553.70,548.81,546.34,547.72,552.18,557.38,562.52,567.58,573.12,579.68,586.01,591.93,597.43,602.42,607.18,612.86,620.12,628.95,637.75,644.77,649.55,651.43,650.92,648.81,645.21,639.92,633.58,627.50,621.66,615.94,610.53,607.78,605.89,603.88,601.11,597.32,592.61,587.16,581.55,577.72,577.52,577.87,577.47,575.49,571.36,565.11,559.06,555.12,553.73,553.20,552.71,551.71,549.51,546.56,543.77,540.99,537.97,535.66,533.53,530.96,527.43,522.37,516.68,510.77,504.77,498.41,490.67,483.87,478.18,473.38,468.71,464.28,459.52,454.33,448.97,442.87,436.11,429.01,421.95,415.28,408.36,401.38,394.60,388.43,382.53,376.07,368.74,360.87,355.95,351.68,346.96
