e,e,e,e,e,e,e,e,e,e,e,e,e,e,e,e,e,e,e,e,e,e,e,e,e,e,e,e,e,e,e,e,e,e,e,e,e,e,e,e,e,e,e,e,e,e,e,e,e,e,e,e,e,e,e,e,e,e,e,e,e,e,e,e,e,e,e,e,e,e,e,e,e,e,e,e,e,e,e,e,e,e,e,e,e,e,e,e,e,e,e,e,e,e,0.73,1.25,2.69,3.77,4.99,6.38,7.96,9.93,13.28,17.09,20.71,23.51,25.50,27.37,29.47,32.20,36.09,40.29,44.52,48.99,54.34,60.47,65.42,69.48,73.34,76.07,78.64,81.62,85.24,89.08,91.44,92.97,94.90,98.97,101.92,104.35,106.38,107.84,108.73,109.20,109.80,111.04,113.67,117.11,121.10,125.56,130.41,134.77,138.25,140.91,142.57,142.90,141.94,140.49,139.25,139.14,139.86,141.63,144.24,147.37,149.86,150.07,148.98,147.13,145.06,143.24,142.69,143.46,145.53,148.99,152.88,156.81,160.46,163.27,166.13,169.23,172.53,175.81,178.55,182.75,187.63,192.03,195.78,200.47,206.75,214.05,219.66,224.56,229.46,234.46,239.27,243.29,246.20,248.57,250.71,252.61,253.10,253.47,254.25,255.58,257.42,259.07,260.38,261.33,262.13,263.09,264.31,265.89,267.98,270.57,273.31,276.03,278.75,281.87,285.67,289.59,293.07,295.84,298.49,301.16,303.91,306.83,309.87,312.45,314.80,317.20,319.22,321.15,323.25,325.59,328.00,330.42,332.71,334.98,337.40,339.66,341.71,343.39,344.79,346.75,348.54,350.49,352.85,355.76,358.42,360.05,360.59,359.77,356.99,353.95,350.32,345.56,339.32,332.87,327.50,323.30,319.95,317.28,314.69,311.27,306.15,299.14
e,e,e,e,e,e,e,e,e,e,e,e,e,e,e,e,e,e,e,e,e,e,e,e,e,e,e,e,e,e,e,e,e,e,e,e,e,e,e,e,e,e,e,e,e,e,e,e,e,e,e,e,e,e,e,e,e,e,e,e,e,e,e,e,e,e,e,e,e,e,e,e,e,e,e,e,e,e,e,e,e,e,e,e,e,e,e,e,e,e,e,e,e,e,0.00,0.56,2.18,2.52,3.58,5.00,6.45,7.93,10.29,13.26,16.41,19.08,21.08,23.06,25.32,28.23,32.45,36.82,41.08,45.26,49.69,55.20,60.71,65.50,68.94,71.54,73.67,76.22,79.67,83.61,86.17,87.88,89.91,93.99,97.23,99.86,102.03,103.70,104.78,105.47,106.35,107.81,110.15,112.99,116.51,120.60,125.16,129.60,132.74,134.94,136.28,136.53,135.98,135.17,134.66,135.32,136.67,139.07,142.04,144.90,146.62,146.00,144.45,142.70,141.03,139.49,139.38,140.76,143.60,147.65,151.82,155.82,159.48,162.44,165.25,168.35,171.65,174.57,177.09,180.36,184.66,189.83,193.82,198.28,204.48,212.03,217.93,223.33,228.56,233.62,238.19,241.69,244.09,246.03,247.78,249.10,249.13,249.09,249.61,250.90,252.10,253.41,254.99,256.89,258.49,260.04,261.75,263.77,266.25,269.07,271.87,274.52,277.10,279.88,283.57,287.59,291.31,294.22,297.04,299.96,303.05,306.38,309.70,312.42,314.82,317.25,319.49,321.49,323.55,325.80,328.07,330.38,332.45,334.56,337.27,339.68,341.62,343.25,344.92,347.45,349.68,351.63,353.56,355.88,358.06,359.58,359.96,358.51,355.60,352.50,348.44,342.81,336.03,329.56,324.26,320.01,316.44,313.86,311.17,307.43,301.88,295.04
e,e,e,e,e,e,e,e,e,e,e,e,e,e,e,e,e,e,e,e,e,e,e,e,e,e,e,e,e,e,e,e,e,e,e,e,e,e,e,e,e,e,e,e,e,e,e,e,e,e,e,e,e,e,e,e,e,e,e,e,e,e,e,e,e,e,e,e,e,e,e,e,e,e,e,e,e,e,e,e,e,e,e,e,e,e,e,e,e,e,e,e,e,e,e,e,e,1.60,2.35,3.46,4.86,6.26,7.89,10.10,12.62,14.73,16.35,18.14,20.61,24.24,28.95,33.61,38.14,42.36,45.88,50.18,55.59,60.81,64.03,66.56,68.23,70.27,73.42,77.28,79.99,81.97,84.13,87.91,91.68,94.73,97.16,99.14,100.72,101.91,103.28,105.05,107.08,109.34,112.25,115.79,119.92,124.38,127.28,129.06,130.01,130.30,130.42,130.50,130.85,132.13,134.09,136.95,140.05,142.46,143.13,141.67,139.68,137.95,136.83,136.19,137.00,139.19,142.50,146.53,150.55,154.41,158.02,161.14,163.99,167.14,170.47,173.29,175.70,178.04,181.58,187.16,191.61,196.23,202.31,209.67,215.86,221.68,227.14,232.13,236.26,239.27,241.32,242.89,244.10,244.89,245.03,245.32,246.10,247.38,248.09,249.16,250.94,253.52,255.71,257.62,259.63,261.97,264.83,267.93,270.81,273.47,276.06,278.69,282.25,286.20,289.98,293.11,296.13,299.33,302.78,306.42,309.83,312.62,315.08,317.53,319.83,321.77,323.71,325.81,327.96,329.98,331.68,333.47,336.06,338.37,340.25,341.94,343.88,346.98,349.85,352.03,353.71,355.62,357.60,358.86,358.86,356.97,354.15,350.86,346.28,339.89,332.56,326.30,321.12,316.73,312.95,310.16,307.08,302.92,297.17,290.65
e,e,e,e,e,e,e,e,e,e,e,e,e,e,e,e,e,e,e,e,e,e,e,e,e,e,e,e,e,e,e,e,e,e,e,e,e,e,e,e,e,e,e,e,e,e,e,e,e,e,e,e,e,e,e,e,e,e,e,e,e,e,e,e,e,e,e,e,e,e,e,e,e,e,e,e,e,e,e,e,e,e,e,e,e,e,e,e,e,e,e,e,e,e,e,e,e,e,1.10,1.69,3.07,4.43,6.05,7.70,9.16,10.07,10.55,11.47,14.15,19.51,25.07,30.23,35.30,39.99,43.29,46.51,50.32,54.43,58.08,60.47,61.87,63.55,66.33,70.07,73.16,75.39,77.47,80.87,85.39,88.85,91.43,93.72,96.26,98.29,100.31,102.50,104.59,106.65,108.80,111.50,115.30,119.36,122.14,123.84,124.71,125.23,125.67,126.32,127.43,129.36,131.91,135.07,138.13,140.05,139.77,137.87,135.57,133.67,133.01,133.93,136.10,138.97,142.12,145.85,149.21,152.54,156.06,159.36,162.50,165.68,168.89,171.96,174.46,176.89,179.97,184.34,189.28,194.44,200.37,207.08,213.60,219.57,225.07,229.90,233.47,236.03,237.63,238.72,239.53,240.34,241.42,242.67,244.05,245.50,246.39,247.76,249.65,251.90,254.17,256.27,258.34,260.66,263.80,267.11,270.19,273.01,275.70,278.39,281.86,285.61,289.17,292.48,295.72,299.28,303.14,306.86,310.20,313.05,315.63,318.11,320.27,322.10,323.86,325.75,327.81,329.32,330.77,332.25,333.68,335.64,337.46,339.25,341.40,344.71,348.17,350.69,352.39,354.54,356.93,357.65,356.91,355.21,352.60,348.76,343.46,336.62,329.10,323.40,318.41,313.77,309.70,306.04,302.15,297.59,292.10,286.17
e,e,e,e,e,e,e,e,e,e,e,e,e,e,e,e,e,e,e,e,e,e,e,e,e,e,e,e,e,e,e,e,e,e,e,e,e,e,e,e,e,e,e,e,e,e,e,e,e,e,e,e,e,e,e,e,e,e,e,e,e,e,e,e,e,e,e,e,e,e,e,e,e,e,e,e,e,e,e,e,e,e,e,e,e,e,e,e,e,e,e,e,e,e,e,e,e,e,0.70,1.29,2.57,2.82,4.14,5.67,6.95,7.56,7.86,8.63,10.51,14.33,20.49,26.41,31.85,36.66,40.35,43.52,46.34,48.86,50.97,52.68,54.11,56.10,59.09,62.58,66.32,69.07,71.11,74.05,78.91,82.86,85.95,88.83,92.03,94.60,97.08,99.65,101.96,103.78,105.49,107.73,111.31,115.16,117.69,119.17,119.92,120.69,121.66,122.94,124.63,126.89,129.80,132.92,135.65,137.09,136.41,134.31,132.00,130.44,130.85,132.28,134.88,138.12,141.25,144.35,147.20,150.13,153.35,156.81,160.22,163.56,167.00,170.77,173.43,175.95,178.83,182.57,187.46,192.72,198.44,204.72,211.29,217.20,222.58,227.19,230.28,232.20,233.47,234.49,235.53,236.94,238.84,240.76,242.62,244.55,246.10,247.89,249.87,251.87,254.11,256.27,258.31,260.48,263.62,266.84,269.71,272.34,275.10,277.92,281.40,285.10,288.66,292.29,296.06,299.81,303.50,307.03,310.26,313.14,315.84,318.44,320.58,322.38,324.00,325.47,326.71,327.71,328.80,329.93,330.99,332.77,334.81,336.97,339.42,342.65,346.24,349.02,351.03,353.46,356.06,356.74,355.74,353.67,351.17,346.90,340.89,333.57,326.85,321.41,316.29,311.37,307.07,303.06,298.49,293.27,287.42,281.35
e,e,e,e,e,e,e,e,e,e,e,e,e,e,e,e,e,e,e,e,e,e,e,e,e,e,e,e,e,e,e,e,e,e,e,e,e,e,e,e,e,e,e,e,e,e,e,e,e,e,e,e,e,e,e,e,e,e,e,e,e,e,e,e,e,e,e,e,e,e,e,e,e,e,e,e,e,e,e,e,e,e,e,e,e,e,e,e,e,e,e,e,e,e,e,e,e,e,e,e,e,1.66,2.53,3.80,5.12,5.68,6.20,7.13,8.36,10.49,16.22,22.34,27.96,32.84,36.90,40.09,42.13,43.25,43.87,45.06,46.65,49.02,52.31,55.69,59.72,62.74,64.81,67.42,72.11,76.42,80.09,83.42,86.80,90.26,93.33,95.90,98.34,100.13,101.86,104.17,107.79,111.71,113.91,114.90,115.36,116.43,118.01,119.92,122.09,124.58,127.65,130.62,132.97,133.97,133.16,131.09,128.97,127.86,129.16,130.80,133.48,136.82,139.91,142.44,144.98,147.64,150.56,153.96,157.50,161.03,164.77,169.12,172.22,174.95,177.84,181.37,186.17,191.37,196.84,202.71,209.04,214.74,219.89,224.19,226.86,228.31,229.44,230.63,232.16,234.36,237.07,239.68,242.08,244.48,246.65,248.69,250.60,252.41,254.54,256.70,258.63,260.61,263.64,266.55,269.07,271.47,274.29,277.50,281.12,284.80,288.35,292.18,296.34,300.20,303.67,307.00,310.11,312.98,315.75,318.44,320.64,322.22,323.43,324.38,324.96,325.65,326.51,327.48,328.60,330.33,332.58,335.12,337.88,341.00,344.42,347.23,349.44,351.92,354.46,355.52,354.87,352.55,350.06,345.55,339.08,331.43,325.51,320.20,314.79,309.43,304.83,300.44,295.31,289.43,282.96,276.66
e,e,e,e,e,e,e,e,e,e,e,e,e,e,e,e,e,e,e,e,e,e,e,e,e,e,e,e,e,e,e,e,e,e,e,e,e,e,e,e,e,e,e,e,e,e,e,e,e,e,e,e,e,e,e,e,e,e,e,e,e,e,e,e,e,e,e,e,e,e,e,e,e,e,e,e,e,e,e,e,e,e,e,e,e,e,e,e,e,e,e,e,e,e,e,e,e,e,e,e,e,e,1.24,2.08,3.33,3.89,4.83,6.06,7.47,9.34,12.91,18.08,23.51,28.50,32.53,35.31,36.64,37.06,37.37,38.65,40.50,43.09,46.50,50.06,53.55,56.28,58.44,61.00,64.91,69.33,73.52,76.98,79.87,84.81,88.72,90.78,93.09,95.26,97.70,100.77,104.83,109.20,110.94,111.14,111.08,112.56,114.75,117.19,119.74,122.41,125.36,128.14,130.15,130.75,130.05,128.31,126.65,126.02,127.57,129.36,131.97,135.10,138.04,140.34,142.84,145.47,148.14,151.03,154.44,158.08,162.02,166.54,170.51,173.76,176.89,180.68,185.55,190.64,195.86,201.27,206.99,212.30,217.06,220.94,223.23,224.66,225.97,227.56,229.72,232.83,236.38,239.80,242.85,245.57,248.02,249.88,251.46,253.15,255.14,257.19,258.97,260.70,263.52,265.92,268.11,270.38,273.30,277.26,281.18,284.79,288.21,291.97,296.11,299.99,303.46,306.68,309.68,312.47,315.19,317.88,320.20,321.15,321.59,321.97,322.52,323.31,324.25,325.42,326.98,328.74,331.07,333.83,336.87,339.96,342.93,345.40,347.42,349.49,351.65,353.54,354.10,352.13,349.58,345.10,338.60,330.90,325.20,319.92,314.07,308.06,303.04,297.95,292.38,285.97,278.79,272.47
e,e,e,e,e,e,e,e,e,e,e,e,e,e,e,e,e,e,e,e,e,e,e,e,e,e,e,e,e,e,e,e,e,e,e,e,e,e,e,e,e,e,e,e,e,e,e,e,e,e,e,e,e,e,e,e,e,e,e,e,e,e,e,e,e,e,e,e,e,e,e,e,e,e,e,e,e,e,e,e,e,e,e,e,e,e,e,e,e,e,e,e,e,e,e,e,e,e,e,e,e,e,0.90,1.27,1.66,2.62,3.84,5.19,6.61,8.17,10.32,14.10,18.55,22.93,26.35,28.40,29.23,29.62,30.52,32.57,35.14,38.13,41.50,44.95,47.74,49.78,51.56,54.26,58.53,63.34,68.08,72.31,75.55,79.85,83.69,86.43,88.67,91.34,94.50,98.12,102.18,106.31,107.87,108.13,108.45,110.50,112.94,115.39,117.78,120.19,122.87,125.32,126.77,126.56,125.98,124.81,124.37,125.21,126.88,128.66,130.97,133.74,136.75,139.49,142.34,144.96,147.13,149.18,151.69,154.88,158.75,163.25,168.30,172.56,176.26,180.10,184.99,190.06,195.13,200.16,205.25,210.07,214.38,217.76,219.61,221.31,223.27,225.59,228.52,232.80,237.09,240.81,243.98,246.89,249.25,250.97,252.44,254.05,255.80,257.52,259.03,260.53,262.92,265.14,267.21,269.50,272.74,277.02,281.08,284.72,288.05,291.59,295.57,299.35,302.72,305.76,308.60,311.25,313.77,316.17,318.30,319.21,319.50,319.65,320.19,321.13,322.38,323.89,325.63,327.51,329.79,332.50,335.62,338.70,341.29,343.39,345.17,346.98,349.25,351.40,352.68,352.16,350.14,345.53,338.88,331.15,325.14,319.52,313.35,307.10,301.96,296.28,289.89,282.98,275.86,269.50
e,e,e,e,e,e,e,e,e,e,e,e,e,e,e,e,e,e,e,e,e,e,e,e,e,e,e,e,e,e,e,e,e,e,e,e,e,e,e,e,e,e,e,e,e,e,e,e,e,e,e,e,e,e,e,e,e,e,e,e,e,e,e,e,e,e,e,e,e,e,e,e,e,e,e,e,e,e,e,e,e,e,e,e,e,e,e,e,e,e,e,e,e,e,e,e,e,e,e,e,e,e,e,0.40,0.64,1.47,2.75,4.14,5.52,6.90,8.33,10.78,13.77,16.83,19.28,20.85,21.70,22.48,24.14,26.90,30.13,33.48,36.80,39.83,41.95,43.48,45.13,48.25,52.98,58.02,63.04,67.83,71.71,75.47,79.14,82.44,84.88,88.14,91.88,95.80,99.61,103.19,104.76,105.46,106.45,108.82,111.35,113.73,115.93,118.09,120.44,122.39,123.23,122.53,122.20,122.07,122.89,124.73,126.50,128.30,130.49,133.18,136.38,139.45,142.15,144.41,146.16,147.67,149.44,151.97,155.41,159.82,165.45,170.69,175.31,179.57,184.52,189.56,194.46,199.18,203.77,208.05,211.68,214.40,216.03,218.27,221.01,224.13,227.92,233.31,238.22,242.10,245.19,248.16,250.30,251.80,253.04,254.33,255.64,257.08,258.49,259.96,261.97,264.01,265.98,268.32,271.94,276.75,281.00,284.57,287.66,290.89,294.72,298.37,301.57,304.43,307.08,309.55,311.85,313.91,315.78,316.77,317.17,317.34,318.09,319.18,320.73,322.56,324.39,326.41,328.63,331.18,334.13,337.01,339.22,340.93,342.40,344.11,346.65,349.12,351.04,351.76,350.60,346.13,339.56,331.96,325.43,319.33,312.91,306.55,301.25,295.14,288.22,281.07,274.22,268.00
e,e,e,e,e,e,e,e,e,e,e,e,e,e,e,e,e,e,e,e,e,e,e,e,e,e,e,e,e,e,e,e,e,e,e,e,e,e,e,e,e,e,e,e,e,e,e,e,e,e,e,e,e,e,e,e,e,e,e,e,e,e,e,e,e,e,e,e,e,e,e,e,e,e,e,e,e,e,e,e,e,e,e,e,e,e,e,e,e,e,e,e,e,e,e,e,e,e,e,e,e,e,e,e,e,0.34,1.53,2.87,4.14,5.48,6.92,8.36,9.67,10.88,12.13,13.63,14.96,16.41,18.70,21.83,25.32,28.82,32.00,34.38,35.99,37.44,39.53,43.56,48.55,53.52,58.37,63.14,67.70,71.71,75.38,78.73,81.77,85.65,89.74,93.64,96.98,99.93,101.65,103.01,104.71,107.02,109.51,111.90,114.12,116.21,118.19,119.45,119.74,119.15,119.35,120.74,122.55,124.44,126.33,128.19,130.59,133.57,136.97,139.97,141.89,143.44,145.01,146.44,147.88,149.70,152.31,156.54,162.02,168.00,173.82,179.06,184.19,189.14,193.85,198.29,202.53,206.22,208.90,210.81,212.62,215.68,219.16,223.02,227.71,234.02,239.38,243.34,246.28,249.12,250.97,252.12,252.92,253.59,254.25,255.56,257.13,258.78,260.60,262.39,264.29,266.74,270.68,276.39,280.90,284.29,287.01,289.86,293.50,296.98,299.99,302.69,305.15,307.41,309.46,311.24,312.90,313.96,314.58,315.07,316.23,317.38,319.14,321.29,323.23,325.32,327.48,329.77,332.25,334.64,336.49,337.87,339.08,340.85,343.69,346.70,349.24,350.56,350.44,346.52,340.40,333.19,326.09,319.52,312.91,306.49,300.89,294.57,287.65,280.66,274.13,268.36
e,e,e,e,e,e,e,e,e,e,e,e,e,e,e,e,e,e,e,e,e,e,e,e,e,e,e,e,e,e,e,e,e,e,e,e,e,e,e,e,e,e,e,e,e,e,e,e,e,e,e,e,e,e,e,e,e,e,e,e,e,e,e,e,e,e,e,e,e,e,e,e,e,e,e,e,e,e,e,e,e,e,e,e,e,e,e,e,e,e,e,e,e,e,e,e,e,e,e,e,e,e,e,e,e,0.14,1.33,2.16,2.73,4.09,5.46,6.57,7.59,8.48,9.05,9.88,10.82,12.20,14.66,17.82,20.56,23.13,25.67,27.91,29.57,31.33,34.33,40.39,45.83,50.73,55.23,59.46,63.76,67.73,71.58,75.41,79.20,83.42,87.44,91.00,93.92,96.67,98.81,100.60,102.39,104.75,107.16,109.89,112.69,114.73,116.00,116.63,116.67,116.48,118.21,120.48,122.72,124.76,126.60,128.46,130.84,133.71,136.81,139.65,141.77,143.59,145.24,146.31,147.16,148.44,150.56,154.16,159.52,165.90,172.48,178.60,184.07,189.07,193.65,197.71,201.12,204.04,205.87,207.45,210.29,213.86,217.76,222.01,227.16,234.31,239.88,243.73,246.40,248.77,250.27,251.07,251.49,251.80,252.36,253.63,255.03,256.47,258.41,260.41,262.69,265.51,269.51,275.40,280.16,283.70,286.37,289.02,292.19,295.28,298.07,300.69,303.01,305.01,306.81,308.46,309.95,311.19,312.17,312.98,313.98,314.98,316.97,319.63,322.03,324.02,325.64,327.35,329.37,331.18,332.92,334.60,336.33,338.46,341.19,344.19,346.96,348.80,349.41,345.73,340.05,333.62,326.71,320.00,313.21,306.67,301.11,294.85,288.13,281.52,275.55,270.46
e,e,e,e,e,e,e,e,e,e,e,e,e,e,e,e,e,e,e,e,e,e,e,e,e,e,e,e,e,e,e,e,e,e,e,e,e,e,e,e,e,e,e,e,e,e,e,e,e,e,e,e,e,e,e,e,e,e,e,e,e,e,e,e,e,e,e,e,e,e,e,e,e,e,e,e,e,e,e,e,e,e,e,e,e,e,e,e,e,e,e,e,e,e,e,e,e,e,e,e,e,e,e,e,e,e,e,1.50,1.96,2.77,3.93,4.96,5.96,6.82,7.13,7.64,8.38,9.57,11.67,14.47,16.61,18.50,20.46,22.33,24.30,26.91,30.98,37.70,43.44,48.22,52.41,56.32,60.44,64.41,68.54,72.88,77.07,81.41,85.20,88.28,90.70,93.13,95.44,97.54,99.56,102.10,104.54,107.72,111.15,113.00,113.68,113.83,114.03,114.97,117.72,120.39,122.81,125.00,126.97,128.97,131.39,134.17,137.03,139.78,142.31,144.62,146.51,147.42,147.81,148.47,150.04,153.50,158.54,164.96,171.85,178.33,184.00,189.06,193.34,196.69,199.29,201.35,202.77,204.58,208.34,212.38,216.54,221.11,226.67,234.01,239.56,243.21,245.53,247.44,248.69,249.27,249.51,249.70,250.22,251.35,252.58,253.91,255.96,258.19,260.84,264.09,268.42,274.23,279.12,282.80,285.38,287.80,290.46,293.12,295.70,298.20,300.42,302.30,303.93,305.44,306.87,308.30,309.59,310.65,311.54,312.46,314.40,317.16,319.88,321.87,323.25,324.67,326.46,328.14,329.98,332.03,334.26,336.67,339.22,341.99,344.74,346.92,347.97,344.80,339.73,333.86,327.17,320.68,313.92,307.27,301.71,295.58,289.16,283.02,277.70,273.23
e,e,e,e,e,e,e,e,e,e,e,e,e,e,e,e,e,e,e,e,e,e,e,e,e,e,e,e,e,e,e,e,e,e,e,e,e,e,e,e,e,e,e,e,e,e,e,e,e,e,e,e,e,e,e,e,e,e,e,e,e,e,e,e,e,e,e,e,e,e,e,e,e,e,e,e,e,e,e,e,e,e,e,e,e,e,e,e,e,e,e,e,e,e,e,e,e,e,e,e,e,e,e,e,e,e,e,e,e,1.60,2.40,3.41,4.41,5.21,5.60,6.28,7.19,8.26,9.63,11.72,13.56,15.27,16.90,18.31,20.70,24.48,29.49,35.29,40.92,45.51,49.48,53.41,57.63,61.75,66.21,70.94,75.17,79.47,82.95,85.57,87.49,89.42,91.59,93.87,96.25,99.05,101.71,105.32,109.16,110.73,111.11,111.15,112.00,114.60,117.66,120.42,122.89,125.19,127.48,129.82,132.41,135.18,137.92,140.62,143.47,146.19,148.42,149.71,149.98,150.13,151.22,154.86,159.24,165.28,171.99,178.26,183.86,188.90,192.67,195.06,196.99,198.29,199.82,202.31,206.61,211.09,215.42,220.22,226.12,233.00,238.29,241.72,243.75,245.33,246.44,246.96,247.18,247.42,247.88,248.79,249.93,251.33,253.39,255.85,258.81,262.46,267.33,272.87,277.73,281.46,283.93,286.07,288.24,290.51,292.85,295.09,297.22,299.08,300.69,302.11,303.62,305.26,306.79,308.04,309.00,309.93,311.53,313.85,316.56,318.73,320.37,321.98,323.87,325.88,328.02,330.36,332.87,335.34,337.71,340.22,342.81,345.13,346.39,344.03,339.67,334.07,327.49,321.51,315.00,308.31,302.65,296.71,290.68,285.09,280.44,276.52
e,e,e,e,e,e,e,e,e,e,e,e,e,e,e,e,e,e,e,e,e,e,e,e,e,e,e,e,e,e,e,e,e,e,e,e,e,e,e,e,e,e,e,e,e,e,e,e,e,e,e,e,e,e,e,e,e,e,e,e,e,e,e,e,e,e,e,e,e,e,e,e,e,e,e,e,e,e,e,e,e,e,e,e,e,e,e,e,e,e,e,e,e,e,e,e,e,e,e,e,e,e,e,e,e,e,e,e,e,e,1.08,1.90,2.89,3.68,4.24,5.06,6.05,7.13,8.32,9.62,10.88,12.38,14.31,16.66,19.19,23.09,28.13,33.13,37.80,41.92,45.78,49.73,54.09,58.65,63.39,68.19,72.62,76.84,80.23,82.79,84.65,86.55,88.52,90.52,92.72,95.63,98.73,102.28,105.71,107.50,107.96,109.04,111.27,114.71,118.17,121.08,123.78,126.41,128.86,131.60,134.36,137.02,139.49,141.67,144.23,146.90,149.57,152.50,153.59,154.56,156.15,158.56,161.66,166.60,172.44,178.09,183.33,187.97,191.16,192.84,194.33,195.70,197.75,200.86,205.31,209.90,214.26,218.95,224.53,230.97,235.76,239.23,241.62,242.95,243.97,244.43,244.59,244.77,245.25,246.21,247.43,248.89,250.87,253.93,257.33,261.17,266.00,270.89,275.37,279.12,281.86,283.90,285.73,287.64,289.56,291.19,292.91,294.69,296.49,298.31,300.25,302.09,303.80,305.28,306.39,307.35,308.58,310.19,312.26,314.69,317.18,319.63,322.00,324.39,326.85,329.40,331.90,334.09,336.34,338.91,341.57,343.87,345.44,343.58,339.66,334.36,328.00,322.45,316.26,309.69,304.06,298.46,292.99,288.00,283.92,280.87
e,e,e,e,e,e,e,e,e,e,e,e,e,e,e,e,e,e,e,e,e,e,e,e,e,e,e,e,e,e,e,e,e,e,e,e,e,e,e,e,e,e,e,e,e,e,e,e,e,e,e,e,e,e,e,e,e,e,e,e,e,e,e,e,e,e,e,e,e,e,e,e,e,e,e,e,e,e,e,e,e,e,e,e,e,e,e,e,e,e,e,e,e,e,e,e,e,e,e,e,e,e,e,e,e,e,e,e,e,e,0.42,1.24,1.97,2.26,2.99,3.91,4.96,6.05,7.08,8.05,9.06,10.43,12.49,15.40,18.19,21.75,25.96,29.95,34.06,37.84,41.49,45.32,49.68,54.39,59.17,63.94,68.71,73.42,77.25,80.05,81.86,83.78,85.74,87.81,90.16,93.13,96.26,99.46,102.51,104.90,106.43,108.64,111.69,115.41,119.07,122.31,125.31,128.08,130.51,133.47,136.38,138.94,140.98,142.83,145.08,147.58,150.47,154.35,156.58,158.22,159.73,161.21,163.54,167.49,172.43,177.60,182.21,186.21,188.92,190.33,191.86,193.80,196.44,199.88,204.24,208.73,213.08,217.57,222.57,228.39,232.70,235.88,238.22,239.88,241.06,241.58,241.73,241.93,242.58,243.69,245.14,246.90,249.02,252.22,255.79,259.68,264.16,268.44,272.45,276.00,278.87,281.14,282.94,284.62,286.17,287.31,288.69,290.38,292.29,294.32,296.47,298.51,300.46,302.27,303.69,304.74,305.93,307.38,309.16,311.65,314.61,317.68,320.60,323.24,325.86,328.32,330.55,332.58,334.94,337.64,340.38,342.73,344.37,342.94,339.48,334.48,328.43,323.37,317.66,311.47,306.07,301.06,296.38,292.31,289.19,286.91
e,e,e,e,e,e,e,e,e,e,e,e,e,e,e,e,e,e,e,e,e,e,e,e,e,e,e,e,e,e,e,e,e,e,e,e,e,e,e,e,e,e,e,e,e,e,e,e,e,e,e,e,e,e,e,e,e,e,e,e,e,e,e,e,e,e,e,e,e,e,e,e,e,e,e,e,e,e,e,e,e,e,e,e,e,e,e,e,e,e,e,e,e,e,e,e,e,e,e,e,e,e,e,e,e,e,e,e,e,e,e,e,0.95,1.09,1.85,2.80,3.89,4.98,5.91,6.92,7.99,9.32,11.20,14.03,16.93,19.83,22.71,25.64,29.52,33.17,36.62,40.29,44.57,49.23,53.91,58.62,63.81,69.53,74.16,77.37,79.28,81.41,83.78,86.33,89.12,92.11,94.95,97.74,100.61,103.67,106.66,109.76,113.09,116.71,120.38,124.02,127.29,130.00,132.25,135.25,138.18,140.63,142.29,144.07,146.08,148.42,151.38,155.44,158.79,160.81,161.80,162.84,164.74,167.82,171.94,176.79,180.77,184.04,186.42,188.01,189.87,192.59,195.71,199.19,203.23,207.50,211.79,216.03,220.37,225.31,229.16,231.81,233.77,235.95,237.35,237.95,238.20,238.63,239.71,241.19,243.04,245.25,247.65,250.55,253.96,257.76,261.81,265.60,269.12,272.30,275.06,277.67,279.66,281.29,282.58,283.46,284.66,286.24,288.06,290.02,292.22,294.53,296.82,298.97,300.84,302.14,303.61,305.36,307.29,309.71,312.79,316.23,319.63,322.33,324.90,327.11,328.99,330.97,333.56,336.38,339.15,341.59,343.09,342.11,339.18,334.57,328.94,324.37,319.29,313.70,308.64,304.32,300.57,297.60,295.65,293.99
e,e,e,e,e,e,e,e,e,e,e,e,e,e,e,e,e,e,e,e,e,e,e,e,e,e,e,e,e,e,e,e,e,e,e,e,e,e,e,e,e,e,e,e,e,e,e,e,e,e,e,e,e,e,e,e,e,e,e,e,e,e,e,e,e,e,e,e,e,e,e,e,e,e,e,e,e,e,e,e,e,e,e,e,e,e,e,e,e,e,e,e,e,e,e,e,e,e,e,e,e,e,e,e,e,e,e,e,e,e,e,e,e,e,0.88,1.71,2.81,3.97,5.17,6.34,7.50,8.70,10.12,12.01,13.79,15.65,17.67,20.01,23.39,27.11,30.87,34.69,39.06,43.88,48.70,53.50,58.93,66.05,71.31,74.72,77.54,80.93,84.82,88.35,91.18,94.22,96.92,99.74,102.71,105.66,108.64,111.93,115.38,118.86,122.39,126.22,129.46,131.84,133.96,136.71,139.28,141.49,143.38,145.27,147.22,149.62,152.83,156.82,160.55,162.86,163.97,165.06,165.78,167.77,171.12,175.59,179.85,182.58,184.88,187.19,189.33,192.20,195.29,198.47,201.95,205.96,210.06,214.07,217.89,221.44,224.62,227.07,228.87,230.47,231.56,232.02,232.54,233.88,235.98,238.56,241.15,243.61,246.06,248.52,251.47,254.91,258.65,262.31,265.45,268.16,270.56,272.96,275.11,276.89,278.27,279.25,280.54,281.88,283.25,284.84,287.29,290.20,292.92,295.22,297.51,299.61,301.58,303.62,306.01,308.61,311.95,315.70,319.33,321.76,323.91,326.02,328.06,329.90,332.42,335.21,337.99,340.40,341.67,341.26,339.10,335.10,330.11,325.82,321.42,316.68,311.85,307.87,304.91,302.82,301.50,300.17
e,e,e,e,e,e,e,e,e,e,e,e,e,e,e,e,e,e,e,e,e,e,e,e,e,e,e,e,e,e,e,e,e,e,e,e,e,e,e,e,e,e,e,e,e,e,e,e,e,e,e,e,e,e,e,e,e,e,e,e,e,e,e,e,e,e,e,e,e,e,e,e,e,e,e,e,e,e,e,e,e,e,e,e,e,e,e,e,e,e,e,e,e,e,e,e,e,e,e,e,e,e,e,e,e,e,e,e,e,e,e,e,e,e,0.47,1.01,1.80,2.99,4.26,5.48,6.67,7.86,9.03,10.05,10.95,11.96,13.27,15.22,18.26,21.71,25.42,29.51,33.95,38.82,43.85,49.08,55.04,63.22,69.92,74.70,78.40,82.93,87.42,91.17,94.02,96.98,99.52,102.55,105.94,108.70,111.41,114.56,117.79,120.70,123.47,126.44,129.35,131.90,133.70,135.96,138.28,140.44,142.39,144.32,146.76,149.94,153.94,158.09,161.98,164.69,166.21,167.17,167.41,168.55,170.97,174.74,178.69,181.17,183.51,186.16,188.56,191.56,194.55,197.42,200.38,204.07,207.98,211.76,215.15,217.97,220.51,222.48,224.05,225.85,227.22,227.95,228.78,230.52,232.75,235.80,238.95,241.80,244.14,246.05,248.45,251.54,255.26,258.64,261.46,263.81,265.85,267.99,270.25,272.12,273.39,274.20,275.73,277.49,279.07,280.34,282.46,285.63,288.97,292.05,294.77,297.40,299.90,302.42,305.24,308.16,311.76,315.76,319.58,321.97,324.14,326.36,328.55,330.47,332.50,334.72,337.01,339.08,340.14,340.19,338.61,335.25,331.59,327.95,324.07,319.94,315.78,312.10,309.48,307.75,306.73,305.71
e,e,e,e,e,e,e,e,e,e,e,e,e,e,e,e,e,e,e,e,e,e,e,e,e,e,e,e,e,e,e,e,e,e,e,e,e,e,e,e,e,e,e,e,e,e,e,e,e,e,e,e,e,e,e,e,e,e,e,e,e,e,e,e,e,e,e,e,e,e,e,e,e,e,e,e,e,e,e,e,e,e,e,e,e,e,e,e,e,e,e,e,e,e,e,e,e,e,e,e,e,e,e,e,e,e,e,e,e,e,e,e,e,e,e,0.34,0.98,2.02,3.24,4.41,5.63,6.85,7.89,8.29,8.70,9.18,9.94,11.53,14.21,17.24,20.75,25.05,29.54,34.42,39.71,45.51,52.16,61.15,69.63,76.34,80.78,85.99,90.33,93.86,96.77,99.66,102.07,105.24,108.89,111.41,113.69,116.30,118.97,121.28,123.15,124.84,127.25,130.18,131.84,133.77,135.97,138.18,140.11,142.07,145.34,149.66,154.63,159.26,163.39,166.58,168.66,169.46,169.67,170.21,171.60,174.21,177.33,179.73,182.11,184.77,187.44,190.58,193.48,196.07,198.65,201.97,205.68,209.25,212.30,214.78,216.81,218.40,219.94,222.33,224.29,225.49,226.59,228.23,230.04,232.86,236.16,239.42,241.85,243.30,245.12,247.82,251.63,254.81,257.46,259.61,261.32,263.23,265.58,267.54,268.76,269.39,271.24,273.66,275.79,277.05,278.69,281.82,285.73,289.75,292.86,295.81,298.74,301.77,305.00,308.25,312.07,316.20,320.10,322.63,325.10,327.55,329.90,332.12,333.74,335.13,336.50,337.88,338.60,338.83,337.75,335.28,333.24,330.39,326.96,323.32,319.94,316.67,314.12,312.38,311.42,310.55
e,e,e,e,e,e,e,e,e,e,e,e,e,e,e,e,e,e,e,e,e,e,e,e,e,e,e,e,e,e,e,e,e,e,e,e,e,e,e,e,e,e,e,e,e,e,e,e,e,e,e,e,e,e,e,e,e,e,e,e,e,e,e,e,e,e,e,e,e,e,e,e,e,e,e,e,e,e,e,e,e,e,e,e,e,e,e,e,e,e,e,e,e,e,e,e,e,e,e,e,e,e,e,e,e,e,e,e,e,e,e,e,e,e,e,e,0.57,1.00,2.22,3.39,4.65,5.81,6.68,7.03,7.45,8.01,8.72,9.76,11.54,14.38,17.97,22.13,26.69,31.78,37.38,43.58,50.74,60.51,70.21,78.22,83.29,87.89,91.67,95.03,98.23,101.32,103.84,106.52,109.29,111.36,112.84,114.03,115.64,118.08,119.86,121.02,122.92,125.83,128.49,131.09,133.38,135.50,137.65,139.83,144.00,149.23,154.78,160.47,165.31,169.07,171.63,172.69,172.99,173.24,173.52,174.04,175.86,178.20,180.50,182.81,185.88,189.20,191.94,194.32,196.98,199.84,203.23,206.65,209.53,211.50,213.51,215.70,218.10,220.65,222.77,224.28,225.39,226.40,227.89,229.56,231.99,235.38,238.89,240.40,241.68,243.78,247.52,251.09,254.05,256.26,257.77,259.52,261.88,264.19,266.06,267.29,269.47,271.86,274.24,276.50,278.41,281.38,285.16,289.28,292.63,295.69,298.79,302.10,305.72,309.13,312.99,316.93,320.47,323.24,326.00,328.72,331.46,334.28,336.52,337.34,337.36,337.35,337.23,336.91,336.47,335.89,334.94,332.54,329.63,326.60,323.56,320.94,318.53,316.60,315.34,313.93
e,e,e,e,e,e,e,e,e,e,e,e,e,e,e,e,e,e,e,e,e,e,e,e,e,e,e,e,e,e,e,e,e,e,e,e,e,e,e,e,e,e,e,e,e,e,e,e,e,e,e,e,e,e,e,e,e,e,e,e,e,e,e,e,e,e,e,e,e,e,e,e,e,e,e,e,e,e,e,e,e,e,e,e,e,e,e,e,e,e,e,e,e,e,e,e,e,e,e,e,e,e,e,e,e,e,e,e,e,e,e,e,e,e,e,e,0.30,0.63,1.30,2.40,3.68,4.75,5.43,5.85,6.41,7.10,7.88,8.74,9.99,12.48,15.96,20.17,24.80,30.50,36.55,42.92,50.42,60.26,69.83,77.70,82.72,86.95,90.60,93.95,97.13,100.33,102.79,105.15,107.40,108.97,109.89,110.57,111.56,113.24,114.90,116.52,118.78,121.85,125.18,128.48,131.28,133.71,136.15,138.67,143.24,149.13,155.60,161.71,167.26,171.58,174.50,176.12,176.80,176.91,176.62,176.15,176.56,177.66,179.14,181.14,184.19,187.41,190.27,192.89,195.66,198.41,201.46,204.52,207.28,209.60,212.39,215.52,218.70,221.51,223.93,225.69,226.84,227.52,228.48,229.46,230.94,233.23,236.16,237.85,239.04,240.64,243.71,247.17,250.38,253.14,255.49,258.20,260.77,263.12,265.22,267.00,269.25,272.06,275.03,277.66,279.71,282.57,286.09,289.95,293.39,296.54,299.62,302.74,306.09,309.63,313.44,317.16,320.47,323.37,326.23,329.21,332.43,335.92,338.54,339.42,339.24,338.89,338.57,338.20,337.90,337.62,336.86,335.07,332.62,329.81,326.96,324.50,322.05,320.00,318.58,317.00
e,e,e,e,e,e,e,e,e,e,e,e,e,e,e,e,e,e,e,e,e,e,e,e,e,e,e,e,e,e,e,e,e,e,e,e,e,e,e,e,e,e,e,e,e,e,e,e,e,e,e,e,e,e,e,e,e,e,e,e,e,e,e,e,e,e,e,e,e,e,e,e,e,e,e,e,e,e,e,e,e,e,e,e,e,e,e,e,e,e,e,e,e,e,e,e,e,e,e,e,e,e,e,e,e,e,e,e,e,e,e,e,e,e,e,e,e,e,0.57,1.52,2.72,3.68,4.22,4.76,5.50,6.34,7.21,8.08,9.06,11.05,14.22,18.63,23.55,29.92,36.40,42.79,50.36,59.83,68.55,75.52,80.19,84.23,87.93,91.41,94.70,97.88,100.22,102.35,104.25,105.29,105.84,106.39,107.02,107.84,109.49,112.07,115.10,118.45,122.26,126.11,129.54,132.56,135.29,138.16,142.87,149.22,156.59,163.05,169.21,174.02,177.34,179.50,180.65,180.73,180.22,179.48,178.72,178.44,179.00,180.69,183.54,186.42,189.22,191.99,194.79,197.55,200.35,203.12,205.85,208.72,212.49,216.49,220.27,223.31,226.07,228.08,229.34,229.93,230.41,231.12,231.91,232.87,234.48,236.13,237.37,238.65,240.97,244.07,247.39,250.71,254.05,257.82,260.66,263.03,265.23,267.47,269.85,273.25,276.87,279.56,281.68,284.43,287.62,291.04,294.43,297.69,300.70,303.52,306.38,309.86,313.49,316.99,320.20,323.15,325.99,329.06,332.56,336.60,339.61,340.94,341.24,341.18,341.00,340.79,340.43,339.86,339.07,337.87,335.80,333.09,330.32,327.69,325.12,322.96,321.46,319.82
e,e,e,e,e,e,e,e,e,e,e,e,e,e,e,e,e,e,e,e,e,e,e,e,e,e,e,e,e,e,e,e,e,e,e,e,e,e,e,e,e,e,e,e,e,e,e,e,e,e,e,e,e,e,e,e,e,e,e,e,e,e,e,e,e,e,e,e,e,e,e,e,e,e,e,e,e,e,e,e,e,e,e,e,e,e,e,e,e,e,e,e,e,e,e,e,e,e,e,e,e,e,e,e,e,e,e,e,e,e,e,e,e,e,e,e,e,e,e,0.88,1.72,2.59,3.18,3.96,4.84,5.78,6.74,7.66,8.59,9.85,12.41,17.20,23.07,29.83,36.39,42.67,49.72,58.41,65.83,71.55,75.90,79.84,83.45,87.36,91.54,94.44,96.73,98.69,100.16,100.62,100.97,101.30,101.74,102.67,104.79,108.53,112.38,116.02,120.36,124.32,128.29,132.04,135.12,138.18,142.98,149.43,157.15,164.70,171.12,176.32,180.23,182.59,184.06,184.25,183.86,183.46,182.41,182.01,182.37,183.70,186.37,188.47,190.28,192.25,194.86,197.50,200.33,203.28,206.27,209.19,213.29,217.65,221.60,224.59,227.64,229.92,231.43,232.28,232.74,233.69,234.67,235.35,235.73,236.51,237.60,239.04,241.12,243.88,246.97,250.22,253.58,257.15,260.18,262.90,265.49,268.09,271.07,274.97,278.88,281.67,283.89,286.40,289.14,292.03,295.13,298.54,301.60,304.31,306.98,309.78,312.98,316.34,319.59,322.54,325.22,327.87,330.91,335.01,338.80,341.07,342.27,342.95,343.01,342.88,342.58,342.17,341.94,340.91,339.10,336.70,333.87,330.75,327.95,325.74,324.13,322.15
e,e,e,e,e,e,e,e,e,e,e,e,e,e,e,e,e,e,e,e,e,e,e,e,e,e,e,e,e,e,e,e,e,e,e,e,e,e,e,e,e,e,e,e,e,e,e,e,e,e,e,e,e,e,e,e,e,e,e,e,e,e,e,e,e,e,e,e,e,e,e,e,e,e,e,e,e,e,e,e,e,e,e,e,e,e,e,e,e,e,e,e,e,e,e,e,e,e,e,e,e,e,e,e,e,e,e,e,e,e,e,e,e,e,e,e,e,e,e,0.70,1.22,1.71,2.50,3.39,4.31,5.26,6.21,7.14,8.06,9.06,10.99,14.96,21.04,28.45,35.36,41.44,47.93,55.09,61.16,66.06,70.23,74.21,77.79,81.47,85.45,89.14,92.23,94.16,95.06,95.46,95.88,96.36,97.05,98.30,100.76,104.90,109.38,113.75,118.33,122.75,127.17,131.38,135.10,139.27,144.50,150.98,158.69,166.33,172.87,178.26,182.48,185.26,187.08,187.75,187.87,187.86,187.33,187.12,187.29,187.94,189.27,190.45,191.72,193.28,195.42,197.74,200.46,203.49,206.69,209.96,214.47,218.79,222.35,225.12,227.98,230.36,232.31,233.88,235.07,236.34,237.38,237.90,237.83,238.43,240.14,242.31,243.86,245.78,248.22,251.02,254.10,257.31,260.31,263.17,265.94,268.69,271.92,275.92,279.83,282.70,285.19,287.80,290.41,293.01,295.82,298.72,301.47,304.08,306.67,309.25,312.31,315.70,319.14,322.04,324.57,327.02,329.80,333.62,337.84,340.71,342.44,343.62,344.43,344.78,344.86,344.76,344.66,343.70,342.03,339.85,337.19,334.04,330.95,328.21,325.92,323.52
e,e,e,e,e,e,e,e,e,e,e,e,e,e,e,e,e,e,e,e,e,e,e,e,e,e,e,e,e,e,e,e,e,e,e,e,e,e,e,e,e,e,e,e,e,e,e,e,e,e,e,e,e,e,e,e,e,e,e,e,e,e,e,e,e,e,e,e,e,e,e,e,e,e,e,e,e,e,e,e,e,e,e,e,e,e,e,e,e,e,e,e,e,e,e,e,e,e,e,e,e,e,e,e,e,e,e,e,e,e,e,e,e,e,e,e,e,e,e,e,0.56,0.98,1.95,2.89,3.81,4.74,5.67,6.60,7.52,8.44,9.81,12.66,18.55,26.23,33.37,39.39,45.34,51.01,55.71,59.73,63.61,67.60,71.28,74.89,78.77,83.31,87.04,88.94,89.43,89.94,90.63,91.51,92.68,94.49,97.35,101.69,106.57,111.50,116.20,121.12,125.94,130.61,135.29,140.67,146.38,152.85,160.29,167.71,174.24,179.79,184.34,187.66,189.74,190.89,191.53,191.82,191.90,191.91,191.95,192.01,191.98,192.40,193.26,194.51,196.19,198.17,200.84,203.97,207.39,211.03,215.72,219.78,222.79,225.26,227.79,230.08,232.18,234.19,236.17,238.00,239.57,240.64,240.86,241.87,244.09,246.50,247.48,248.63,250.41,252.68,255.34,258.12,260.97,263.80,266.53,269.12,272.24,276.15,280.01,282.94,285.65,288.44,291.05,293.43,295.94,298.32,300.80,303.38,305.96,308.55,311.67,315.22,318.88,321.73,324.15,326.51,329.13,332.63,337.04,340.24,342.30,343.76,345.23,346.14,346.75,347.15,347.21,346.31,344.69,342.60,340.12,337.12,333.78,330.46,327.42,324.57
e,e,e,e,e,e,e,e,e,e,e,e,e,e,e,e,e,e,e,e,e,e,e,e,e,e,e,e,e,e,e,e,e,e,e,e,e,e,e,e,e,e,e,e,e,e,e,e,e,e,e,e,e,e,e,e,e,e,e,e,e,e,e,e,e,e,e,e,e,e,e,e,e,e,e,e,e,e,e,e,e,e,e,e,e,e,e,e,e,e,e,e,e,e,e,e,e,e,e,e,e,e,e,e,e,e,e,e,e,e,e,e,e,e,e,e,e,e,e,e,0.10,0.50,1.41,2.34,3.26,4.19,5.12,6.04,6.96,7.86,8.91,10.94,16.20,23.00,29.84,36.14,41.68,46.52,49.92,52.61,55.83,59.68,63.71,68.14,73.02,77.64,80.92,82.62,83.23,83.91,85.21,86.71,88.63,91.39,94.97,99.65,104.50,109.19,113.96,119.19,124.31,129.62,135.75,141.84,147.95,154.33,161.17,168.44,174.78,180.56,185.75,189.66,191.78,193.12,194.01,194.42,194.66,194.70,194.76,194.74,194.24,194.36,194.84,195.68,197.10,198.92,201.76,205.15,208.77,212.57,216.81,220.33,222.90,225.06,227.28,229.10,230.56,231.97,234.21,237.14,240.47,243.64,245.33,247.65,249.48,250.57,251.16,252.14,253.59,255.41,257.55,259.87,262.36,264.90,267.23,268.99,271.54,275.17,279.01,282.09,284.73,287.59,290.23,292.46,294.64,297.04,299.62,302.31,305.00,307.75,311.20,315.08,318.90,321.72,324.19,326.55,329.10,332.46,336.75,339.93,342.02,343.48,344.94,346.27,347.55,348.73,349.40,348.65,346.96,344.76,342.26,339.48,336.05,332.40,328.89,325.60
e,e,e,e,e,e,e,e,e,e,e,e,e,e,e,e,e,e,e,e,e,e,e,e,e,e,e,e,e,e,e,e,e,e,e,e,e,e,e,e,e,e,e,e,e,e,e,e,e,e,e,e,e,e,e,e,e,e,e,e,e,e,e,e,e,e,e,e,e,e,e,e,e,e,e,e,e,e,e,e,e,e,e,e,e,e,e,e,e,e,e,e,e,e,e,e,e,e,e,e,e,e,e,e,e,e,e,e,e,e,e,e,e,e,e,e,e,e,e,e,0.00,0.41,0.92,1.84,2.74,3.62,4.50,5.35,6.26,7.31,8.51,10.43,14.89,20.20,25.75,31.37,36.81,41.23,44.34,46.93,50.13,54.11,58.27,62.60,67.02,70.79,72.89,74.15,75.37,77.51,79.70,82.25,85.26,88.89,93.32,98.61,103.53,107.69,111.81,117.13,122.48,128.02,134.53,141.16,147.85,154.51,161.22,168.31,174.55,180.51,186.11,190.43,193.05,194.91,196.26,197.00,197.37,197.44,197.36,197.06,196.43,196.31,196.50,197.04,198.23,199.99,202.98,206.51,210.06,213.48,217.34,220.36,222.43,224.45,226.54,228.01,229.06,230.20,232.09,235.36,239.24,243.14,246.34,249.41,251.39,252.57,253.78,255.22,256.72,258.27,259.96,261.70,263.10,264.30,265.48,266.94,269.14,272.39,276.20,279.88,282.61,285.25,288.08,290.93,293.13,295.67,298.40,301.17,303.93,307.08,310.73,314.66,318.51,321.43,323.99,326.48,329.18,332.63,336.61,339.63,341.68,343.09,344.44,345.91,347.47,348.99,350.16,349.97,348.72,346.72,344.18,341.51,338.32,334.59,330.43,326.39
e,e,e,e,e,e,e,e,e,e,e,e,e,e,e,e,e,e,e,e,e,e,e,e,e,e,e,e,e,e,e,e,e,e,e,e,e,e,e,e,e,e,e,e,e,e,e,e,e,e,e,e,e,e,e,e,e,e,e,e,e,e,e,e,e,e,e,e,e,e,e,e,e,e,e,e,e,e,e,e,e,e,e,e,e,e,e,e,e,e,e,e,e,e,e,e,e,e,e,e,e,e,e,e,e,e,e,e,e,e,e,e,e,e,e,e,e,e,e,e,e,0.40,0.58,1.33,2.14,2.98,3.81,4.64,5.66,6.91,8.33,10.27,14.07,18.07,22.32,26.99,32.02,36.20,39.43,42.35,45.80,49.92,54.05,57.88,61.20,63.86,64.92,66.00,68.08,71.95,75.25,78.81,82.81,87.33,92.52,98.13,102.88,106.44,109.87,115.03,120.55,126.30,132.76,139.59,146.52,153.43,160.36,167.56,173.88,180.01,185.88,190.58,193.68,196.13,198.05,199.23,200.09,200.21,199.82,199.13,198.51,198.24,198.23,198.59,199.72,201.48,204.40,207.80,211.15,214.19,217.66,220.27,222.00,223.81,225.72,226.96,227.83,228.88,230.31,233.42,237.25,241.31,245.38,248.88,251.32,253.09,254.91,256.81,258.45,259.80,260.87,261.92,262.36,262.54,262.90,264.17,266.22,269.12,272.67,276.56,279.62,282.34,285.47,288.95,291.59,294.34,297.19,300.08,303.04,306.58,310.41,314.35,318.16,321.31,323.99,326.58,329.33,332.62,336.16,339.02,341.09,342.39,343.54,344.98,346.63,348.46,350.37,350.74,350.02,348.44,345.94,343.29,340.35,336.67,332.01,327.40
e,e,e,e,e,e,e,e,e,e,e,e,e,e,e,e,e,e,e,e,e,e,e,e,e,e,e,e,e,e,e,e,e,e,e,e,e,e,e,e,e,e,e,e,e,e,e,e,e,e,e,e,e,e,e,e,e,e,e,e,e,e,e,e,e,e,e,e,e,e,e,e,e,e,e,e,e,e,e,e,e,e,e,e,e,e,e,e,e,e,e,e,e,e,e,e,e,e,e,e,e,e,e,e,e,e,e,e,e,e,e,e,e,e,e,e,e,e,e,e,e,e,e,0.76,1.42,2.21,3.04,4.01,5.34,6.77,8.25,10.13,13.56,16.95,20.43,24.20,28.19,32.20,35.75,39.15,42.96,47.07,50.98,54.00,55.89,57.53,58.39,59.95,63.08,68.44,73.01,77.25,81.86,87.30,92.89,98.13,102.28,105.30,108.34,112.95,118.56,124.65,130.91,137.35,143.88,150.75,158.20,166.03,172.77,179.08,185.09,190.22,193.52,196.48,199.02,200.75,202.61,202.78,201.97,200.85,200.38,200.09,199.99,200.37,201.70,203.52,205.99,208.86,211.89,214.84,217.89,220.26,221.90,223.36,224.87,226.06,227.09,228.17,229.31,231.75,235.08,238.93,242.69,246.36,249.48,251.98,253.92,255.92,257.63,258.67,258.91,259.16,259.32,259.59,260.12,261.14,263.25,265.94,268.91,272.12,275.82,279.24,282.75,286.50,290.08,293.11,296.06,299.15,302.55,306.37,310.39,314.36,318.13,321.61,324.44,327.04,329.58,332.11,335.12,337.89,340.03,341.17,342.04,343.26,344.94,347.26,350.27,351.00,350.75,349.80,347.52,344.77,341.93,338.37,333.64,328.93
e,e,e,e,e,e,e,e,e,e,e,e,e,e,e,e,e,e,e,e,e,e,e,e,e,e,e,e,e,e,e,e,e,e,e,e,e,e,e,e,e,e,e,e,e,e,e,e,e,e,e,e,e,e,e,e,e,e,e,e,e,e,e,e,e,e,e,e,e,e,e,e,e,e,e,e,e,e,e,e,e,e,e,e,e,e,e,e,e,e,e,e,e,e,e,e,e,e,e,e,e,e,e,e,e,e,e,e,e,e,e,e,e,e,e,e,e,e,e,e,e,e,e,0.63,0.94,1.49,2.52,3.79,5.19,6.61,8.05,9.78,12.57,15.65,18.91,22.38,26.09,30.13,33.88,37.42,41.08,44.94,47.95,49.92,50.99,52.49,55.29,58.53,62.60,68.81,73.69,78.00,82.83,88.67,93.35,98.18,102.15,104.98,107.72,111.62,116.81,122.81,129.09,135.41,141.68,148.21,155.37,163.42,170.84,177.73,184.09,189.48,193.03,196.27,199.11,201.03,202.45,202.55,201.98,201.33,201.43,201.55,201.63,202.03,203.37,204.89,207.03,209.57,212.36,215.15,217.93,220.11,221.64,222.93,224.09,225.44,226.78,227.86,228.94,230.95,233.81,237.36,240.98,244.59,248.09,251.17,253.26,254.87,255.55,255.74,255.81,256.06,256.47,256.98,257.60,258.56,260.59,263.34,266.40,269.53,273.25,276.96,280.69,284.55,288.64,292.10,295.31,298.59,302.27,306.34,310.41,314.41,318.27,321.84,324.89,327.62,329.98,331.80,334.58,336.79,338.36,339.55,340.38,341.65,343.67,346.53,349.69,350.84,351.01,350.53,348.93,346.27,343.31,339.75,335.25,330.59
e,e,e,e,e,e,e,e,e,e,e,e,e,e,e,e,e,e,e,e,e,e,e,e,e,e,e,e,e,e,e,e,e,e,e,e,e,e,e,e,e,e,e,e,e,e,e,e,e,e,e,e,e,e,e,e,e,e,e,e,e,e,e,e,e,e,e,e,e,e,e,e,e,e,e,e,e,e,e,e,e,e,e,e,e,e,e,e,e,e,e,e,e,e,e,e,e,e,e,e,e,e,e,e,e,e,e,e,e,e,e,e,e,e,e,e,e,e,e,e,e,e,e,e,0.50,1.07,2.02,3.46,4.84,6.19,7.55,9.08,11.22,14.09,17.32,20.86,25.02,29.16,32.76,36.08,39.50,42.79,44.76,45.88,46.93,49.52,54.35,59.21,64.07,70.32,75.34,79.94,84.95,90.52,94.37,98.54,102.12,104.77,107.28,110.45,115.16,121.04,127.34,133.63,139.74,145.88,152.58,160.80,168.89,176.34,182.92,188.27,192.09,195.44,198.36,200.40,201.27,201.15,200.68,200.35,200.88,201.53,201.97,202.58,204.05,205.50,207.42,209.75,212.39,215.01,217.55,219.63,221.19,222.32,223.26,224.71,226.34,227.61,228.74,230.41,232.95,236.30,239.76,243.31,247.01,250.39,252.49,253.32,252.94,252.44,252.51,253.02,253.80,254.50,255.16,256.29,258.39,261.33,264.64,268.02,271.75,275.50,279.27,283.19,287.56,291.38,294.85,298.29,302.15,306.36,310.47,314.51,318.46,322.02,325.23,328.08,330.34,331.72,334.16,335.96,337.26,338.57,339.51,340.79,343.01,346.19,349.17,350.65,351.16,350.99,350.04,347.65,344.61,341.08,336.98,332.43
e,e,e,e,e,e,e,e,e,e,e,e,e,e,e,e,e,e,e,e,e,e,e,e,e,e,e,e,e,e,e,e,e,e,e,e,e,e,e,e,e,e,e,e,e,e,e,e,e,e,e,e,e,e,e,e,e,e,e,e,e,e,e,e,e,e,e,e,e,e,e,e,e,e,e,e,e,e,e,e,e,e,e,e,e,e,e,e,e,e,e,e,e,e,e,e,e,e,e,e,e,e,e,e,e,e,e,e,e,e,e,e,e,e,e,e,e,e,e,e,e,e,e,e,e,1.14,1.52,2.82,4.12,5.39,6.66,7.99,9.61,12.28,15.51,19.38,24.51,28.87,32.04,34.73,37.82,40.19,41.25,42.05,43.96,48.98,55.14,61.02,66.47,71.97,77.24,82.55,87.73,92.38,95.96,99.27,102.11,104.48,106.87,109.36,113.69,119.49,125.73,132.03,138.09,143.95,150.20,158.57,167.29,175.09,181.55,186.51,190.54,193.82,196.62,198.76,199.33,198.86,198.09,197.58,198.20,199.34,200.36,201.50,203.34,205.09,206.94,209.17,211.80,214.25,216.54,218.66,220.43,221.45,222.33,223.76,225.52,227.22,228.48,229.97,232.34,235.64,238.94,242.50,246.19,249.52,251.37,251.14,250.08,249.27,249.38,250.18,251.29,252.08,252.75,254.31,256.80,259.99,263.61,267.49,271.38,274.98,278.60,282.53,287.00,291.05,294.69,298.25,302.15,306.40,310.57,314.67,318.66,322.17,325.38,328.27,330.60,332.03,333.94,335.75,337.36,338.80,339.96,341.14,343.22,346.31,348.94,350.58,351.26,351.27,350.72,348.84,345.88,342.48,338.85,334.51
e,e,e,e,e,e,e,e,e,e,e,e,e,e,e,e,e,e,e,e,e,e,e,e,e,e,e,e,e,e,e,e,e,e,e,e,e,e,e,e,e,e,e,e,e,e,e,e,e,e,e,e,e,e,e,e,e,e,e,e,e,e,e,e,e,e,e,e,e,e,e,e,e,e,e,e,e,e,e,e,e,e,e,e,e,e,e,e,e,e,e,e,e,e,e,e,e,e,e,e,e,e,e,e,e,e,e,e,e,e,e,e,e,e,e,e,e,e,e,e,e,e,e,e,e,1.10,1.38,1.94,3.00,4.26,5.59,7.00,8.54,10.64,13.59,17.47,22.13,27.21,30.85,33.12,34.71,36.32,37.24,38.52,41.71,48.92,55.26,61.12,66.89,72.66,78.29,83.55,88.41,92.78,96.47,99.60,102.26,104.52,106.77,109.05,113.15,118.69,124.64,130.87,137.15,142.99,148.75,156.80,166.36,174.28,180.01,184.59,188.26,191.36,193.96,195.66,195.62,194.85,193.92,193.26,193.71,195.06,196.96,199.17,201.51,203.41,205.36,207.61,210.18,212.63,214.71,216.87,219.01,220.53,221.46,222.75,224.43,226.30,227.94,229.46,231.74,234.97,238.28,241.81,245.42,248.46,249.66,249.02,247.60,246.61,246.74,247.56,248.71,249.57,250.45,252.66,255.53,259.08,263.22,267.75,271.59,274.99,278.47,282.38,286.91,291.06,294.76,298.29,302.15,306.36,310.62,314.82,318.84,322.27,325.36,328.21,330.78,333.00,335.42,337.56,339.30,340.57,341.70,342.88,344.60,346.96,349.27,350.64,351.22,351.30,351.01,349.87,347.26,343.99,340.64,337.03
e,e,e,e,e,e,e,e,e,e,e,e,e,e,e,e,e,e,e,e,e,e,e,e,e,e,e,e,e,e,e,e,e,e,e,e,e,e,e,e,e,e,e,e,e,e,e,e,e,e,e,e,e,e,e,e,e,e,e,e,e,e,e,e,e,e,e,e,e,e,e,e,e,e,e,e,e,e,e,e,e,e,e,e,e,e,e,e,e,e,e,e,e,e,e,e,e,e,e,e,e,e,e,e,e,e,e,e,e,e,e,e,e,e,e,e,e,e,e,e,e,e,e,e,e,e,e,1.41,2.03,3.12,4.53,6.01,7.57,9.34,12.00,15.67,19.73,24.82,28.46,30.43,31.27,32.34,33.73,36.02,40.16,47.31,53.47,59.44,65.61,71.86,77.86,83.04,87.57,91.65,95.70,99.33,102.28,104.58,106.84,109.20,113.15,118.32,123.89,129.95,136.49,142.51,148.07,155.82,165.28,172.88,178.11,182.39,185.70,188.57,190.87,192.01,191.56,190.64,189.66,188.96,189.30,190.65,192.83,195.49,198.27,200.70,202.91,205.20,207.74,210.32,212.54,214.73,216.95,218.97,220.41,221.76,223.32,225.24,227.10,228.80,231.13,234.33,237.66,241.13,244.45,246.94,247.35,246.42,244.98,244.04,244.21,245.03,246.17,247.31,248.70,251.14,254.27,258.09,262.70,268.00,271.91,275.21,278.63,282.57,287.22,291.38,295.06,298.58,302.39,306.35,310.40,314.52,318.59,322.01,325.03,327.89,330.71,333.68,336.68,339.15,341.01,342.27,343.50,344.84,346.37,348.14,349.91,350.84,351.22,351.28,351.13,350.48,348.09,345.03,342.22,339.44
e,e,e,e,e,e,e,e,e,e,e,e,e,e,e,e,e,e,e,e,e,e,e,e,e,e,e,e,e,e,e,e,e,e,e,e,e,e,e,e,e,e,e,e,e,e,e,e,e,e,e,e,e,e,e,e,e,e,e,e,e,e,e,e,e,e,e,e,e,e,e,e,e,e,e,e,e,e,e,e,e,e,e,e,e,e,e,e,e,e,e,e,e,e,e,e,e,e,e,e,e,e,e,e,e,e,e,e,e,e,e,e,e,e,e,e,e,e,e,e,e,e,e,e,e,e,e,e,1.23,2.14,3.50,5.01,6.65,8.40,10.83,14.05,17.72,21.96,24.91,26.67,27.87,28.93,31.36,34.99,39.59,44.63,50.32,56.53,63.09,69.74,76.00,81.27,85.62,89.40,93.97,98.56,102.17,104.66,107.12,109.78,113.60,118.34,123.51,129.36,136.07,142.39,148.07,155.59,163.80,170.65,175.79,179.82,182.93,185.55,187.43,188.02,187.43,186.50,185.59,185.00,185.32,186.53,188.36,190.72,193.75,196.97,199.59,201.99,204.53,207.35,210.01,212.28,214.34,216.71,219.01,220.70,222.24,224.17,226.05,227.99,230.45,233.59,236.94,240.36,243.25,244.98,244.61,243.45,242.24,241.56,241.79,242.63,243.80,245.46,247.53,249.78,253.00,256.95,261.93,268.00,272.15,275.51,278.99,283.03,287.85,291.92,295.55,299.08,302.78,306.29,309.79,313.60,317.73,321.20,324.24,327.16,330.18,333.57,337.07,339.86,341.88,343.27,344.74,346.32,347.94,349.44,350.58,351.12,351.29,351.28,351.14,350.64,348.36,345.63,343.58,341.58
e,e,e,e,e,e,e,e,e,e,e,e,e,e,e,e,e,e,e,e,e,e,e,e,e,e,e,e,e,e,e,e,e,e,e,e,e,e,e,e,e,e,e,e,e,e,e,e,e,e,e,e,e,e,e,e,e,e,e,e,e,e,e,e,e,e,e,e,e,e,e,e,e,e,e,e,e,e,e,e,e,e,e,e,e,e,e,e,e,e,e,e,e,e,e,e,e,e,e,e,e,e,e,e,e,e,e,e,e,e,e,e,e,e,e,e,e,e,e,e,e,e,e,e,e,e,e,e,e,1.78,2.47,4.13,5.95,7.82,9.96,12.57,15.90,19.23,21.42,23.00,25.09,27.88,31.74,36.39,41.35,45.35,49.80,55.22,61.46,67.88,73.94,79.28,83.91,88.03,92.96,98.06,102.12,104.98,107.87,110.87,114.48,118.80,123.87,129.60,136.25,142.59,148.28,155.31,161.74,167.74,173.00,176.56,179.76,182.19,183.58,183.60,182.97,182.16,181.44,181.01,181.26,182.52,184.23,186.31,188.98,192.09,195.25,198.12,200.65,203.67,206.61,209.21,211.59,214.09,216.64,219.03,221.24,223.27,225.24,227.19,229.41,232.14,235.69,239.25,241.85,243.06,242.38,241.07,240.06,239.62,239.89,240.59,242.16,244.17,246.40,248.79,251.94,255.97,261.22,267.69,272.07,275.60,279.27,283.57,288.50,292.42,295.95,299.35,302.66,305.70,308.60,311.90,315.82,319.40,322.44,325.32,328.30,331.68,335.71,339.18,341.55,342.54,343.88,345.55,347.35,349.07,350.38,351.07,351.30,351.27,351.09,350.61,348.83,346.69,344.97,343.30
e,e,e,e,e,e,e,e,e,e,e,e,e,e,e,e,e,e,e,e,e,e,e,e,e,e,e,e,e,e,e,e,e,e,e,e,e,e,e,e,e,e,e,e,e,e,e,e,e,e,e,e,e,e,e,e,e,e,e,e,e,e,e,e,e,e,e,e,e,e,e,e,e,e,e,e,e,e,e,e,e,e,e,e,e,e,e,e,e,e,e,e,e,e,e,e,e,e,e,e,e,e,e,e,e,e,e,e,e,e,e,e,e,e,e,e,e,e,e,e,e,e,e,e,e,e,e,e,e,0.87,1.51,3.31,5.21,7.29,9.47,11.92,15.05,17.79,20.09,22.55,25.96,30.05,34.76,39.61,44.18,47.86,51.79,56.48,61.90,67.73,73.33,78.56,83.39,87.90,93.05,98.38,102.75,105.97,109.10,112.28,115.70,119.66,124.64,130.16,136.34,142.34,147.87,153.97,158.84,163.83,168.94,172.90,175.90,178.00,179.09,178.90,178.24,177.50,176.83,176.40,176.57,177.73,179.55,181.81,184.48,187.64,191.10,194.34,197.22,200.51,203.74,206.73,209.55,212.39,215.14,217.97,220.53,222.47,224.44,226.41,228.35,230.50,233.55,237.15,239.61,240.59,240.02,238.94,238.16,238.01,238.60,239.41,241.11,243.25,245.56,247.98,250.83,255.01,260.53,266.95,271.58,275.39,279.32,283.80,288.72,292.50,295.84,299.00,301.87,304.51,307.02,309.83,313.25,316.90,320.22,323.25,326.18,329.36,332.78,336.36,339.27,340.72,342.40,344.25,346.15,348.05,349.78,350.88,351.30,351.26,351.07,350.69,349.59,348.13,346.57,345.05
e,e,e,e,e,e,e,e,e,e,e,e,e,e,e,e,e,e,e,e,e,e,e,e,e,e,e,e,e,e,e,e,e,e,e,e,e,e,e,e,e,e,e,e,e,e,e,e,e,e,e,e,e,e,e,e,e,e,e,e,e,e,e,e,e,e,e,e,e,e,e,e,e,e,e,e,e,e,e,e,e,e,e,e,e,e,e,e,e,e,e,e,e,e,e,e,e,e,e,e,e,e,e,e,e,e,e,e,e,e,e,e,e,e,e,e,e,e,e,e,e,e,e,e,e,e,e,e,e,0.07,0.76,2.54,4.48,6.83,9.36,12.08,15.23,17.81,20.97,24.93,29.62,34.38,39.34,43.85,47.67,51.54,55.59,59.76,64.20,69.22,74.23,79.28,84.22,89.00,94.27,99.44,103.85,107.35,110.53,113.71,116.92,120.58,125.37,130.56,135.95,141.26,146.35,151.34,155.05,159.05,163.81,168.73,171.36,173.13,174.16,174.04,173.36,172.65,171.89,171.25,171.38,172.53,174.76,177.65,180.73,184.17,187.78,191.36,194.83,198.45,201.90,205.19,208.39,211.63,214.63,217.64,220.20,221.92,223.78,225.69,227.38,228.94,231.04,234.29,236.62,237.61,237.46,237.08,236.82,237.08,238.04,239.06,240.65,242.70,245.03,247.34,249.77,254.13,259.88,265.89,270.78,274.91,279.04,283.55,288.38,292.06,295.22,298.07,300.51,302.84,305.16,307.60,310.39,313.96,317.79,321.21,324.19,327.08,329.24,332.29,335.66,338.30,340.85,342.98,344.95,346.97,349.12,350.69,351.32,351.27,351.09,350.87,350.45,349.62,348.25,346.75
e,e,e,e,e,e,e,e,e,e,e,e,e,e,e,e,e,e,e,e,e,e,e,e,e,e,e,e,e,e,e,e,e,e,e,e,e,e,e,e,e,e,e,e,e,e,e,e,e,e,e,e,e,e,e,e,e,e,e,e,e,e,e,e,e,e,e,e,e,e,e,e,e,e,e,e,e,e,e,e,e,e,e,e,e,e,e,e,e,e,e,e,e,e,e,e,e,e,e,e,e,e,e,e,e,e,e,e,e,e,e,e,e,e,e,e,e,e,e,e,e,e,e,e,e,e,e,e,e,e,e,1.75,4.09,6.71,9.68,13.06,16.54,19.86,23.99,28.66,33.24,38.20,43.03,47.48,51.60,56.02,59.89,63.78,67.88,72.16,76.72,81.78,86.90,91.77,97.08,101.14,104.74,108.22,111.39,114.34,117.24,120.55,124.93,129.58,134.08,138.24,142.15,146.61,150.00,153.59,158.03,163.35,166.00,167.98,169.25,169.15,168.55,167.87,166.93,165.97,166.14,168.26,171.58,175.39,179.08,182.89,187.00,191.14,195.10,198.99,202.26,205.36,208.50,211.71,214.94,218.09,220.66,222.15,223.73,225.20,226.61,228.05,229.66,231.51,233.13,234.23,234.70,235.84,237.22,238.31,238.89,239.59,240.99,242.82,244.90,247.09,249.18,253.67,259.43,264.80,269.84,274.09,278.13,282.36,287.08,290.88,294.00,296.61,298.73,300.82,303.07,305.47,308.08,311.02,315.37,319.52,322.88,325.55,327.50,329.60,332.39,336.19,339.92,342.57,344.80,346.98,349.18,350.80,351.42,351.32,351.11,350.93,350.72,350.32,349.50,347.95
e,e,e,e,e,e,e,e,e,e,e,e,e,e,e,e,e,e,e,e,e,e,e,e,e,e,e,e,e,e,e,e,e,e,e,e,e,e,e,e,e,e,e,e,e,e,e,e,e,e,e,e,e,e,e,e,e,e,e,e,e,e,e,e,e,e,e,e,e,e,e,e,e,e,e,e,e,e,e,e,e,e,e,e,e,e,e,e,e,e,e,e,e,e,e,e,e,e,e,e,e,e,e,e,e,e,e,e,e,e,e,e,e,e,e,e,e,e,e,e,e,e,e,e,e,e,e,e,e,e,e,1.13,3.63,6.37,9.46,13.06,17.05,21.07,25.92,31.15,35.98,41.18,46.23,51.00,55.59,60.45,64.48,68.29,72.10,75.96,80.53,85.52,90.45,94.97,99.28,102.50,105.58,108.74,111.47,114.19,116.83,119.71,123.37,127.37,130.96,134.22,137.50,141.57,144.99,148.47,152.62,157.86,161.15,163.37,164.55,164.32,163.66,162.77,161.55,160.67,162.25,165.93,170.66,175.43,179.28,183.43,187.83,192.23,196.40,200.17,203.29,206.23,209.31,212.76,216.22,219.14,221.30,222.61,223.97,225.23,226.53,227.90,229.28,230.50,232.13,233.89,235.16,236.88,238.56,239.66,239.98,240.46,241.51,243.21,245.43,247.81,249.86,253.93,259.00,263.58,268.56,272.89,276.73,280.38,284.45,289.01,292.53,294.97,296.94,298.92,301.15,303.62,306.32,309.16,313.68,318.25,321.98,324.41,326.52,328.51,331.24,335.51,339.58,342.39,344.73,347.02,349.26,350.81,351.35,351.22,351.03,350.90,350.77,350.59,350.06,348.45
e,e,e,e,e,e,e,e,e,e,e,e,e,e,e,e,e,e,e,e,e,e,e,e,e,e,e,e,e,e,e,e,e,e,e,e,e,e,e,e,e,e,e,e,e,e,e,e,e,e,e,e,e,e,e,e,e,e,e,e,e,e,e,e,e,e,e,e,e,e,e,e,e,e,e,e,e,e,e,e,e,e,e,e,e,e,e,e,e,e,e,e,e,e,e,e,e,e,e,e,e,e,e,e,e,e,e,e,e,e,e,e,e,e,e,e,e,e,e,e,e,e,e,e,e,e,e,e,e,e,e,0.76,3.05,5.74,8.82,12.40,16.76,21.30,26.68,32.46,37.86,43.32,48.73,53.95,59.05,64.63,69.06,72.90,76.53,80.28,84.94,89.65,94.12,98.04,100.91,103.54,106.24,108.88,110.94,113.35,115.77,118.25,121.11,124.39,127.15,129.74,132.62,136.20,139.74,143.46,147.65,152.50,156.42,158.71,159.51,158.93,158.03,156.97,155.89,155.82,159.42,164.75,170.84,176.51,180.50,184.94,189.46,193.92,198.15,201.54,204.55,207.43,210.51,214.32,217.90,220.33,221.93,223.11,224.34,225.59,226.86,228.16,229.47,230.77,232.88,235.44,237.46,239.09,240.29,241.01,241.24,241.60,242.24,243.77,246.17,248.86,251.05,254.42,258.41,262.26,267.06,271.40,275.05,278.07,281.30,286.62,290.77,293.34,295.31,297.28,299.59,302.21,305.13,308.18,312.68,317.42,321.45,323.79,326.19,328.57,331.56,335.81,339.67,342.37,344.68,346.99,349.04,350.38,350.83,350.69,350.50,350.46,350.45,350.39,350.00,348.47
e,e,e,e,e,e,e,e,e,e,e,e,e,e,e,e,e,e,e,e,e,e,e,e,e,e,e,e,e,e,e,e,e,e,e,e,e,e,e,e,e,e,e,e,e,e,e,e,e,e,e,e,e,e,e,e,e,e,e,e,e,e,e,e,e,e,e,e,e,e,e,e,e,e,e,e,e,e,e,e,e,e,e,e,e,e,e,e,e,e,e,e,e,e,e,e,e,e,e,e,e,e,e,e,e,e,e,e,e,e,e,e,e,e,e,e,e,e,e,e,e,e,e,e,e,e,e,e,e,e,e,e,2.29,4.71,7.93,11.52,15.65,20.33,26.09,32.44,38.52,44.09,49.56,54.91,60.58,68.09,73.03,77.02,80.91,84.90,88.99,92.95,96.69,99.98,102.17,104.21,106.30,108.27,109.69,111.54,113.78,116.16,118.45,120.97,123.18,125.20,127.26,129.83,133.30,138.02,143.33,147.53,150.76,152.56,152.78,151.27,149.86,149.30,150.05,152.61,157.43,163.66,170.40,176.81,181.94,186.48,191.03,195.60,199.84,202.86,205.70,208.65,211.95,215.84,219.01,220.99,222.28,223.46,224.69,225.97,227.24,228.50,229.81,231.85,234.40,237.06,239.26,240.66,241.75,242.51,242.88,243.10,243.41,244.41,246.28,248.96,251.44,254.22,257.30,260.80,265.46,269.70,273.21,276.03,278.95,283.67,288.35,292.07,294.19,296.36,298.93,301.84,304.99,308.11,312.59,317.34,321.53,324.34,327.00,329.63,332.69,336.59,340.14,342.64,344.81,346.78,347.81,348.65,348.99,348.86,348.54,348.73,349.02,349.21,349.06,348.13
e,e,e,e,e,e,e,e,e,e,e,e,e,e,e,e,e,e,e,e,e,e,e,e,e,e,e,e,e,e,e,e,e,e,e,e,e,e,e,e,e,e,e,e,e,e,e,e,e,e,e,e,e,e,e,e,e,e,e,e,e,e,e,e,e,e,e,e,e,e,e,e,e,e,e,e,e,e,e,e,e,e,e,e,e,e,e,e,e,e,e,e,e,e,e,e,e,e,e,e,e,e,e,e,e,e,e,e,e,e,e,e,e,e,e,e,e,e,e,e,e,e,e,e,e,e,e,e,e,e,e,e,2.22,4.62,7.69,10.90,15.03,20.09,26.42,33.33,39.71,45.26,50.57,55.91,61.89,69.98,75.52,79.94,84.01,87.87,91.31,94.94,98.35,100.92,102.65,103.91,105.14,106.47,107.77,109.36,111.34,113.51,115.55,117.55,119.29,120.88,122.41,124.28,127.98,132.95,138.24,142.19,144.75,145.89,145.73,144.44,143.61,143.74,145.88,150.35,156.08,162.79,169.89,176.71,182.39,187.16,191.92,196.62,200.86,203.94,206.81,209.94,213.44,217.18,219.80,221.44,222.63,223.80,225.03,226.31,227.62,228.94,230.52,232.96,235.68,238.32,240.46,241.89,243.04,243.97,244.56,244.75,245.02,245.40,246.20,248.15,250.25,252.77,255.73,259.25,263.69,267.99,271.61,274.50,277.46,281.47,286.14,290.47,293.03,295.56,298.56,301.85,305.21,308.46,312.98,317.71,321.93,325.03,327.88,330.78,333.94,337.45,340.61,342.70,344.12,345.04,345.59,346.13,346.40,346.34,346.11,346.49,346.98,347.43,347.62,347.05
e,e,e,e,e,e,e,e,e,e,e,e,e,e,e,e,e,e,e,e,e,e,e,e,e,e,e,e,e,e,e,e,e,e,e,e,e,e,e,e,e,e,e,e,e,e,e,e,e,e,e,e,e,e,e,e,e,e,e,e,e,e,e,e,e,e,e,e,e,e,e,e,e,e,e,e,e,e,e,e,e,e,e,e,e,e,e,e,e,e,e,e,e,e,e,e,e,e,e,e,e,e,e,e,e,e,e,e,e,e,e,e,e,e,e,e,e,e,e,e,e,e,e,e,e,e,e,e,e,e,e,e,2.48,4.90,7.69,10.48,14.84,20.44,27.37,34.77,41.39,46.99,52.16,57.50,63.60,71.17,77.09,81.93,86.12,89.74,92.58,95.85,98.88,100.72,102.21,102.77,103.23,104.03,105.38,106.91,108.70,110.63,112.51,114.14,115.55,116.85,118.10,119.53,123.23,127.93,132.71,136.54,138.63,139.29,139.14,138.75,138.91,139.97,143.16,148.72,155.01,162.01,169.31,176.29,182.13,187.18,192.18,197.03,201.34,204.66,207.75,211.09,214.72,218.25,220.37,221.78,222.95,224.13,225.37,226.65,227.95,229.38,231.35,234.00,236.79,239.35,241.31,242.90,244.20,245.33,246.17,246.46,246.82,246.75,246.55,247.48,248.78,250.92,253.82,257.47,261.69,266.10,270.00,273.22,276.35,279.78,284.15,288.71,291.89,294.89,298.34,301.97,305.50,308.92,313.43,318.09,322.29,325.61,328.67,331.76,334.94,338.06,340.75,342.27,342.81,342.69,342.92,343.26,343.48,343.54,343.56,344.08,344.73,345.41,345.93,345.63
e,e,e,e,e,e,e,e,e,e,e,e,e,e,e,e,e,e,e,e,e,e,e,e,e,e,e,e,e,e,e,e,e,e,e,e,e,e,e,e,e,e,e,e,e,e,e,e,e,e,e,e,e,e,e,e,e,e,e,e,e,e,e,e,e,e,e,e,e,e,e,e,e,e,e,e,e,e,e,e,e,e,e,e,e,e,e,e,e,e,e,e,e,e,e,e,e,e,e,e,e,e,e,e,e,e,e,e,e,e,e,e,e,e,e,e,e,e,e,e,e,e,e,e,e,e,e,e,e,e,e,e,2.68,4.94,7.52,10.28,15.30,21.57,28.85,36.52,43.74,49.78,55.18,60.75,66.73,72.28,77.76,82.65,86.89,90.51,92.90,95.16,97.06,98.27,99.91,100.37,100.61,101.23,102.48,104.08,105.91,107.72,109.27,110.71,112.11,113.43,114.69,116.11,118.69,122.51,126.92,130.47,132.59,133.58,134.24,135.20,136.19,138.72,142.65,147.87,154.04,161.22,168.57,175.41,181.04,186.24,191.38,196.39,200.97,204.62,208.14,211.68,215.25,218.66,220.63,222.02,223.24,224.47,225.71,226.95,228.20,229.68,232.03,234.89,237.72,240.17,241.93,243.60,245.13,246.50,247.57,248.16,248.63,248.74,248.51,248.37,248.61,249.49,251.44,255.03,259.14,263.63,268.07,272.09,275.30,278.51,282.51,286.96,290.94,294.46,298.21,301.99,305.60,309.20,313.49,317.91,322.10,325.72,329.10,332.09,334.96,337.85,339.91,340.64,340.70,340.45,340.16,340.31,340.53,340.78,341.17,341.75,342.55,343.41,344.08,344.10
e,e,e,e,e,e,e,e,e,e,e,e,e,e,e,e,e,e,e,e,e,e,e,e,e,e,e,e,e,e,e,e,e,e,e,e,e,e,e,e,e,e,e,e,e,e,e,e,e,e,e,e,e,e,e,e,e,e,e,e,e,e,e,e,e,e,e,e,e,e,e,e,e,e,e,e,e,e,e,e,e,e,e,e,e,e,e,e,e,e,e,e,e,e,e,e,e,e,e,e,e,e,e,e,e,e,e,e,e,e,e,e,e,e,e,e,e,e,e,e,e,e,e,e,e,e,e,e,e,e,e,e,2.72,3.38,5.09,9.15,15.03,22.21,29.89,37.81,45.75,52.12,57.65,63.14,68.71,73.41,77.95,82.12,85.83,88.95,90.91,92.31,93.34,94.14,95.48,96.34,97.22,98.38,99.78,101.39,103.14,104.85,106.31,107.67,109.08,110.38,111.58,113.13,115.46,118.48,121.71,124.33,127.04,129.26,131.26,133.38,135.53,138.47,142.53,147.80,153.91,161.13,168.06,174.16,179.25,184.45,189.72,194.86,199.56,203.40,207.05,210.62,214.13,217.50,219.95,221.56,222.79,224.03,225.51,226.96,228.31,229.84,232.47,235.55,238.43,240.82,242.49,244.18,245.83,247.38,248.74,249.74,250.44,250.65,250.40,250.02,249.95,250.28,251.45,254.08,257.50,261.49,266.07,270.83,274.20,277.42,281.16,285.36,289.64,293.84,298.06,302.05,305.68,309.32,313.49,317.73,321.80,325.50,329.01,331.87,334.16,335.90,336.59,336.59,336.29,335.93,335.86,336.06,336.54,337.25,338.19,339.17,340.22,341.26,342.13,342.56
e,e,e,e,e,e,e,e,e,e,e,e,e,e,e,e,e,e,e,e,e,e,e,e,e,e,e,e,e,e,e,e,e,e,e,e,e,e,e,e,e,e,e,e,e,e,e,e,e,e,e,e,e,e,e,e,e,e,e,e,e,e,e,e,e,e,e,e,e,e,e,e,e,e,e,e,e,e,e,e,e,e,e,e,e,e,e,e,e,e,e,e,e,e,e,e,e,e,e,e,e,e,e,e,e,e,e,e,e,e,e,e,e,e,e,e,e,e,e,e,e,e,e,e,e,e,e,e,e,e,e,e,e,0.41,2.63,7.68,14.15,22.21,30.34,38.53,47.06,53.69,59.34,64.71,69.84,73.96,77.44,80.74,83.83,86.25,87.81,88.62,89.08,89.64,90.73,92.22,93.94,95.79,97.59,99.38,101.34,103.28,104.85,106.16,107.45,108.57,109.63,111.54,113.91,116.23,118.28,120.16,123.47,126.73,129.68,132.47,135.51,138.42,142.40,147.86,154.05,161.28,167.77,173.13,177.48,182.42,187.76,192.94,197.53,201.50,205.21,208.79,212.27,215.65,218.69,220.69,222.03,223.29,225.02,226.74,228.27,229.93,232.75,236.05,239.01,241.35,243.00,244.69,246.39,248.06,249.65,251.05,252.08,252.47,252.31,252.02,251.93,252.09,252.70,254.17,256.53,259.72,264.17,269.44,273.06,276.40,280.01,283.99,288.33,293.04,297.75,302.03,305.69,309.35,313.35,317.38,321.25,324.91,328.33,330.97,332.68,333.17,332.27,331.39,330.75,330.45,330.79,331.36,332.38,333.76,335.18,336.47,337.70,338.88,339.90,340.46
e,e,e,e,e,e,e,e,e,e,e,e,e,e,e,e,e,e,e,e,e,e,e,e,e,e,e,e,e,e,e,e,e,e,e,e,e,e,e,e,e,e,e,e,e,e,e,e,e,e,e,e,e,e,e,e,e,e,e,e,e,e,e,e,e,e,e,e,e,e,e,e,e,e,e,e,e,e,e,e,e,e,e,e,e,e,e,e,e,e,e,e,e,e,e,e,e,e,e,e,e,e,e,e,e,e,e,e,e,e,e,e,e,e,e,e,e,e,e,e,e,e,e,e,e,e,e,e,e,e,e,e,e,0.07,1.90,6.17,12.36,21.00,29.66,38.13,46.81,53.67,59.50,64.90,69.72,73.01,75.49,78.19,80.91,82.52,83.78,84.55,85.06,85.64,87.00,89.27,91.67,93.98,96.56,98.98,101.94,104.94,106.88,108.15,109.02,109.64,110.49,113.09,115.50,117.36,118.92,121.03,124.48,127.55,130.09,132.50,135.41,138.10,141.96,147.56,154.12,161.41,167.87,172.91,176.34,180.51,185.73,190.74,194.81,198.86,202.68,206.36,209.95,213.42,216.76,219.32,221.13,222.41,224.25,226.14,227.94,229.88,232.74,236.30,239.37,241.70,243.39,245.09,246.79,248.48,250.17,251.81,253.30,254.14,254.34,254.31,254.35,254.63,255.08,255.64,256.60,258.71,262.59,267.87,271.91,275.46,279.14,283.07,287.27,291.97,297.08,301.77,305.53,309.22,312.89,316.56,320.20,323.70,326.59,328.83,330.17,329.84,327.38,325.27,324.24,324.38,325.01,326.49,328.64,330.93,332.50,333.70,334.87,336.03,337.00,336.99
e,e,e,e,e,e,e,e,e,e,e,e,e,e,e,e,e,e,e,e,e,e,e,e,e,e,e,e,e,e,e,e,e,e,e,e,e,e,e,e,e,e,e,e,e,e,e,e,e,e,e,e,e,e,e,e,e,e,e,e,e,e,e,e,e,e,e,e,e,e,e,e,e,e,e,e,e,e,e,e,e,e,e,e,e,e,e,e,e,e,e,e,e,e,e,e,e,e,e,e,e,e,e,e,e,e,e,e,e,e,e,e,e,e,e,e,e,e,e,e,e,e,e,e,e,e,e,e,e,e,e,e,e,0.00,2.53,5.35,10.60,18.85,27.34,35.70,44.30,51.64,57.91,63.30,67.61,70.44,72.33,74.10,75.76,76.89,79.05,80.39,81.25,82.51,84.89,88.07,91.53,94.93,97.85,100.96,104.73,108.30,110.30,112.11,113.31,114.16,115.07,117.09,119.64,122.09,124.21,126.00,128.14,130.23,132.17,134.00,135.91,138.11,141.51,146.61,153.18,160.93,167.72,172.83,176.01,179.52,183.94,188.28,191.98,195.95,199.62,203.35,207.24,211.10,214.47,217.42,219.81,221.53,223.44,225.37,227.27,229.35,232.31,236.03,239.32,241.84,243.58,245.36,247.09,248.79,250.50,252.24,254.03,255.47,256.37,256.63,256.78,257.06,257.40,257.70,258.19,259.66,262.69,267.14,271.19,274.85,278.53,282.42,286.65,291.24,296.29,301.02,304.88,308.53,312.10,315.60,318.97,322.01,324.64,326.21,326.38,324.51,320.75,317.98,316.56,316.62,318.02,320.89,323.90,326.59,328.79,330.53,331.79,332.66,332.98,332.30
e,e,e,e,e,e,e,e,e,e,e,e,e,e,e,e,e,e,e,e,e,e,e,e,e,e,e,e,e,e,e,e,e,e,e,e,e,e,e,e,e,e,e,e,e,e,e,e,e,e,e,e,e,e,e,e,e,e,e,e,e,e,e,e,e,e,e,e,e,e,e,e,e,e,e,e,e,e,e,e,e,e,e,e,e,e,e,e,e,e,e,e,e,e,e,e,e,e,e,e,e,e,e,e,e,e,e,e,e,e,e,e,e,e,e,e,e,e,e,e,e,e,e,e,e,e,e,e,e,e,e,e,e,e,3.61,4.51,8.83,16.28,24.22,32.20,40.54,48.17,54.75,60.34,64.58,66.94,68.40,69.61,70.66,71.56,74.34,76.53,78.26,80.42,83.87,87.93,92.40,96.86,100.19,103.89,108.01,111.75,114.01,116.39,118.16,119.58,120.95,122.57,124.86,127.36,129.63,131.01,131.96,133.25,134.78,136.23,137.34,138.94,141.68,146.01,152.07,159.95,167.15,172.65,175.91,179.13,182.74,186.28,189.55,193.13,196.56,200.21,204.22,208.52,212.14,215.40,218.27,220.53,222.54,224.51,226.47,228.62,231.50,235.32,238.90,241.75,243.62,245.53,247.37,249.16,250.93,252.76,254.73,256.61,258.11,258.75,259.08,259.36,259.63,259.91,260.41,261.64,263.96,267.38,271.00,274.57,278.18,281.99,286.27,290.77,295.68,300.27,304.03,307.59,311.12,314.43,317.40,319.99,322.38,323.39,322.45,318.86,313.87,310.58,308.93,308.92,310.76,314.34,317.91,320.99,323.63,325.80,327.07,327.61,327.40,326.37
e,e,e,e,e,e,e,e,e,e,e,e,e,e,e,e,e,e,e,e,e,e,e,e,e,e,e,e,e,e,e,e,e,e,e,e,e,e,e,e,e,e,e,e,e,e,e,e,e,e,e,e,e,e,e,e,e,e,e,e,e,e,e,e,e,e,e,e,e,e,e,e,e,e,e,e,e,e,e,e,e,e,e,e,e,e,e,e,e,e,e,e,e,e,e,e,e,e,e,e,e,e,e,e,e,e,e,e,e,e,e,e,e,e,e,e,e,e,e,e,e,e,e,e,e,e,e,e,e,e,e,e,e,e,2.59,3.39,7.08,13.48,20.53,27.83,35.65,43.11,49.66,55.69,60.67,62.43,63.69,65.23,66.86,67.92,70.30,73.50,76.78,79.89,84.13,88.90,94.01,99.07,103.14,107.18,110.97,114.42,117.41,120.14,122.49,124.73,127.00,129.12,130.42,131.62,132.88,133.94,134.75,135.95,137.48,139.06,140.15,141.12,143.04,146.45,151.31,158.49,165.98,172.21,175.73,179.29,182.41,185.23,187.90,190.68,193.88,197.25,200.96,205.57,209.92,213.46,216.50,219.30,221.50,223.58,225.65,227.79,230.27,234.09,238.04,241.37,243.52,245.62,247.72,249.74,251.65,253.61,255.60,257.56,259.28,260.40,261.09,261.49,261.76,262.12,262.98,264.46,266.47,268.94,271.61,274.78,278.19,281.89,286.17,290.61,295.47,299.80,303.08,306.52,309.96,312.87,315.24,317.54,319.53,320.28,318.71,313.62,307.49,303.72,302.08,302.31,303.78,306.55,310.17,313.82,316.33,318.49,319.53,319.84,319.63,318.84
e,e,e,e,e,e,e,e,e,e,e,e,e,e,e,e,e,e,e,e,e,e,e,e,e,e,e,e,e,e,e,e,e,e,e,e,e,e,e,e,e,e,e,e,e,e,e,e,e,e,e,e,e,e,e,e,e,e,e,e,e,e,e,e,e,e,e,e,e,e,e,e,e,e,e,e,e,e,e,e,e,e,e,e,e,e,e,e,e,e,e,e,e,e,e,e,e,e,e,e,e,e,e,e,e,e,e,e,e,e,e,e,e,e,e,e,e,e,e,e,e,e,e,e,e,e,e,e,e,e,e,e,e,e,2.40,3.29,6.00,10.84,17.05,23.69,30.48,38.06,44.42,49.77,54.08,56.63,58.81,61.18,63.74,66.29,69.51,73.17,76.88,80.64,85.50,90.65,95.82,100.71,104.87,108.89,112.61,116.06,119.32,122.54,125.77,128.45,130.29,131.91,133.04,134.09,135.21,136.43,137.53,138.70,140.09,141.72,143.01,143.97,145.33,147.68,151.72,158.00,165.08,171.33,175.02,178.66,181.60,184.16,186.63,189.13,192.16,195.39,198.86,203.03,207.67,211.52,214.75,217.76,220.54,222.79,224.92,227.12,229.50,233.34,237.57,241.35,243.93,246.49,248.75,250.75,252.59,254.42,256.34,258.29,260.08,261.40,262.53,263.35,264.02,264.75,265.69,267.33,269.10,270.82,273.01,275.54,278.59,282.22,286.51,290.80,295.53,299.67,302.58,305.62,308.53,310.76,312.43,314.20,315.30,315.19,313.12,308.10,301.80,298.06,296.56,296.90,298.21,300.18,302.72,305.65,308.69,311.04,312.12,312.31,311.91,311.08
e,e,e,e,e,e,e,e,e,e,e,e,e,e,e,e,e,e,e,e,e,e,e,e,e,e,e,e,e,e,e,e,e,e,e,e,e,e,e,e,e,e,e,e,e,e,e,e,e,e,e,e,e,e,e,e,e,e,e,e,e,e,e,e,e,e,e,e,e,e,e,e,e,e,e,e,e,e,e,e,e,e,e,e,e,e,e,e,e,e,e,e,e,e,e,e,e,e,e,e,e,e,e,e,e,e,e,e,e,e,e,e,e,e,e,e,e,e,e,e,e,e,e,e,e,e,e,e,e,e,e,e,e,e,e,e,4.74,8.52,14.02,20.04,26.01,33.13,39.52,44.65,48.40,51.80,55.02,58.36,61.99,66.08,70.17,74.07,77.96,82.22,87.30,92.31,97.14,101.74,106.01,110.05,113.84,117.38,120.72,124.15,127.62,130.21,131.49,132.76,134.07,135.45,136.89,138.34,139.88,141.30,142.75,144.35,145.78,146.95,148.15,149.85,153.05,158.22,164.26,169.94,173.94,177.55,180.50,183.06,185.48,187.99,190.99,194.16,197.41,200.96,205.47,209.56,213.17,216.55,219.87,222.31,224.48,226.72,229.09,233.06,237.53,241.62,244.56,247.47,249.75,251.64,253.37,255.10,256.97,258.85,260.60,261.97,263.28,264.50,265.70,266.93,268.00,269.67,271.26,272.63,274.54,276.64,279.34,282.76,287.03,291.20,295.73,299.66,302.33,304.90,306.98,308.40,309.39,310.55,310.86,309.92,307.48,302.97,296.80,292.88,291.23,291.61,293.05,294.81,296.73,298.93,301.67,303.73,304.61,304.55,303.75,302.70
e,e,e,e,e,e,e,e,e,e,e,e,e,e,e,e,e,e,e,e,e,e,e,e,e,e,e,e,e,e,e,e,e,e,e,e,e,e,e,e,e,e,e,e,e,e,e,e,e,e,e,e,e,e,e,e,e,e,e,e,e,e,e,e,e,e,e,e,e,e,e,e,e,e,e,e,e,e,e,e,e,e,e,e,e,e,e,e,e,e,e,e,e,e,e,e,e,e,e,e,e,e,e,e,e,e,e,e,e,e,e,e,e,e,e,e,e,e,e,e,e,e,e,e,e,e,e,e,e,e,e,e,e,e,e,e,3.32,6.70,11.52,17.02,22.66,28.55,35.33,41.16,45.14,49.03,53.12,57.48,62.20,67.34,71.86,75.87,79.94,84.53,89.35,93.66,97.87,102.25,106.86,111.08,115.00,118.65,121.93,125.05,127.77,129.68,130.71,132.16,133.80,135.75,137.81,139.49,141.55,143.58,145.41,146.97,148.53,150.01,151.49,153.12,155.39,159.24,163.67,168.21,172.58,176.06,179.15,181.91,184.42,187.18,190.30,193.44,196.48,199.51,203.51,207.74,211.89,215.88,219.62,222.21,224.44,226.69,229.07,233.30,237.94,242.14,245.26,248.28,250.44,252.17,253.84,255.59,257.43,259.20,260.82,262.11,263.28,264.78,266.50,268.20,269.63,271.15,272.64,274.13,275.95,277.96,280.41,283.54,287.67,291.76,296.02,299.68,302.16,304.22,305.24,305.80,306.22,306.75,306.62,305.12,302.40,298.39,292.44,287.89,285.64,285.95,287.74,290.08,292.38,294.31,295.53,296.46,296.57,295.84,294.34,292.96
e,e,e,e,e,e,e,e,e,e,e,e,e,e,e,e,e,e,e,e,e,e,e,e,e,e,e,e,e,e,e,e,e,e,e,e,e,e,e,e,e,e,e,e,e,e,e,e,e,e,e,e,e,e,e,e,e,e,e,e,e,e,e,e,e,e,e,e,e,e,e,e,e,e,e,e,e,e,e,e,e,e,e,e,e,e,e,e,e,e,e,e,e,e,e,e,e,e,e,e,e,e,e,e,e,e,e,e,e,e,e,e,e,e,e,e,e,e,e,e,e,e,e,e,e,e,e,e,e,e,e,e,e,e,e,e,3.17,5.84,9.20,14.35,19.89,25.58,32.23,38.73,44.27,48.94,54.04,59.35,64.75,70.03,74.36,78.39,82.54,86.97,91.38,95.34,99.35,103.72,108.49,112.96,116.81,120.19,123.23,125.47,127.21,128.56,129.62,130.92,132.81,135.02,137.40,139.83,142.54,145.09,147.42,149.63,152.03,154.00,155.60,157.00,158.65,161.26,164.43,167.92,171.60,174.75,177.85,180.86,183.75,186.81,189.91,192.87,195.78,198.97,202.72,206.78,211.05,215.46,219.65,222.33,224.57,226.86,229.31,233.80,238.48,242.56,245.72,248.80,250.80,252.41,254.13,255.86,257.60,259.25,260.70,261.84,263.23,264.90,266.73,268.52,270.27,271.72,273.20,274.92,276.97,278.76,281.31,284.65,288.44,292.36,296.29,299.50,301.39,302.47,302.68,302.74,302.91,303.08,302.56,300.63,297.61,293.57,287.50,282.41,279.48,279.21,280.86,283.41,286.24,288.53,288.88,287.70,285.71,283.22,280.55,278.80
e,e,e,e,e,e,e,e,e,e,e,e,e,e,e,e,e,e,e,e,e,e,e,e,e,e,e,e,e,e,e,e,e,e,e,e,e,e,e,e,e,e,e,e,e,e,e,e,e,e,e,e,e,e,e,e,e,e,e,e,e,e,e,e,e,e,e,e,e,e,e,e,e,e,e,e,e,e,e,e,e,e,e,e,e,e,e,e,e,e,e,e,e,e,e,e,e,e,e,e,e,e,e,e,e,e,e,e,e,e,e,e,e,e,e,e,e,e,e,e,e,e,e,e,1.20,0.82,0.30,e,e,e,e,e,e,e,e,e,e,4.73,7.36,12.16,17.82,23.77,30.39,37.27,43.94,49.78,55.91,62.05,67.89,72.96,77.18,81.24,85.43,89.81,93.96,97.81,101.61,105.67,110.56,115.36,119.01,121.62,123.50,124.60,125.65,126.85,128.23,129.72,131.84,134.25,136.92,140.07,143.35,146.36,149.45,152.88,155.88,157.89,159.34,160.49,161.66,163.60,166.04,168.77,171.64,174.15,177.01,180.02,183.06,186.30,189.45,192.49,195.54,198.89,202.58,206.54,210.82,215.48,219.84,222.57,224.80,227.06,229.53,234.25,238.97,242.94,246.09,249.12,251.04,252.55,254.21,255.90,257.60,259.11,260.41,261.63,263.12,264.74,266.36,267.88,269.56,270.97,272.37,274.04,276.26,278.45,281.36,284.84,288.35,291.94,295.24,297.76,299.04,299.32,298.71,298.30,298.29,298.13,297.38,295.44,292.44,288.25,282.15,276.61,272.95,271.90,273.16,275.49,278.28,280.52,280.44,278.13,274.90,271.35,267.98,265.92
e,e,e,e,e,e,e,e,e,e,e,e,e,e,e,e,e,e,e,e,e,e,e,e,e,e,e,e,e,e,e,e,e,e,e,e,e,e,e,e,e,e,e,e,e,e,e,e,e,e,e,e,e,e,e,e,e,e,e,e,e,e,e,e,e,e,e,e,e,e,e,e,e,e,e,e,e,e,e,e,e,e,e,e,e,e,e,e,e,e,e,e,e,e,e,e,e,e,e,e,e,e,e,e,e,e,e,e,e,e,e,e,e,e,e,e,e,e,e,e,e,e,e,e,1.20,0.82,0.30,e,e,e,e,e,e,e,e,e,e,3.83,6.11,10.56,16.49,22.96,29.74,36.69,43.75,50.95,57.99,64.72,70.84,75.76,80.10,84.22,88.50,93.09,97.19,101.07,104.56,108.04,113.00,117.89,121.06,122.46,122.47,122.51,123.36,124.83,126.74,128.77,131.08,133.70,136.73,140.37,144.03,147.58,151.66,156.51,159.62,161.22,162.34,163.35,164.26,166.09,168.31,170.66,172.98,174.66,176.94,179.62,182.51,185.77,189.07,192.43,195.83,199.21,202.96,206.90,211.19,215.89,220.05,222.68,224.89,227.18,229.66,234.58,239.35,243.25,246.39,249.30,251.20,252.64,254.12,255.77,257.42,258.77,259.95,261.37,262.76,264.08,265.26,266.23,267.43,268.78,270.05,271.42,273.77,276.86,280.25,283.72,287.09,290.23,292.67,294.33,295.04,294.79,293.44,292.55,292.38,291.94,291.10,289.50,286.86,282.60,276.77,270.90,266.46,264.45,265.00,266.67,268.73,270.36,270.20,268.09,264.89,261.32,257.97,255.69
e,e,e,e,e,e,e,e,e,e,e,e,e,e,e,e,e,e,e,e,e,e,e,e,e,e,e,e,e,e,e,e,e,e,e,e,e,e,e,e,e,e,e,e,e,e,e,e,e,e,e,e,e,e,e,e,e,e,e,e,e,e,e,e,e,e,e,e,e,e,e,e,e,e,e,e,e,e,e,e,e,e,e,e,e,e,e,e,e,e,e,e,e,e,e,e,e,e,e,e,e,e,e,e,e,e,e,e,e,e,e,e,e,e,e,e,e,e,e,e,e,e,e,e,e,e,e,e,e,e,e,e,e,e,e,e,e,3.24,5.45,9.83,15.88,22.70,29.63,36.65,43.91,51.66,58.84,65.55,71.97,78.11,82.68,86.92,91.50,96.56,100.74,104.61,107.92,111.09,115.69,119.21,120.82,120.93,120.32,120.51,121.94,123.91,126.01,128.16,130.54,133.50,137.00,140.71,144.46,148.98,154.10,159.05,161.48,162.98,164.26,165.54,166.87,168.63,170.90,173.45,175.84,177.36,178.62,180.46,183.31,186.44,189.72,193.13,196.61,200.11,203.72,207.61,211.80,216.18,219.71,221.68,223.88,226.87,229.63,234.75,239.55,243.43,246.60,249.46,251.31,252.73,254.20,255.72,257.00,258.07,259.02,260.09,261.24,262.20,262.92,263.46,264.22,265.24,266.44,268.05,270.76,274.04,277.57,281.13,284.41,287.20,289.09,290.13,290.27,289.55,288.08,287.04,286.66,286.31,285.44,283.84,281.40,277.77,272.86,266.81,261.56,258.30,257.26,257.80,258.80,259.66,259.76,258.57,255.91,252.84,250.16,247.98
e,e,e,e,e,e,e,e,e,e,e,e,e,e,e,e,e,e,e,e,e,e,e,e,e,e,e,e,e,e,e,e,e,e,e,e,e,e,e,e,e,e,e,e,e,e,e,e,e,e,e,e,e,e,e,e,e,e,e,e,e,e,e,e,e,e,e,e,e,e,e,e,e,e,e,e,e,e,e,e,e,e,e,e,e,e,e,e,e,e,e,e,e,e,e,e,e,e,e,e,e,e,e,e,e,e,e,e,e,e,e,e,e,e,e,e,e,e,e,e,e,e,e,e,e,e,e,e,e,e,e,e,e,e,e,e,e,2.01,4.60,9.49,15.73,22.79,29.88,36.80,43.77,51.51,58.33,64.85,71.66,79.17,84.41,89.33,94.56,100.03,104.54,107.78,110.52,113.40,117.08,118.99,119.37,118.84,118.17,119.04,120.95,123.11,125.18,127.38,130.05,133.40,137.27,141.20,145.25,150.42,155.94,160.47,162.58,164.20,165.73,167.23,168.85,170.74,173.23,176.05,178.62,180.39,181.57,183.22,185.85,188.33,191.34,194.64,198.01,201.24,204.42,208.02,211.89,215.64,218.44,220.09,222.35,225.73,229.25,234.58,239.47,243.43,246.68,249.55,251.39,252.73,253.95,254.95,255.50,256.04,256.74,257.52,258.55,259.45,260.06,260.29,260.57,261.34,262.49,264.19,266.90,270.34,274.05,277.71,280.91,283.54,285.15,285.92,285.82,284.81,283.28,282.06,281.37,281.01,280.15,278.66,276.53,273.50,269.32,263.49,257.91,253.63,250.51,249.26,249.38,250.16,250.66,250.28,248.42,245.96,243.57,241.23
e,e,e,e,e,e,e,e,e,e,e,e,e,e,e,e,e,e,e,e,e,e,e,e,e,e,e,e,e,e,e,e,e,e,e,e,e,e,e,e,e,e,e,e,e,e,e,e,e,e,e,e,e,e,e,e,e,e,e,e,e,e,e,e,e,e,e,e,e,e,e,e,e,e,e,e,e,e,e,e,e,e,e,e,e,e,e,e,e,e,e,e,e,e,e,e,e,e,e,e,e,e,e,e,e,e,e,e,e,e,e,e,e,e,e,e,e,e,e,e,e,e,e,e,e,e,e,e,e,e,e,e,e,e,e,e,e,0.55,3.73,9.36,15.74,22.91,30.16,36.95,43.34,50.63,56.80,63.01,70.13,78.69,85.05,91.20,97.36,103.12,107.98,110.31,112.29,114.74,117.02,117.50,117.17,116.57,116.23,117.89,120.04,122.15,124.18,126.52,129.58,133.27,137.38,141.64,146.13,151.61,157.04,161.03,163.20,165.09,166.85,168.53,170.28,172.43,175.14,178.09,180.76,183.03,184.93,186.99,189.32,191.01,193.61,196.65,199.73,202.42,205.03,208.15,211.47,214.45,216.60,218.28,220.54,223.93,228.47,234.05,239.09,243.24,246.56,249.46,251.28,252.46,253.21,253.50,253.21,253.09,253.38,254.00,255.04,256.15,256.90,256.94,256.71,257.27,258.33,259.87,262.31,265.87,269.75,273.50,276.65,279.16,280.72,281.52,281.50,280.51,279.02,277.60,276.51,275.91,275.03,273.77,272.03,269.50,265.89,260.58,255.07,249.94,244.72,241.40,240.66,241.56,242.31,242.51,241.68,240.00,237.62,235.01
e,e,e,e,e,e,e,e,e,e,e,e,e,e,e,e,e,e,e,e,e,e,e,e,e,e,e,e,e,e,e,e,e,e,e,e,e,e,e,e,e,e,e,e,e,e,e,e,e,e,e,e,e,e,e,e,e,e,e,e,e,e,e,e,e,e,e,e,e,e,e,e,e,e,e,e,e,e,e,e,e,e,e,e,e,e,e,e,e,e,e,e,e,e,e,e,e,e,e,e,e,e,e,e,e,e,e,e,e,e,e,e,e,e,e,e,e,e,e,e,e,e,e,e,e,e,e,e,e,e,e,e,e,e,e,e,e,0.47,3.65,9.19,15.27,22.29,29.71,36.65,42.83,49.29,54.76,60.50,67.30,75.79,83.73,91.53,98.72,104.58,109.19,111.50,113.27,114.85,115.21,115.07,114.67,114.31,114.55,116.36,118.43,120.65,123.16,126.01,129.15,132.84,137.03,141.38,146.04,151.60,157.07,161.14,163.42,165.50,167.50,169.41,171.38,173.74,176.25,178.77,181.29,183.95,186.55,189.09,191.53,193.61,195.98,198.45,200.89,203.25,205.73,208.24,210.78,213.25,215.11,216.93,218.93,221.80,227.09,232.99,238.29,242.65,245.91,248.69,250.41,251.30,251.55,251.62,251.21,250.46,249.81,250.16,251.39,252.74,253.63,253.55,252.93,253.01,253.62,254.85,257.22,260.44,264.19,267.97,271.02,273.14,274.86,276.01,276.32,276.05,275.06,273.75,272.26,270.76,269.64,268.51,267.16,265.27,262.37,257.74,252.22,246.20,239.96,235.40,233.09,232.46,232.60,233.06,233.68,233.35,231.37,229.19
e,e,e,e,e,e,e,e,e,e,e,e,e,e,e,e,e,e,e,e,e,e,e,e,e,e,e,e,e,e,e,e,e,e,e,e,e,e,e,e,e,e,e,e,e,e,e,e,e,e,e,e,e,e,e,e,e,e,e,e,e,e,e,e,e,e,e,e,e,e,e,e,e,e,e,e,e,e,e,e,e,e,e,e,e,e,e,e,e,e,e,e,e,e,e,e,e,e,e,e,e,e,e,e,e,e,e,e,e,e,e,e,e,e,e,e,e,e,e,e,e,e,e,e,e,e,e,e,e,e,e,e,e,e,e,e,e,0.50,4.10,8.03,14.13,20.89,28.27,35.44,41.93,47.91,53.13,58.58,64.94,72.97,81.39,89.86,97.45,103.33,108.51,111.24,112.82,113.64,113.28,112.77,112.30,112.16,112.94,115.09,117.46,119.96,122.73,125.80,128.94,132.53,136.54,140.72,145.39,150.91,156.52,161.03,163.41,165.52,167.60,169.62,171.67,173.49,175.47,177.78,180.48,183.26,186.60,189.80,192.34,194.58,196.96,199.27,201.48,203.63,205.86,207.97,210.06,212.18,213.97,215.80,217.72,220.40,225.68,231.66,237.20,241.76,244.81,247.33,248.80,249.33,249.03,248.51,247.41,246.11,245.20,245.72,247.23,248.74,249.68,249.59,248.83,248.73,249.11,250.10,252.30,255.29,258.85,262.54,265.62,267.65,269.31,270.50,271.02,271.26,270.74,269.69,268.22,266.37,264.82,263.30,261.77,260.13,257.66,253.61,248.12,241.50,235.11,229.78,226.08,223.97,223.43,223.95,225.57,226.50,225.44,223.73
e,e,e,e,e,e,e,e,e,e,e,e,e,e,e,e,e,e,e,e,e,e,e,e,e,e,e,e,e,e,e,e,e,e,e,e,e,e,e,e,e,e,e,e,e,e,e,e,e,e,e,e,e,e,e,e,e,e,e,e,e,e,e,e,e,e,e,e,e,e,e,e,e,e,e,e,e,e,e,e,e,e,e,e,e,e,e,e,e,e,e,e,e,e,e,e,e,e,e,e,e,e,e,e,e,e,e,e,e,e,e,e,e,e,e,e,e,e,e,e,e,e,e,e,e,e,e,e,e,e,e,e,e,e,e,e,e,e,4.54,6.38,12.46,18.96,26.15,33.49,40.47,46.47,51.80,57.16,63.14,70.58,78.68,87.03,94.53,100.39,106.45,109.91,111.51,111.80,111.45,110.71,110.16,110.20,111.47,114.09,116.97,119.84,122.69,125.73,128.88,132.31,136.03,139.87,144.38,149.77,155.56,160.71,163.13,165.17,167.17,169.12,171.05,172.03,173.49,175.78,178.82,181.76,185.81,189.63,192.26,194.39,196.65,198.96,201.22,203.30,205.20,207.09,209.06,211.10,212.94,214.78,216.78,219.53,224.43,230.44,236.11,240.67,243.43,245.65,246.69,246.72,245.88,244.58,242.57,240.86,240.11,241.00,242.74,244.28,245.18,245.14,244.46,244.38,244.72,245.59,247.58,250.48,253.87,257.39,260.53,262.67,264.15,265.16,265.75,266.18,266.02,265.34,264.14,262.30,260.21,258.01,255.94,254.16,251.92,248.28,242.91,236.11,230.02,224.27,219.51,216.21,215.13,215.45,217.43,219.18,219.21,218.15
e,e,e,e,e,e,e,e,e,e,e,e,e,e,e,e,e,e,e,e,e,e,e,e,e,e,e,e,e,e,e,e,e,e,e,e,e,e,e,e,e,e,e,e,e,e,e,e,e,e,e,e,e,e,e,e,e,e,e,e,e,e,e,e,e,e,e,e,e,e,e,e,e,e,e,e,e,e,e,e,e,e,e,e,e,e,e,e,e,e,e,e,e,e,e,e,e,e,e,e,e,e,e,e,e,e,e,e,e,e,e,e,e,e,e,e,e,e,e,e,e,e,e,e,e,e,e,e,e,e,e,e,e,e,e,e,e,e,3.67,5.13,10.24,16.55,23.50,30.66,37.80,44.71,50.53,56.13,62.11,69.07,76.38,83.98,91.03,96.87,102.94,107.48,109.92,110.30,109.78,109.03,108.54,108.78,110.43,113.47,116.71,119.82,122.78,125.70,128.81,132.16,135.62,138.97,143.09,148.23,154.18,160.01,162.38,164.19,165.91,167.49,168.76,169.53,171.05,173.47,176.60,180.41,184.90,188.95,191.72,193.42,194.76,196.57,198.92,201.26,202.87,204.72,207.03,209.65,211.69,213.82,216.07,218.88,223.75,230.07,235.47,239.41,241.99,243.96,244.11,243.29,242.03,240.16,237.91,236.15,235.46,236.41,238.18,239.47,240.11,240.17,239.81,239.86,240.28,241.20,243.15,246.12,249.42,252.76,255.83,258.04,259.35,260.17,260.69,260.78,260.78,260.47,259.61,257.75,255.07,252.23,249.53,247.16,244.94,241.35,236.36,230.28,224.47,218.79,213.61,209.71,208.46,208.09,209.09,210.38,211.08,211.41
e,e,e,e,e,e,e,e,e,e,e,e,e,e,e,e,e,e,e,e,e,e,e,e,e,e,e,e,e,e,e,e,e,e,e,e,e,e,e,e,e,e,e,e,e,e,e,e,e,e,e,e,e,e,e,e,e,e,e,e,e,e,e,e,e,e,e,e,e,e,e,e,e,e,e,e,e,e,e,e,e,e,e,e,e,e,e,e,e,e,e,e,e,e,e,e,e,e,e,e,e,e,e,e,e,e,e,e,e,e,e,e,e,e,e,e,e,e,e,e,e,e,e,e,e,e,e,e,e,e,e,e,e,e,e,e,e,e,2.74,3.96,8.32,14.06,20.91,27.99,34.95,42.13,48.79,54.98,61.08,67.80,74.54,81.31,87.87,93.97,100.19,104.72,107.24,107.81,107.33,107.40,107.93,108.91,110.64,113.48,116.70,119.87,122.86,125.73,128.59,131.71,134.98,138.17,142.10,146.95,152.53,158.12,160.73,162.42,163.97,165.44,166.54,167.58,169.15,171.48,174.79,178.84,183.26,187.03,189.36,190.50,191.34,192.59,194.51,197.14,199.62,202.00,204.64,207.81,210.66,213.27,215.78,218.75,223.69,229.78,234.54,237.83,240.30,241.96,241.78,240.32,238.05,235.63,233.54,232.16,231.66,232.23,233.77,235.05,235.52,234.92,234.19,234.39,235.30,236.85,239.03,241.71,244.79,248.06,251.19,253.63,254.77,255.20,255.14,254.24,254.20,254.47,254.35,252.81,249.77,246.36,243.18,240.56,238.33,234.70,229.94,224.41,218.75,213.27,208.28,204.43,202.93,201.93,202.05,202.64,203.27,204.19
e,e,e,e,e,e,e,e,e,e,e,e,e,e,e,e,e,e,e,e,e,e,e,e,e,e,e,e,e,e,e,e,e,e,e,e,e,e,e,e,e,e,e,e,e,e,e,e,e,e,e,e,e,e,e,e,e,e,e,e,e,e,e,e,e,e,e,e,e,e,e,e,e,e,e,e,e,e,e,e,e,e,e,e,e,e,e,e,e,e,e,e,e,e,e,e,e,e,e,e,e,e,e,e,e,e,e,e,e,e,e,e,e,e,e,e,e,e,e,e,e,e,e,e,e,e,e,e,e,e,e,e,e,e,e,e,e,e,2.01,3.13,6.68,11.57,18.32,25.38,32.06,39.24,46.70,53.49,59.78,66.41,72.88,79.03,85.16,91.54,97.90,101.98,104.25,105.07,105.12,106.29,108.02,109.83,111.53,113.89,116.81,119.89,122.87,125.68,128.27,131.10,134.23,137.46,141.34,145.92,150.91,155.72,158.50,160.24,161.82,163.43,164.63,166.05,167.68,169.84,173.19,177.10,181.01,184.09,185.78,186.40,187.00,187.93,189.54,192.44,196.04,199.16,202.24,205.99,209.85,212.94,215.70,218.88,223.86,229.26,233.23,235.97,238.30,239.61,239.29,237.39,234.18,231.48,229.80,228.90,228.54,228.48,229.60,230.60,230.64,229.24,228.23,228.71,230.27,232.59,235.12,237.47,240.16,243.19,246.26,248.90,249.94,249.91,249.08,247.21,247.03,247.71,248.28,247.25,244.29,240.71,237.32,234.58,232.11,228.36,223.76,218.56,212.96,207.67,203.01,199.39,197.55,196.06,195.57,195.64,196.00,197.04
e,e,e,e,e,e,e,e,e,e,e,e,e,e,e,e,e,e,e,e,e,e,e,e,e,e,e,e,e,e,e,e,e,e,e,e,e,e,e,e,e,e,e,e,e,e,e,e,e,e,e,e,e,e,e,e,e,e,e,e,e,e,e,e,e,e,e,e,e,e,e,e,e,e,e,e,e,e,e,e,e,e,e,e,e,e,e,e,e,e,e,e,e,e,e,e,e,e,e,e,e,e,e,e,e,e,e,e,e,e,e,e,e,e,e,e,e,e,e,e,e,e,e,e,e,e,e,e,e,e,e,e,e,e,e,e,e,e,e,e,5.49,9.15,15.56,22.58,29.29,36.57,44.17,51.19,57.68,64.40,71.23,77.38,83.33,89.61,95.87,99.69,101.77,102.94,104.66,106.77,108.97,111.04,112.84,114.63,116.99,119.76,122.70,125.31,127.78,130.45,133.48,136.94,140.87,145.27,149.68,153.39,155.69,157.83,159.95,161.91,163.47,165.00,166.74,168.85,171.66,175.17,177.80,179.64,180.78,181.21,181.78,183.16,185.50,188.67,192.56,196.30,200.19,204.72,209.32,212.75,215.75,219.11,223.92,227.94,231.10,233.65,235.69,236.56,235.96,233.89,230.69,228.65,227.62,227.01,226.42,225.55,225.96,225.51,224.14,222.58,222.48,223.71,225.84,228.61,231.49,233.82,235.87,237.93,240.32,242.90,244.00,243.66,242.11,240.29,239.81,240.14,240.62,240.25,238.42,235.76,232.84,229.90,226.46,222.50,217.98,212.81,207.17,201.83,197.22,193.54,191.21,189.50,189.06,189.32,189.86,190.68
e,e,e,e,e,e,e,e,e,e,e,e,e,e,e,e,e,e,e,e,e,e,e,e,e,e,e,e,e,e,e,e,e,e,e,e,e,e,e,e,e,e,e,e,e,e,e,e,e,e,e,e,e,e,e,e,e,e,e,e,e,e,e,e,e,e,e,e,e,e,e,e,e,e,e,e,e,e,e,e,e,e,e,e,e,e,e,e,e,e,e,e,e,e,e,e,e,e,e,e,e,e,e,e,e,e,e,e,e,e,e,e,e,e,e,e,e,e,e,e,e,e,e,e,e,e,e,e,e,e,e,e,e,e,e,e,e,e,e,e,4.19,7.46,13.08,19.66,26.63,33.95,41.59,48.75,55.30,61.64,68.72,75.20,81.32,87.41,93.11,97.34,100.07,101.68,103.67,106.11,108.81,111.37,113.33,115.20,117.36,119.77,122.35,124.83,127.14,129.62,132.58,136.49,140.49,144.54,148.22,151.00,153.18,155.56,158.19,160.72,162.28,163.95,165.49,167.08,169.26,172.14,173.87,175.08,176.29,177.21,178.63,181.25,184.88,188.57,192.37,196.01,199.81,204.22,209.14,212.65,215.63,218.73,222.40,224.99,227.58,230.26,232.44,233.20,232.59,230.57,227.45,225.73,225.30,224.89,224.04,222.79,221.96,220.56,218.77,217.25,217.25,218.93,221.35,224.08,226.73,228.67,230.18,231.66,233.79,236.78,238.30,238.28,236.88,234.95,233.47,233.11,233.61,233.73,232.67,230.34,227.37,224.25,220.59,216.74,212.14,206.56,200.79,195.51,190.87,186.94,184.17,182.87,182.79,183.31,184.06,185.10
e,e,e,e,e,e,e,e,e,e,e,e,e,e,e,e,e,e,e,e,e,e,e,e,e,e,e,e,e,e,e,e,e,e,e,e,e,e,e,e,e,e,e,e,e,e,e,e,e,e,e,e,e,e,e,e,e,e,e,e,e,e,e,e,e,e,e,e,e,e,e,e,e,e,e,e,e,e,e,e,e,e,e,e,e,e,e,e,e,e,e,e,e,e,e,e,e,e,e,e,e,e,e,e,e,e,e,e,e,e,e,e,e,e,e,e,e,e,e,e,e,e,e,e,e,e,e,e,e,e,e,e,e,e,e,e,e,e,e,e,3.29,6.16,10.84,16.98,24.15,31.52,39.09,46.28,52.83,58.76,65.70,72.40,78.77,84.82,89.91,94.46,97.94,100.31,102.47,105.19,108.34,111.32,113.39,115.46,117.54,119.66,121.87,124.20,126.40,128.68,131.53,135.75,139.93,143.61,146.57,148.71,150.82,153.29,156.19,159.11,160.79,162.41,163.62,164.71,166.44,168.74,169.96,170.99,172.60,174.47,176.99,180.85,185.63,189.74,193.27,196.56,200.00,204.01,208.91,212.29,215.07,217.74,220.15,221.59,223.59,226.21,228.64,229.57,229.03,227.06,224.12,222.80,222.92,222.76,221.80,220.22,218.25,216.21,214.28,212.79,212.65,214.38,216.71,218.97,220.88,222.41,223.66,224.98,227.14,230.58,232.76,233.34,232.25,229.94,227.56,226.55,226.94,227.37,226.80,224.57,221.39,218.03,214.43,210.61,205.80,199.92,194.41,189.60,184.99,180.71,177.61,176.89,177.31,178.15,179.18,180.36
e,e,e,e,e,e,e,e,e,e,e,e,e,e,e,e,e,e,e,e,e,e,e,e,e,e,e,e,e,e,e,e,e,e,e,e,e,e,e,e,e,e,e,e,e,e,e,e,e,e,e,e,e,e,e,e,e,e,e,e,e,e,e,e,e,e,e,e,e,e,e,e,e,e,e,e,e,e,e,e,e,e,e,e,e,e,e,e,e,e,e,e,e,e,e,e,e,e,e,e,e,e,e,e,e,e,e,e,e,e,e,e,e,e,e,e,e,e,e,e,e,e,e,e,e,e,e,e,e,e,e,e,e,e,e,e,e,e,e,e,e,5.14,9.03,15.00,22.04,29.53,36.85,43.84,50.38,56.19,62.18,68.53,75.10,81.47,86.25,90.31,94.18,97.90,101.15,104.52,107.96,111.02,113.04,115.06,117.12,119.15,121.16,123.33,125.44,127.60,130.24,134.28,138.83,142.19,144.62,146.63,148.59,150.91,153.54,156.29,158.55,159.69,160.52,161.55,163.24,165.37,166.74,168.17,170.48,173.82,177.30,181.82,187.01,191.08,194.19,197.10,200.23,203.91,208.27,211.23,213.60,215.74,217.42,218.41,219.66,221.54,224.08,225.56,225.00,223.00,220.49,219.97,220.55,220.79,220.05,218.01,215.62,213.25,211.08,209.44,209.18,210.28,211.73,212.90,213.34,214.65,216.27,218.12,220.65,224.31,227.43,228.83,227.65,224.51,221.96,220.63,220.46,220.88,220.48,218.31,214.94,211.18,207.76,203.57,198.44,192.84,188.64,185.05,180.62,175.86,172.79,172.59,173.54,174.86,176.22,177.11
e,e,e,e,e,e,e,e,e,e,e,e,e,e,e,e,e,e,e,e,e,e,e,e,e,e,e,e,e,e,e,e,e,e,e,e,e,e,e,e,e,e,e,e,e,e,e,e,e,e,e,e,e,e,e,e,e,e,e,e,e,e,e,e,e,e,e,e,e,e,e,e,e,e,e,e,e,e,e,e,e,e,e,e,e,e,e,e,e,e,e,e,e,e,e,e,e,e,e,e,e,e,e,e,e,e,e,e,e,e,e,e,e,e,e,e,e,e,e,e,e,e,e,e,e,e,e,e,e,e,e,e,e,e,e,e,e,e,e,e,e,4.79,7.94,13.38,20.40,28.13,35.21,41.77,47.88,53.50,59.05,64.91,71.16,77.50,82.45,86.39,90.16,94.21,98.73,102.91,106.94,110.40,112.52,114.55,116.49,118.30,120.04,122.04,124.05,126.22,128.97,133.03,137.19,140.29,142.51,144.24,145.88,148.28,150.90,153.48,156.01,157.25,158.03,158.97,160.65,162.92,165.01,167.21,170.00,173.83,177.83,182.55,187.61,191.57,194.63,197.49,200.54,203.93,207.10,209.52,211.55,213.33,214.80,216.28,217.94,219.67,221.13,221.93,221.26,219.64,217.86,217.50,218.03,218.19,217.45,215.56,213.13,210.84,208.80,207.16,206.63,206.75,206.98,206.99,206.58,207.19,208.72,211.10,214.57,219.14,222.99,224.69,223.13,219.36,215.94,213.58,212.51,212.63,212.12,210.74,208.33,204.72,201.47,197.35,192.84,188.47,184.86,180.24,174.92,170.14,168.08,168.30,169.77,171.65,173.37,174.26
e,e,e,e,e,e,e,e,e,e,e,e,e,e,e,e,e,e,e,e,e,e,e,e,e,e,e,e,e,e,e,e,e,e,e,e,e,e,e,e,e,e,e,e,e,e,e,e,e,e,e,e,e,e,e,e,e,e,e,e,e,e,e,e,e,e,e,e,e,e,e,e,e,e,e,e,e,e,e,e,e,e,e,e,e,e,e,e,e,e,e,e,e,e,e,e,e,e,e,e,e,e,e,e,e,e,e,e,e,e,e,e,e,e,e,e,e,e,e,e,e,e,e,e,e,e,e,e,e,e,e,e,e,e,e,e,e,e,e,e,e,4.06,6.91,12.09,19.16,27.28,34.07,40.01,45.46,50.66,55.89,61.40,67.36,73.63,78.60,82.40,86.16,90.53,95.93,100.91,105.55,109.46,111.87,113.84,115.54,117.08,118.56,120.44,122.49,124.94,128.00,131.87,135.55,138.29,140.24,141.66,143.32,145.81,148.37,150.77,153.34,154.81,155.95,157.27,159.26,161.65,164.19,166.86,169.84,173.68,177.86,182.46,187.16,191.10,194.31,197.30,200.31,203.27,205.37,207.35,209.25,210.99,212.64,214.65,216.78,218.46,218.84,218.60,217.69,216.43,215.26,214.98,215.38,215.36,214.50,212.81,210.51,208.50,206.71,205.05,204.15,203.43,202.73,201.98,201.18,201.21,202.39,204.78,208.74,214.01,218.52,220.51,218.70,214.56,210.44,207.25,205.39,205.00,204.29,203.51,201.95,198.76,195.72,192.00,188.31,184.85,180.78,174.97,169.15,164.73,163.56,163.99,165.80,168.08,170.09,171.19
e,e,e,e,e,e,e,e,e,e,e,e,e,e,e,e,e,e,e,e,e,e,e,e,e,e,e,e,e,e,e,e,e,e,e,e,e,e,e,e,e,e,e,e,e,e,e,e,e,e,e,e,e,e,e,e,e,e,e,e,e,e,e,e,e,e,e,e,e,e,e,e,e,e,e,e,e,e,e,e,e,e,e,e,e,e,e,e,e,e,e,e,e,e,e,e,e,e,e,e,e,e,e,e,e,e,e,e,e,e,e,e,e,e,e,e,e,e,e,e,e,e,e,e,e,e,e,e,e,e,e,e,e,e,e,e,e,e,e,e,e,2.46,5.76,11.30,18.46,27.12,33.52,38.66,43.24,47.71,52.54,58.01,64.09,70.39,74.95,78.49,82.61,87.76,93.27,98.82,103.85,108.06,110.98,112.79,114.12,115.33,116.67,118.55,120.95,124.06,127.60,130.83,134.17,136.47,137.93,139.13,141.42,143.83,146.14,148.36,150.66,152.37,154.40,156.92,159.73,162.05,164.34,166.75,169.47,172.98,176.95,181.07,185.23,189.35,192.80,196.05,198.98,201.28,202.93,204.80,206.88,209.09,211.31,213.48,215.61,217.13,216.93,215.67,214.35,213.13,212.20,212.15,212.51,212.29,211.22,209.48,207.45,205.86,204.37,202.60,201.30,200.19,199.26,198.53,197.87,197.82,198.44,200.00,203.30,208.47,213.55,216.10,214.37,210.25,206.08,202.71,200.44,199.34,198.46,197.56,196.12,193.60,190.80,187.82,184.75,181.01,175.08,169.09,164.00,160.43,159.33,159.62,161.36,163.69,165.87,167.37
e,e,e,e,e,e,e,e,e,e,e,e,e,e,e,e,e,e,e,e,e,e,e,e,e,e,e,e,e,e,e,e,e,e,e,e,e,e,e,e,e,e,e,e,e,e,e,e,e,e,e,e,e,e,e,e,e,e,e,e,e,e,e,e,e,e,e,e,e,e,e,e,e,e,e,e,e,e,e,e,e,e,e,e,e,e,e,e,e,e,e,e,e,e,e,e,e,e,e,e,e,e,e,e,e,e,e,e,e,e,e,e,e,e,e,e,e,e,e,e,e,e,e,e,e,e,e,e,e,e,e,e,e,e,e,e,e,e,e,e,e,2.65,6.04,11.52,18.46,27.19,33.06,37.70,41.87,45.65,49.57,55.15,61.83,68.58,73.74,77.44,81.99,87.77,92.84,97.77,102.33,106.33,109.29,111.13,112.30,113.40,114.90,117.27,120.38,124.03,127.78,130.73,133.28,135.48,137.38,139.05,141.02,142.94,144.90,146.98,149.13,151.51,154.42,157.57,160.42,162.97,165.48,167.80,169.95,172.89,176.41,179.79,183.13,187.13,190.33,193.52,196.37,198.40,200.66,203.10,205.65,208.25,210.80,213.15,215.41,216.63,215.15,213.23,211.40,209.89,208.97,208.91,208.98,208.19,206.45,204.48,202.95,201.79,200.69,199.37,198.10,196.99,196.20,195.75,195.32,195.38,195.90,197.14,199.76,203.78,208.66,211.41,209.76,205.75,201.44,197.63,194.82,193.63,192.83,192.06,190.96,189.19,186.96,184.39,180.46,174.86,169.06,163.97,159.94,157.01,155.45,154.89,155.84,157.85,160.35,161.95
e,e,e,e,e,e,e,e,e,e,e,e,e,e,e,e,e,e,e,e,e,e,e,e,e,e,e,e,e,e,e,e,e,e,e,e,e,e,e,e,e,e,e,e,e,e,e,e,e,e,e,e,e,e,e,e,e,e,e,e,e,e,e,e,e,e,e,e,e,e,e,e,e,e,e,e,e,e,e,e,e,e,e,e,e,e,e,e,e,e,e,e,e,e,e,e,e,e,e,e,e,e,e,e,e,e,e,e,e,e,e,e,e,e,e,e,e,e,e,e,e,e,e,e,e,e,e,e,e,e,e,e,e,e,e,e,e,e,e,e,e,3.67,7.06,12.46,19.22,27.75,33.19,37.49,41.44,44.86,48.09,53.68,60.74,67.83,73.68,78.11,83.28,89.31,93.80,97.86,101.54,104.71,107.05,109.03,110.27,111.47,113.37,116.57,120.29,124.15,127.81,130.67,132.83,135.19,137.60,139.68,141.35,142.93,144.65,146.55,148.51,151.33,154.85,158.44,161.35,164.20,166.94,169.16,170.78,172.97,175.87,178.58,181.25,184.84,187.86,191.04,193.98,196.25,199.10,202.04,204.98,207.87,210.58,213.02,215.13,215.89,213.59,211.28,208.90,206.87,205.63,205.13,204.67,203.52,201.66,199.77,198.58,197.67,196.76,195.73,194.64,193.80,193.28,193.08,192.93,193.12,193.65,194.76,197.02,200.01,204.02,206.34,204.75,200.70,196.26,192.47,189.81,188.64,187.78,187.06,186.25,185.04,183.24,180.36,175.60,169.20,163.91,159.50,156.14,153.54,151.30,150.03,150.44,152.26,154.96,156.69
e,e,e,e,e,e,e,e,e,e,e,e,e,e,e,e,e,e,e,e,e,e,e,e,e,e,e,e,e,e,e,e,e,e,e,e,e,e,e,e,e,e,e,e,e,e,e,e,e,e,e,e,e,e,e,e,e,e,e,e,e,e,e,e,e,e,e,e,e,e,e,e,e,e,e,e,e,e,e,e,e,e,e,e,e,e,e,e,e,e,e,e,e,e,e,e,e,e,e,e,e,e,e,e,e,e,e,e,e,e,e,e,e,e,e,e,e,e,e,e,e,e,e,e,e,e,e,e,e,e,e,e,e,e,e,e,e,e,e,e,e,5.48,8.89,14.37,21.11,29.13,34.29,38.38,42.18,45.65,48.79,54.27,61.27,68.44,74.78,80.45,86.33,92.13,96.07,99.41,102.07,103.94,104.95,106.97,108.38,109.81,112.20,116.32,120.33,124.03,127.41,130.36,132.83,135.52,138.21,140.44,142.15,143.77,145.42,147.10,148.89,151.75,155.50,159.45,162.79,165.90,168.65,170.69,171.92,173.29,175.38,177.56,179.84,182.79,185.91,189.22,192.49,195.50,198.58,201.70,204.80,207.79,210.54,212.94,214.47,214.53,212.28,209.84,206.91,204.21,202.33,200.94,199.74,198.60,197.42,196.03,194.88,193.92,192.95,191.81,190.93,190.45,190.15,189.97,190.02,190.38,191.03,192.27,194.69,197.24,199.84,201.09,199.54,195.37,190.83,187.63,185.92,184.68,183.45,182.58,181.87,180.88,179.13,175.26,170.29,164.97,160.02,155.59,152.20,149.44,146.55,145.18,145.74,147.66,150.34,152.23
e,e,e,e,e,e,e,e,e,e,e,e,e,e,e,e,e,e,e,e,e,e,e,e,e,e,e,e,e,e,e,e,e,e,e,e,e,e,e,e,e,e,e,e,e,e,e,e,e,e,e,e,e,e,e,e,e,e,e,e,e,e,e,e,e,e,e,e,e,e,e,e,e,e,e,e,e,e,e,e,e,e,e,e,e,e,e,e,e,e,e,e,e,e,e,e,e,e,e,e,e,e,e,e,e,e,e,e,e,e,e,e,e,e,e,e,e,e,e,e,e,e,e,e,e,e,e,e,e,e,e,e,e,e,e,e,e,0.50,1.92,4.31,6.75,8.45,12.59,18.54,25.41,32.08,36.94,40.77,44.14,47.54,51.80,57.66,64.60,71.97,78.70,84.80,90.45,95.52,99.50,102.75,105.51,107.27,107.30,107.85,108.51,109.54,111.52,115.17,119.12,122.93,126.55,129.97,132.79,135.61,138.42,140.95,142.77,144.49,146.22,148.01,150.16,153.38,157.29,161.66,166.22,169.21,171.32,172.87,173.96,175.01,176.13,177.53,179.39,182.06,185.34,188.81,192.28,195.66,199.01,202.15,205.20,208.17,210.84,213.14,213.90,213.13,211.09,208.43,205.27,202.20,199.74,197.96,196.46,195.22,194.09,192.73,191.35,190.23,189.22,188.11,187.12,185.96,184.93,184.19,183.80,184.55,186.23,188.73,191.97,194.65,196.69,197.44,196.08,192.82,188.04,184.50,182.67,180.95,179.21,178.00,177.09,175.88,173.69,170.03,165.58,160.76,156.02,151.30,147.08,143.45,140.78,140.70,142.19,144.45,146.92,148.51
e,e,e,e,e,e,e,e,e,e,e,e,e,e,e,e,e,e,e,e,e,e,e,e,e,e,e,e,e,e,e,e,e,e,e,e,e,e,e,e,e,e,e,e,e,e,e,e,e,e,e,e,e,e,e,e,e,e,e,e,e,e,e,e,e,e,e,e,e,e,e,e,e,e,e,e,e,e,e,e,e,e,e,e,e,e,e,e,e,e,e,e,e,e,e,e,e,e,e,e,e,e,e,e,e,e,e,e,e,e,e,e,e,e,e,e,e,e,e,e,e,e,e,e,e,e,e,e,e,e,e,e,e,e,e,e,3.94,3.42,4.72,7.69,10.93,14.42,19.41,25.40,31.67,36.60,40.52,43.82,47.06,51.32,56.90,63.03,69.67,76.75,82.73,88.07,92.92,97.29,101.35,104.77,107.87,110.18,110.79,110.81,111.26,111.91,112.90,115.48,118.34,121.74,125.56,129.17,132.16,135.09,138.09,141.03,143.41,145.37,147.19,149.21,152.15,155.67,159.83,164.53,169.33,172.13,173.90,175.21,176.23,176.97,177.53,178.36,179.81,182.35,185.68,189.20,192.72,196.21,199.67,202.79,205.82,208.78,211.30,212.94,212.94,211.60,209.44,206.52,203.29,200.21,197.58,195.50,193.72,192.14,190.65,189.14,187.74,186.63,185.65,184.51,183.19,181.24,179.28,177.73,176.91,177.81,180.30,183.91,188.11,191.75,193.78,194.29,193.13,190.21,185.16,181.08,178.61,176.38,174.59,173.29,172.13,170.56,168.04,164.83,160.95,156.44,151.66,146.55,141.43,136.96,134.59,135.43,137.91,140.91,143.66,145.14
e,e,e,e,e,e,e,e,e,e,e,e,e,e,e,e,e,e,e,e,e,e,e,e,e,e,e,e,e,e,e,e,e,e,e,e,e,e,e,e,e,e,e,e,e,e,e,e,e,e,e,e,e,e,e,e,e,e,e,e,e,e,e,e,e,e,e,e,e,e,e,e,e,e,e,e,e,e,e,e,e,e,e,e,e,e,e,e,e,e,e,e,e,e,e,e,e,e,e,e,e,e,e,e,e,e,e,e,e,e,e,e,e,e,e,e,e,e,e,e,e,e,e,e,e,e,e,e,e,e,e,e,e,e,e,e,4.31,6.71,10.18,14.35,19.03,23.60,28.84,34.27,39.13,42.31,44.93,47.70,51.32,56.92,63.41,69.45,75.46,81.65,85.89,89.69,93.47,97.33,101.28,104.88,108.22,111.32,113.86,114.84,115.99,116.57,116.42,117.69,118.71,121.04,124.63,128.02,130.95,134.00,137.25,140.63,143.87,146.28,148.35,150.77,154.71,158.39,162.87,167.71,171.66,174.29,176.19,177.63,178.60,179.03,179.47,180.05,181.12,183.57,186.76,190.18,193.61,196.98,200.38,203.49,206.57,209.53,211.73,212.23,211.49,209.82,207.20,204.04,200.96,198.18,195.77,193.42,191.23,189.02,186.88,185.18,183.97,183.01,182.02,180.69,178.94,176.38,173.63,171.31,170.29,171.06,173.82,178.05,182.99,187.94,190.30,190.74,189.58,186.28,181.14,176.68,173.52,170.99,169.56,168.38,167.00,165.06,162.50,159.69,156.27,151.95,146.94,141.39,135.54,130.43,128.29,129.53,132.91,136.88,140.27,141.95
e,e,e,e,e,e,e,e,e,e,e,e,e,e,e,e,e,e,e,e,e,e,e,e,e,e,e,e,e,e,e,e,e,e,e,e,e,e,e,e,e,e,e,e,e,e,e,e,e,e,e,e,e,e,e,e,e,e,e,e,e,e,e,e,e,e,e,e,e,e,e,e,e,e,e,e,e,e,e,e,e,e,e,e,e,e,e,e,e,e,e,e,e,e,e,e,e,e,e,e,e,e,e,e,e,e,e,e,e,e,e,e,e,e,e,e,e,e,e,e,e,e,e,e,e,e,e,e,e,e,e,e,e,e,3.80,4.14,5.55,9.30,14.48,20.13,25.71,31.82,37.09,41.38,44.68,47.34,50.25,54.18,58.82,63.20,68.38,73.55,78.52,83.13,86.87,90.44,93.95,97.39,100.70,103.80,106.74,109.77,113.09,116.35,118.99,120.44,120.61,121.05,121.48,122.37,124.09,127.08,129.84,132.97,136.33,139.66,143.08,146.25,149.51,153.13,157.29,161.19,165.63,170.16,173.68,176.28,178.49,180.26,181.35,181.78,182.22,182.73,183.60,185.50,188.28,191.47,194.72,197.87,201.14,204.31,207.40,210.12,211.50,211.25,209.71,207.32,204.42,201.39,198.88,196.57,194.23,191.87,188.77,185.60,182.84,181.11,180.00,178.81,177.31,175.39,173.48,170.89,168.16,165.92,165.19,165.87,168.44,172.43,176.97,181.09,183.57,183.97,181.87,178.53,174.14,170.50,167.99,165.91,164.47,163.12,161.53,159.42,157.12,154.77,151.59,147.18,141.91,136.19,129.95,124.46,122.62,125.07,129.24,133.41,136.60,138.61
e,e,e,e,e,e,e,e,e,e,e,e,e,e,e,e,e,e,e,e,e,e,e,e,e,e,e,e,e,e,e,e,e,e,e,e,e,e,e,e,e,e,e,e,e,e,e,e,e,e,e,e,e,e,e,e,e,e,e,e,e,e,e,e,e,e,e,e,e,e,e,e,e,e,e,e,e,e,e,e,e,e,e,e,e,e,e,e,e,e,e,e,e,e,e,e,e,e,e,e,e,e,e,e,e,e,e,e,e,e,e,e,e,e,e,e,e,e,e,e,e,e,e,e,e,e,e,e,e,e,e,e,e,e,2.46,2.78,4.48,9.21,15.87,23.06,29.66,36.81,41.99,45.93,49.37,52.95,56.05,60.00,64.47,67.95,71.89,76.07,80.18,83.95,87.54,91.03,94.44,97.73,100.83,103.71,106.47,109.28,112.47,116.63,120.10,122.49,123.77,124.74,125.19,125.11,125.16,126.83,129.15,132.13,135.42,138.77,142.65,146.97,151.16,155.13,159.28,163.25,167.47,171.71,175.33,178.34,180.93,183.01,184.37,184.89,185.33,185.77,186.41,187.72,189.95,192.65,195.47,198.28,201.42,204.70,207.84,210.28,210.80,209.18,206.56,203.67,201.01,198.40,196.45,194.66,192.58,190.34,186.74,182.98,179.73,177.38,175.80,173.94,171.70,169.19,166.85,164.54,162.21,160.17,159.50,160.20,162.70,166.74,171.73,175.40,177.35,177.19,174.72,171.74,168.22,165.25,163.07,161.19,159.37,157.48,155.51,153.50,151.48,149.40,146.44,142.14,136.95,130.34,123.94,119.14,118.11,121.01,125.48,129.98,133.54,135.73
e,e,e,e,e,e,e,e,e,e,e,e,e,e,e,e,e,e,e,e,e,e,e,e,e,e,e,e,e,e,e,e,e,e,e,e,e,e,e,e,e,e,e,e,e,e,e,e,e,e,e,e,e,e,e,e,e,e,e,e,e,e,e,e,e,e,e,e,e,e,e,e,e,e,e,e,e,e,e,e,e,e,e,e,e,e,e,e,e,e,e,e,e,e,e,e,e,e,e,e,e,e,e,e,e,e,e,e,e,e,e,e,e,e,e,e,e,e,e,e,e,e,e,e,e,e,e,e,e,e,e,e,e,e,0.48,0.71,2.09,7.22,14.46,22.71,30.44,38.06,43.22,47.65,52.63,58.06,61.22,64.30,67.80,71.02,74.22,77.57,81.06,84.62,88.15,91.60,95.06,98.46,101.66,104.64,107.45,110.07,112.64,116.34,119.92,123.07,125.75,128.09,128.93,128.50,127.51,127.42,129.03,131.66,134.71,138.09,142.57,148.06,152.82,156.53,160.60,164.49,168.46,172.56,176.71,180.42,183.45,185.83,187.42,188.05,188.52,188.96,189.45,190.30,191.94,193.95,196.11,198.41,201.22,204.57,207.67,209.63,209.10,205.90,202.38,199.41,197.29,195.13,193.56,192.11,190.39,188.51,185.04,181.19,177.50,174.11,171.55,168.78,165.76,162.72,159.79,157.73,155.74,153.78,153.06,154.08,156.80,161.14,166.90,170.70,171.76,170.84,168.55,166.13,163.40,160.87,158.71,156.78,154.53,151.89,149.34,147.41,145.50,143.44,140.62,136.62,131.49,123.94,117.77,114.33,114.46,117.25,121.62,126.49,130.85,133.23
e,e,e,e,e,e,e,e,e,e,e,e,e,e,e,e,e,e,e,e,e,e,e,e,e,e,e,e,e,e,e,e,e,e,e,e,e,e,e,e,e,e,e,e,e,e,e,e,e,e,e,e,e,e,e,e,e,e,e,e,e,e,e,e,e,e,e,e,e,e,e,e,e,e,e,e,e,e,e,e,e,e,e,e,e,e,e,e,e,e,e,e,e,e,e,e,e,e,e,e,e,e,e,e,e,e,e,e,e,e,e,e,e,e,e,e,e,e,e,e,e,e,e,e,e,e,e,e,e,e,e,e,e,e,e,e,e,6.06,10.14,17.43,26.13,33.55,39.26,44.95,51.61,58.61,62.30,65.47,68.95,72.29,75.56,78.77,81.94,85.13,88.44,92.28,96.20,99.84,102.94,105.95,108.81,111.45,113.87,116.54,119.75,123.14,126.44,129.42,130.86,130.94,130.16,129.47,129.99,132.01,134.76,137.80,142.17,147.80,152.87,156.89,161.01,164.79,168.70,173.06,178.01,182.18,185.92,188.63,189.84,190.50,191.25,192.12,193.03,193.88,195.03,196.28,197.56,198.96,200.63,203.63,206.16,206.80,204.34,200.96,198.19,196.07,194.07,191.79,189.84,188.04,186.41,185.45,183.39,180.12,175.92,171.51,167.84,164.35,160.84,157.32,154.16,151.48,148.72,146.27,146.25,148.46,151.95,156.25,160.97,164.77,165.67,164.67,162.65,160.40,158.20,156.20,154.39,152.72,150.87,147.69,144.15,141.52,138.98,136.41,133.48,129.56,123.58,117.36,112.46,109.84,110.89,114.21,118.35,122.92,127.59,130.75
e,e,e,e,e,e,e,e,e,e,e,e,e,e,e,e,e,e,e,e,e,e,e,e,e,e,e,e,e,e,e,e,e,e,e,e,e,e,e,e,e,e,e,e,e,e,e,e,e,e,e,e,e,e,e,e,e,e,e,e,e,e,e,e,e,e,e,e,e,e,e,e,e,e,e,e,e,e,e,e,e,e,e,e,e,e,e,e,e,e,e,e,e,e,e,e,e,e,e,e,e,e,e,e,e,e,e,e,e,e,e,e,e,e,e,e,e,e,e,e,e,e,e,e,e,e,e,e,e,e,e,e,e,e,e,e,e,3.80,6.70,12.68,21.06,28.42,35.00,41.80,49.30,56.78,61.28,64.98,68.77,72.60,76.20,79.50,82.53,85.37,88.34,92.21,96.46,100.51,103.41,106.26,109.01,111.64,114.13,116.64,119.68,123.07,126.59,129.81,131.74,132.58,132.51,131.69,131.50,132.74,134.93,137.82,142.00,147.43,152.60,156.98,161.09,164.70,168.40,172.73,178.20,182.85,187.08,189.97,190.91,191.34,191.66,192.09,192.71,193.51,194.51,195.70,197.06,198.55,199.93,202.66,204.30,203.25,199.32,195.94,193.69,192.12,190.38,187.98,185.56,183.34,181.58,180.79,179.32,176.46,172.46,168.28,164.38,160.20,156.00,152.20,148.52,144.84,141.38,138.97,139.73,143.15,147.43,151.84,155.97,159.05,159.39,158.13,156.23,154.27,152.45,150.79,149.20,147.48,145.40,141.94,137.93,134.54,131.57,128.50,125.61,122.51,117.58,112.80,108.91,106.77,107.95,111.01,114.99,119.40,123.88,127.53
