227.24,225.85,225.15,225.26,226.29,227.84,229.57,231.20,232.69,234.49,236.36,238.07,239.53,240.38,240.91,241.36,241.94,242.38,243.13,244.44,246.33,247.80,249.22,249.45,248.16,245.86,242.92,238.98,234.55,230.25,225.68,220.58,215.65,211.37,207.67,204.67,201.95,198.73,193.78,188.42,183.67,178.78,172.94,166.78,160.98,156.23,152.29,147.58,141.81,137.88,135.43,132.94,129.66,126.26,122.31,117.00,109.59,105.72,102.91,99.78,95.59,91.36,87.39,83.83,81.00,79.34,78.49,77.04,74.62,72.00,69.80,68.50,68.13,68.61,68.81,68.04,66.39,64.32,63.65,63.78,64.31,64.55,63.13,60.22,56.06,51.25,46.20,41.11,36.35,31.07,25.32,20.61,17.91,17.52,18.55,19.67,19.85,18.32,15.99,14.64,18.24,23.32,28.89,34.42,39.13,42.58,45.75,48.28,49.16,47.87,44.86,40.66,35.19,28.16,21.26,14.26,9.05,8.79,8.59,8.38,8.16,7.97,7.82,8.09,8.44,8.74,8.93,9.10,10.27,12.73,16.46,19.70,22.45,24.89,27.07,28.89,30.25,31.50,32.27,31.57,29.68,27.87,26.72,27.20,31.11,35.93,40.49,44.64,48.66,52.43,56.27,60.04,63.50,67.00,70.49,73.86,77.10,80.39,83.72,87.34,91.33,95.67,99.66,102.84,105.13,105.83,103.44,100.41,97.57,96.10,98.24,100.80,100.86,98.92,96.18,93.54,90.46,88.99,91.39,99.60,104.20,106.18,106.07,103.45,100.34,96.05,89.81,81.05,71.68,64.01,57.49,51.59,45.65,40.22,36.45,35.08,37.09,41.04,47.13,53.11,58.31,64.37,68.51,69.86,68.80,65.91,61.73,57.05,52.33,47.94,44.21,39.59,34.66,30.11,27.08,25.73,25.35,25.18,24.48,23.19,21.24,19.36,17.98,17.09,17.33,18.66,21.16,25.26,30.08,34.79,38.91,42.00,44.16,45.09,45.72,46.23,46.03,45.35,44.16,42.68,41.41,41.39,43.57,46.63,49.88,53.59,57.43,62.05,67.43,73.13,78.65,83.00,86.72,90.63,95.72,99.62
221.91,220.37,219.37,219.26,219.99,221.44,223.18,224.82,226.60,228.54,230.18,231.44,233.03,234.27,235.15,235.82,236.48,237.06,237.98,239.29,240.96,242.50,244.38,245.44,245.27,244.22,242.45,239.64,236.20,232.52,228.43,223.26,218.20,213.91,210.06,206.94,204.15,201.05,196.48,190.65,185.60,180.67,174.91,168.55,162.40,157.46,153.62,149.42,144.31,140.44,137.68,135.03,131.68,128.09,124.07,118.56,109.61,105.19,102.00,98.28,93.38,89.09,85.19,81.75,79.02,76.92,75.27,73.35,70.96,68.43,65.95,64.31,63.59,63.60,63.26,61.91,59.96,58.00,57.28,57.61,58.50,59.23,58.37,55.77,51.51,46.64,41.99,37.51,33.42,29.19,24.65,20.41,18.61,18.93,20.30,21.41,21.38,19.42,16.89,15.80,19.48,24.23,29.44,34.83,39.79,43.56,47.02,49.67,50.45,49.29,45.98,41.52,36.11,29.51,22.71,15.29,9.49,9.06,8.81,8.59,8.37,8.16,7.97,8.05,8.20,8.34,8.48,8.73,10.22,13.22,17.58,21.03,24.04,26.95,29.65,31.59,33.09,34.64,36.00,36.25,34.98,33.21,31.41,30.46,32.65,36.34,40.39,44.54,48.81,52.43,55.98,59.31,62.16,65.58,68.73,71.83,75.06,78.43,82.00,85.88,90.17,94.98,99.81,103.41,105.98,107.09,104.75,102.40,100.63,100.33,103.34,105.83,105.88,103.61,99.53,95.96,92.76,91.51,93.84,100.58,105.50,108.18,108.62,106.37,103.24,99.11,92.78,83.64,75.13,67.77,60.81,54.07,47.96,42.73,39.01,37.24,38.30,42.02,47.94,53.86,59.06,65.00,69.03,70.95,70.98,69.03,65.56,61.32,56.75,52.15,47.93,43.20,38.35,33.97,31.13,30.15,29.98,29.87,29.15,27.41,24.98,22.53,20.39,18.52,17.66,17.92,19.40,22.65,27.70,32.88,37.66,41.77,44.80,47.01,48.89,50.30,50.42,49.57,48.26,46.82,45.59,45.34,46.92,49.47,52.45,55.66,59.30,63.75,68.81,73.86,78.92,83.45,87.68,92.06,97.34,100.99
216.72,215.29,214.16,213.76,213.97,215.01,216.42,217.79,219.69,221.71,223.18,224.11,225.85,227.36,228.33,228.97,229.71,230.50,231.72,233.18,234.70,236.37,238.28,239.77,240.59,240.89,240.65,239.19,236.84,234.03,230.85,225.89,220.72,216.28,212.33,208.92,205.78,202.55,198.44,192.45,187.09,182.05,176.56,170.61,164.58,159.56,155.70,152.07,147.71,143.71,140.21,137.01,133.46,129.52,124.94,118.78,109.42,104.74,101.17,96.98,91.77,87.99,84.79,82.02,79.63,76.67,73.60,70.82,68.36,65.78,62.65,60.52,59.41,58.86,58.36,56.40,53.93,51.92,51.15,51.41,52.24,53.07,52.84,50.68,46.69,42.11,38.00,34.24,30.55,27.05,23.70,20.55,19.95,20.65,21.87,22.86,22.28,19.98,17.59,17.00,20.74,25.08,29.66,34.57,39.78,43.84,47.53,50.30,51.12,50.16,46.76,42.16,36.86,30.91,24.40,16.94,10.80,9.72,9.31,9.02,8.73,8.45,8.21,8.03,7.92,7.91,8.05,8.62,10.38,13.50,17.80,20.96,24.12,27.42,30.54,32.63,34.35,36.30,38.33,39.73,39.52,38.22,36.42,34.83,35.04,36.73,39.59,43.39,47.71,51.15,54.45,57.35,59.59,63.17,66.45,69.80,73.42,77.11,81.02,85.13,89.63,94.89,100.42,104.35,107.11,108.53,106.63,105.09,104.07,104.27,107.58,110.32,110.99,108.93,103.74,98.93,95.08,94.12,96.93,101.67,106.84,110.05,110.86,109.24,106.09,102.42,96.38,86.93,79.14,72.26,65.17,57.78,51.02,45.68,41.79,39.47,39.57,42.82,48.25,53.87,59.02,64.64,68.60,71.06,72.15,71.44,68.89,65.29,61.14,56.58,51.82,46.91,42.14,37.96,35.36,34.45,34.33,34.36,33.92,32.04,29.39,26.48,23.53,20.86,19.05,18.15,18.33,20.38,25.19,30.46,35.71,40.72,44.42,48.05,51.60,54.46,55.18,54.23,52.79,51.40,50.43,50.25,51.05,52.77,55.39,58.35,62.05,66.40,71.08,75.56,80.00,84.44,88.98,93.68,98.39,101.61
211.01,210.32,209.55,208.90,208.75,209.20,209.94,210.62,211.49,213.08,214.85,216.35,217.14,217.81,218.56,219.52,220.84,222.39,224.13,225.96,227.74,229.39,230.73,231.86,232.91,234.11,235.32,235.28,234.50,233.67,231.57,227.63,222.88,218.11,214.12,210.54,207.02,203.37,199.24,193.89,188.58,183.40,178.20,173.04,167.72,162.52,157.88,154.38,150.05,145.87,141.95,138.07,134.16,129.62,123.90,116.66,108.77,104.30,100.48,96.13,91.33,89.43,89.02,88.63,86.74,81.77,76.96,72.67,69.05,66.27,61.52,58.28,56.62,55.41,54.14,51.86,49.64,48.17,47.05,46.37,46.00,45.88,45.91,44.73,41.81,38.19,34.76,31.25,28.08,25.05,22.48,21.61,21.85,22.63,23.71,24.59,22.95,20.27,17.96,17.48,20.77,24.59,28.42,32.86,39.16,43.60,47.56,50.65,51.75,50.75,47.65,43.52,38.60,32.62,26.11,19.13,13.02,10.16,9.51,9.31,9.10,8.84,8.55,8.27,8.13,8.16,8.46,9.55,11.65,14.57,17.88,19.65,21.90,24.72,27.75,30.02,31.91,34.82,38.22,40.47,41.37,41.21,40.52,39.69,39.46,39.53,40.80,43.63,47.77,51.41,55.00,58.33,61.13,64.18,67.14,70.41,74.15,78.07,81.97,85.83,90.31,96.44,101.81,105.99,108.90,110.15,109.60,108.70,107.79,107.77,110.60,113.75,114.81,113.44,109.48,103.78,98.90,96.65,97.98,102.01,107.46,111.24,112.67,111.81,108.85,105.18,99.54,91.01,83.06,76.43,69.68,62.36,55.06,49.38,45.29,42.70,42.01,43.36,47.55,52.75,57.94,62.82,66.91,69.86,71.89,73.14,71.49,68.68,65.15,60.83,56.23,51.09,46.10,41.95,39.69,38.65,38.61,38.94,38.75,37.02,34.15,30.80,27.37,24.39,21.66,19.50,18.41,19.56,22.94,28.08,33.88,39.40,43.84,48.15,52.98,57.65,59.58,59.29,57.92,56.34,55.37,55.03,55.48,56.74,58.93,61.90,65.49,69.61,74.01,78.33,82.38,86.42,90.87,95.85,100.16,103.07
205.05,205.37,205.12,204.63,204.35,204.55,205.03,205.51,205.88,206.69,207.94,209.28,209.60,209.93,210.40,211.13,212.41,213.93,215.52,217.27,219.27,221.25,222.88,224.28,225.56,226.80,228.20,229.22,230.07,230.83,229.63,226.87,223.09,218.78,215.12,211.58,207.86,203.95,199.84,194.74,189.66,184.86,180.31,175.57,170.77,165.64,160.34,155.60,150.42,145.85,141.67,137.27,132.76,127.75,121.69,114.61,108.26,104.08,100.31,96.49,93.29,92.63,93.19,93.45,91.88,87.38,81.98,76.75,72.40,69.64,65.44,60.93,57.27,55.59,53.97,51.24,48.87,47.51,45.73,43.63,41.97,41.01,40.74,40.04,37.90,34.98,31.98,28.88,26.21,24.24,23.26,23.58,24.20,25.01,25.72,25.60,23.16,20.28,18.05,17.58,20.34,23.99,27.82,32.37,38.89,43.45,47.53,50.80,52.17,51.50,49.14,45.62,41.04,35.48,28.52,21.66,15.71,11.58,9.92,9.37,9.08,8.82,8.71,8.65,8.68,8.88,9.44,10.72,12.81,15.18,17.17,18.30,19.90,21.74,23.63,25.57,27.76,30.92,34.84,38.73,41.11,42.31,42.98,43.36,43.47,43.44,44.54,47.08,50.64,54.24,57.85,61.31,64.33,67.02,69.58,72.61,76.33,80.22,83.97,87.66,91.94,97.76,102.72,106.89,109.91,111.37,111.98,111.78,111.22,111.20,113.56,116.81,118.13,117.31,114.32,108.68,103.23,99.64,99.16,102.50,107.79,111.69,113.78,114.42,111.73,107.80,102.64,95.55,86.91,80.13,73.46,66.28,59.36,53.94,50.26,47.80,46.27,46.17,47.97,51.30,55.77,59.88,63.76,67.21,70.17,72.47,73.31,71.84,68.85,64.91,60.50,55.55,50.36,45.74,43.40,42.48,42.64,43.11,42.95,41.35,38.69,35.38,31.69,28.23,24.96,21.93,19.58,19.14,21.16,26.00,32.24,38.47,43.12,47.39,52.58,58.16,61.28,62.25,61.61,60.41,59.78,59.46,59.87,61.04,63.08,65.93,69.63,73.75,78.05,82.34,86.10,89.39,93.29,98.37,102.04,104.77
198.82,200.09,200.49,200.42,200.18,200.33,200.77,201.24,201.35,201.43,201.91,202.72,202.86,203.09,203.29,203.63,204.59,205.75,206.95,208.40,210.36,212.65,214.88,216.88,218.51,219.63,220.66,222.12,223.94,225.65,225.52,224.13,221.68,218.37,215.27,212.00,208.29,204.29,200.23,195.16,190.34,186.06,182.22,177.81,173.38,168.33,162.46,156.09,150.00,145.11,140.78,135.98,130.82,125.50,119.59,113.26,108.18,104.33,100.87,97.96,96.69,96.92,97.59,97.61,95.98,92.60,87.41,81.98,77.36,74.45,71.45,66.36,61.08,58.80,56.50,53.24,50.49,48.85,46.33,42.96,40.09,38.16,37.13,36.31,34.63,32.26,29.60,27.12,25.22,24.52,25.06,25.88,26.72,27.53,27.75,26.29,23.27,20.26,18.11,17.67,19.96,23.66,27.84,32.66,38.88,43.41,47.45,50.75,52.41,52.39,50.87,48.06,43.96,38.69,31.34,24.60,18.87,13.97,10.91,9.61,9.05,8.76,8.81,8.94,9.11,9.44,10.33,11.66,13.47,15.13,16.06,17.08,18.32,19.26,19.90,21.23,23.36,26.34,30.41,35.78,39.57,42.02,43.78,45.10,45.76,46.48,48.23,51.01,54.10,57.60,61.23,64.77,67.91,70.31,72.61,75.50,79.18,82.92,86.52,89.96,93.69,98.44,102.74,106.53,109.61,111.72,113.28,114.01,114.24,114.63,116.52,119.39,120.76,120.40,118.12,113.15,107.77,103.30,101.12,103.28,108.02,111.87,114.55,116.70,114.91,110.79,105.78,99.89,90.81,83.59,76.75,69.84,63.88,59.36,56.66,54.77,52.75,51.58,50.70,51.40,54.14,56.99,60.11,63.66,67.29,70.28,73.75,74.25,72.36,68.86,64.73,60.09,54.89,49.81,46.99,46.20,46.51,47.05,46.86,45.34,42.94,39.85,36.11,32.24,28.59,24.97,21.54,19.17,19.91,24.33,30.88,37.86,42.49,46.46,51.46,57.30,61.52,63.92,64.45,64.06,63.87,63.75,64.28,65.57,67.70,70.56,74.33,78.55,82.84,86.78,90.05,92.52,95.77,100.72,103.89,106.56
192.13,193.71,195.04,195.61,195.62,195.89,196.40,196.75,196.49,196.45,196.60,196.83,196.91,196.97,197.04,197.27,197.92,198.85,199.87,200.92,202.15,204.20,206.74,209.33,211.68,213.37,214.05,214.48,215.14,216.42,218.13,218.56,217.82,216.11,213.85,211.19,207.91,204.17,200.15,195.05,190.35,186.31,182.79,179.01,174.71,169.50,163.13,155.72,149.72,145.03,140.74,135.73,130.08,124.72,119.32,113.85,109.21,105.72,102.99,101.23,101.36,102.35,103.17,102.72,100.07,96.34,92.23,88.04,83.88,80.05,77.12,73.81,70.17,66.57,61.97,58.07,54.94,52.28,49.29,45.66,41.85,38.38,35.91,33.77,32.00,30.14,27.95,26.46,26.22,26.59,27.24,28.09,29.14,29.90,29.59,27.03,23.61,20.49,18.44,18.21,20.30,24.26,28.78,33.61,39.13,43.48,47.21,50.30,52.37,53.49,52.53,50.57,47.45,41.50,34.52,28.30,22.94,18.01,13.43,10.75,9.48,9.18,9.00,8.79,8.68,8.94,10.16,11.63,12.76,13.71,14.81,16.21,17.56,18.46,18.91,19.54,20.29,22.80,27.02,32.17,36.65,39.73,41.61,42.50,43.36,45.39,48.44,52.08,55.56,59.25,63.19,67.15,70.63,72.72,75.28,78.52,82.26,85.92,89.49,92.25,94.61,97.56,100.66,103.33,106.31,109.87,112.13,114.36,116.39,118.08,119.45,120.92,121.87,121.82,120.02,116.38,112.38,108.41,105.18,104.66,108.30,112.13,115.19,117.86,118.85,115.03,109.12,103.02,94.92,86.87,79.52,73.29,68.77,66.36,65.57,65.15,63.77,61.95,59.16,56.74,55.61,55.76,56.83,59.23,62.66,66.58,70.93,74.58,75.61,72.65,69.03,64.61,59.83,55.08,51.09,50.03,50.27,50.80,50.77,49.14,46.63,43.63,40.22,36.48,32.49,28.59,24.57,20.24,19.68,23.49,30.07,37.60,42.38,46.06,50.42,55.79,60.91,64.52,66.70,67.72,67.74,68.10,68.86,70.40,73.04,76.49,79.92,84.15,88.47,90.87,92.97,94.89,97.72,102.14,105.52,108.39
186.40,187.78,189.02,189.78,190.25,190.84,191.46,191.79,191.40,191.03,190.86,190.90,190.93,190.94,191.09,191.46,192.09,192.84,193.81,194.90,196.11,197.86,200.04,202.29,204.34,205.90,206.63,206.92,207.18,207.90,209.55,210.82,211.58,211.64,210.63,208.58,205.83,202.55,198.60,193.66,189.38,185.72,182.37,178.83,174.88,169.82,163.41,156.12,150.63,146.39,142.57,138.10,131.50,125.87,120.88,116.22,112.37,109.63,107.89,107.33,108.57,110.38,110.72,109.30,105.91,100.94,96.63,92.92,89.56,86.25,82.30,78.44,74.75,70.99,66.64,62.54,58.69,55.01,51.34,46.75,42.04,37.90,35.12,32.43,30.58,29.17,27.91,27.56,27.97,28.93,30.08,30.65,31.72,32.26,31.46,28.29,23.70,20.47,18.82,18.91,20.87,24.78,29.36,34.07,38.67,42.63,46.20,49.32,51.70,53.59,53.73,52.47,49.50,43.85,37.26,31.82,27.31,22.62,17.70,13.94,11.24,9.63,9.11,9.33,9.61,9.72,9.73,10.54,11.57,12.73,14.12,15.64,16.89,17.72,18.17,18.70,19.19,20.60,23.27,27.46,32.23,35.24,36.83,37.68,39.06,42.30,46.48,50.79,54.18,57.34,60.53,63.84,67.12,69.68,72.85,76.63,80.80,84.77,88.25,90.56,92.09,93.72,95.64,98.09,101.53,106.10,110.27,113.43,116.30,118.93,120.69,122.18,123.06,123.03,121.65,119.42,116.96,113.69,109.68,106.91,108.63,111.88,115.37,118.59,120.74,117.95,112.41,105.94,98.37,90.31,83.02,77.28,73.89,73.05,73.30,73.48,72.52,70.28,66.66,62.96,60.10,58.55,58.06,58.57,60.16,63.39,68.50,73.48,76.36,75.59,72.64,68.96,64.76,60.17,55.86,54.14,53.98,54.59,55.17,53.65,50.79,47.50,44.12,40.49,36.53,32.47,27.96,22.54,20.23,23.01,29.14,36.62,41.84,45.67,49.94,55.19,60.69,64.81,68.00,70.30,71.41,72.28,73.46,75.31,78.03,81.29,84.55,87.97,91.15,93.13,95.07,97.00,99.66,103.55,107.15,110.18
181.46,182.42,183.25,183.94,184.63,185.29,185.79,185.88,185.52,185.00,184.75,184.86,184.89,184.91,185.14,185.64,186.41,187.15,188.21,189.47,190.82,192.39,194.18,195.96,197.59,198.85,199.73,200.14,200.30,200.55,201.55,202.98,204.57,205.90,205.91,204.58,202.50,199.75,195.97,191.53,187.86,184.67,181.45,177.97,174.32,169.47,163.27,156.88,152.13,148.33,144.91,140.96,134.00,128.30,123.67,119.77,116.70,114.81,114.17,114.70,116.35,118.13,117.65,115.32,111.43,105.63,100.80,97.00,93.99,91.07,86.23,81.42,77.18,73.41,69.62,65.32,60.77,56.18,51.70,46.10,40.96,36.96,34.28,31.60,29.89,29.10,29.16,30.18,31.27,32.58,33.82,33.95,34.69,34.78,33.41,29.56,24.06,20.69,19.28,19.59,21.46,25.14,29.50,33.88,37.74,41.36,44.85,48.04,50.70,53.14,54.58,54.05,51.06,46.11,40.00,35.23,31.48,27.16,22.28,17.67,13.61,10.60,9.59,10.35,11.07,10.93,9.71,9.81,10.71,12.03,13.60,15.16,16.25,17.01,17.59,18.22,18.76,19.24,20.29,23.06,27.04,29.70,31.20,32.15,34.07,38.30,43.40,48.19,51.29,53.93,56.43,59.08,62.18,65.45,69.43,73.83,78.35,82.40,85.28,86.97,87.94,88.94,90.40,93.15,97.19,102.51,108.21,112.09,115.53,118.80,121.13,123.07,124.20,124.32,123.26,122.13,120.89,118.35,114.07,109.69,109.39,111.84,115.63,119.32,122.14,120.37,115.45,108.80,101.64,94.03,87.21,82.08,79.73,80.11,80.97,81.31,80.41,77.79,73.80,69.58,65.93,63.49,62.06,60.86,60.16,61.59,66.81,72.46,76.75,78.21,76.18,73.35,69.68,65.19,60.82,58.29,57.50,58.08,59.42,58.32,55.39,51.84,48.19,44.43,40.55,36.41,31.63,25.85,21.77,23.16,28.38,35.33,40.88,45.12,49.56,54.80,60.46,64.91,68.75,71.98,74.13,75.61,77.34,79.47,81.99,84.73,87.75,90.41,92.63,94.65,96.74,98.93,101.59,105.04,108.67,111.72
177.70,178.16,178.56,178.91,179.12,179.17,178.88,178.14,177.98,177.94,178.16,178.61,178.77,178.85,178.98,179.38,180.41,181.56,182.89,184.28,185.68,187.38,189.16,190.96,192.65,193.83,194.71,195.17,195.34,195.41,195.83,196.55,197.63,198.79,199.02,198.61,197.37,195.18,191.84,188.52,185.72,183.05,180.04,176.51,172.91,168.13,162.41,157.89,154.10,150.53,146.92,142.89,137.39,132.24,127.98,124.80,122.19,121.11,121.57,122.82,123.34,123.06,121.46,118.68,114.66,109.64,104.57,99.98,95.94,92.01,87.42,82.61,77.97,73.73,69.14,64.31,59.31,54.15,48.63,42.58,38.20,35.53,33.14,31.21,30.14,30.34,32.26,35.01,37.63,39.06,39.09,38.67,38.41,37.71,35.53,30.51,25.34,21.75,19.94,20.09,21.93,25.20,28.87,32.56,36.25,39.89,43.33,46.53,49.45,52.20,54.94,55.30,52.54,48.46,43.06,38.54,34.88,31.01,26.10,21.01,16.39,12.89,11.11,11.99,12.66,12.13,10.87,10.82,11.10,11.74,13.11,14.67,15.59,16.35,17.18,17.91,18.40,18.84,19.45,20.42,21.36,23.54,25.58,26.73,28.91,33.64,39.21,44.23,47.00,49.78,52.50,55.36,58.71,62.66,67.69,72.69,76.96,80.21,81.41,81.98,82.74,84.37,87.01,90.52,95.14,100.93,106.23,110.78,114.84,118.37,121.00,123.20,125.04,125.89,125.02,124.18,123.31,121.41,117.84,113.11,111.28,112.82,116.51,120.37,123.94,122.60,117.96,111.70,104.97,98.28,92.49,88.41,87.16,88.32,89.45,89.58,88.03,85.06,80.95,76.58,72.73,70.51,69.24,67.26,64.57,62.80,66.58,72.72,78.17,80.67,80.03,77.94,74.57,70.16,65.72,62.37,60.69,60.91,62.95,62.79,60.61,57.15,52.81,48.37,44.44,40.27,35.64,30.63,25.13,24.64,28.15,33.88,39.29,44.07,48.90,54.13,59.78,64.60,68.80,72.25,74.58,76.82,79.24,81.53,83.57,85.75,88.25,90.90,93.49,95.78,97.98,100.54,103.44,106.65,109.88,112.63
174.72,175.04,175.30,175.37,175.16,174.69,173.63,171.83,171.63,171.91,172.38,172.91,173.24,173.29,173.33,173.59,174.48,175.92,177.44,179.02,180.73,182.41,184.17,185.96,187.63,188.75,189.26,189.70,190.03,190.06,190.48,190.84,191.25,191.73,191.87,191.45,190.55,189.10,186.82,184.56,182.33,179.95,177.20,173.94,170.95,167.15,162.51,158.48,154.94,151.49,147.88,143.91,139.53,135.13,131.53,129.19,127.60,127.04,127.39,127.93,127.18,125.04,122.43,119.23,115.01,110.06,104.99,100.28,96.05,91.95,87.42,82.69,77.92,73.17,67.79,61.90,56.01,50.27,44.07,39.56,36.75,35.16,34.09,33.11,32.65,33.26,35.54,38.59,41.69,43.20,42.81,42.09,41.50,40.42,37.60,31.65,26.98,23.56,21.38,20.91,22.74,25.45,28.37,31.56,35.52,39.43,42.77,45.75,48.68,51.63,54.85,55.83,53.71,50.25,45.97,41.84,37.81,33.31,28.00,22.95,18.65,15.56,14.07,14.36,14.13,13.04,12.39,12.79,13.32,13.50,13.33,14.27,15.11,15.91,16.77,17.50,18.05,18.64,19.25,19.78,19.94,20.91,21.90,22.72,25.22,29.24,34.36,39.67,43.36,46.25,49.29,52.65,56.42,60.97,66.47,71.09,73.92,75.58,76.43,77.68,79.64,82.39,85.65,89.52,94.45,100.48,105.57,110.16,114.14,117.48,120.35,122.65,124.89,126.65,127.12,126.66,125.65,123.73,120.68,117.14,115.77,116.19,118.14,121.65,125.22,124.24,120.14,114.46,108.36,102.69,98.16,95.29,94.71,95.95,97.09,97.27,95.77,92.60,88.67,84.43,80.49,78.23,76.78,73.91,69.78,66.40,67.45,72.28,77.91,81.76,82.95,81.49,78.65,74.92,70.61,67.20,65.40,65.27,66.64,66.83,65.11,61.91,57.53,52.88,48.42,43.96,39.37,34.49,28.98,26.68,27.89,32.29,36.96,41.27,46.37,52.25,57.31,62.01,66.64,70.49,72.41,73.79,76.22,79.00,81.65,84.35,87.04,89.76,92.58,95.62,98.62,101.53,104.40,107.29,110.07,112.51
171.54,171.68,171.68,171.20,170.24,169.40,168.22,166.31,166.26,166.80,167.40,167.89,168.23,168.24,168.21,168.40,169.18,170.68,172.26,173.98,175.93,177.52,179.23,180.94,182.49,183.58,183.77,184.03,184.32,184.38,184.91,185.21,185.31,185.32,185.32,184.75,183.93,182.93,181.54,179.97,178.06,175.91,173.51,170.84,168.50,165.71,162.22,158.43,154.96,151.60,148.10,144.22,140.58,137.15,134.45,132.87,132.01,131.40,131.03,130.50,128.75,125.50,122.14,118.42,113.73,108.55,103.45,98.83,94.69,90.59,86.10,81.56,76.96,72.00,65.88,58.95,52.30,46.38,40.49,37.90,36.71,36.11,36.05,35.79,35.79,36.71,39.17,42.35,45.31,46.63,46.06,44.99,43.87,42.30,38.99,32.51,28.25,25.37,23.20,22.06,23.61,25.86,28.31,31.27,35.56,39.65,42.92,45.76,48.63,51.68,54.97,56.37,55.01,52.08,48.72,44.86,40.43,35.25,29.57,24.89,21.20,18.55,17.10,16.37,15.22,13.96,14.27,15.11,15.86,15.91,15.05,15.49,15.77,16.02,16.45,17.17,17.86,18.59,19.28,19.69,19.77,19.83,19.88,20.28,22.35,25.55,29.91,35.02,39.50,42.75,46.30,50.40,54.97,60.03,65.32,68.97,70.30,70.94,72.49,75.17,78.62,82.28,85.77,89.74,94.67,100.52,105.22,109.43,112.98,115.97,118.94,121.66,124.50,127.19,129.01,129.03,128.14,126.54,124.29,122.00,120.88,120.45,121.24,124.54,127.34,126.27,122.48,117.22,111.61,106.71,103.21,101.44,101.49,102.61,103.59,103.83,102.68,99.88,96.29,92.31,88.34,85.42,83.31,79.76,74.85,70.42,69.00,72.32,77.67,82.44,85.38,84.78,82.63,79.65,75.76,72.59,70.90,70.51,71.05,71.29,69.68,66.47,61.99,57.31,52.43,47.67,42.99,38.07,32.77,29.01,28.10,30.87,34.43,38.16,43.06,48.95,53.82,58.28,62.90,66.84,68.63,69.42,71.82,75.15,78.72,82.14,85.03,87.66,90.47,94.10,97.84,101.20,104.16,106.77,109.39,111.75
167.53,167.21,166.58,165.12,162.90,161.90,161.71,161.48,162.01,162.74,163.37,163.75,163.80,163.74,163.75,164.01,164.90,166.18,167.65,169.37,171.27,172.57,174.15,175.71,177.08,178.19,178.39,178.29,178.20,178.34,178.89,179.45,179.85,179.97,179.89,179.37,178.45,177.32,176.18,174.61,172.80,170.91,169.03,167.30,165.41,163.23,160.61,157.31,153.95,150.74,147.41,143.62,140.22,137.88,136.28,135.22,134.29,132.88,131.44,129.93,127.81,124.67,120.97,116.52,111.03,105.38,100.11,95.54,91.54,87.28,82.84,78.61,74.48,69.84,63.26,55.86,49.03,43.62,39.58,38.48,38.57,38.90,38.89,38.78,39.01,40.31,43.36,46.97,49.23,49.97,49.21,47.57,45.27,42.83,39.24,33.02,28.91,26.92,25.29,23.64,24.42,26.47,29.02,32.18,36.64,40.60,43.89,46.81,49.65,52.65,55.70,57.33,56.75,54.30,51.26,47.38,42.73,37.40,31.65,27.59,24.55,21.89,19.46,17.37,15.72,15.10,16.60,17.61,18.13,18.57,19.23,19.78,18.78,17.42,16.63,17.16,17.94,18.72,19.36,19.60,19.69,19.77,19.84,19.95,20.36,23.06,26.67,30.64,35.01,38.97,43.41,48.56,54.37,59.81,63.94,66.12,66.59,67.79,71.14,75.58,80.24,84.20,87.55,91.31,95.80,100.76,104.65,108.01,110.90,113.50,116.35,120.13,124.03,127.61,130.28,130.95,130.91,130.48,129.56,127.90,125.76,125.10,126.59,130.17,131.27,129.36,125.42,120.14,114.65,110.02,107.03,106.02,106.84,107.89,108.61,108.79,108.15,106.51,103.44,99.78,95.85,91.42,87.97,84.05,79.23,73.95,71.23,73.60,78.41,83.25,87.45,88.10,86.86,84.52,81.45,78.68,77.17,76.69,76.72,76.72,74.76,70.98,65.90,61.24,56.36,51.42,46.50,41.56,36.12,31.57,29.20,30.06,32.27,35.67,39.55,43.97,49.50,53.70,57.55,61.01,63.40,64.86,67.55,71.32,75.69,79.56,82.34,84.62,87.08,90.73,94.74,98.71,102.11,104.67,107.64,110.36
162.00,161.38,160.28,158.28,156.16,155.33,155.57,156.37,157.28,158.19,158.79,158.92,158.84,158.60,158.58,158.96,160.05,161.86,163.40,164.84,166.10,165.96,167.04,168.75,170.61,172.17,172.94,173.21,173.31,173.52,173.96,174.12,174.12,174.03,173.76,173.22,172.44,171.44,170.07,168.10,166.67,165.66,164.71,163.52,162.05,160.18,157.79,154.73,151.77,148.89,145.78,142.06,138.38,135.84,134.31,133.59,132.83,131.61,130.03,128.18,126.04,123.12,118.95,113.93,108.29,102.21,96.43,91.46,87.17,82.49,77.50,72.95,68.83,64.63,59.33,53.55,47.89,43.08,40.31,40.00,40.82,41.91,42.52,42.47,42.74,44.29,47.68,50.56,52.44,53.04,52.02,49.35,46.48,43.67,40.40,35.94,32.04,29.72,27.55,25.23,25.40,27.55,30.54,34.06,38.13,41.57,44.65,47.60,50.55,53.59,56.55,58.56,58.90,56.95,53.91,49.69,44.75,39.77,34.92,31.40,28.37,25.07,21.15,18.19,16.70,16.87,18.77,20.64,21.66,22.62,24.48,26.29,25.87,23.44,19.89,17.89,18.09,18.86,19.46,19.59,19.68,19.75,19.81,19.84,19.95,21.74,24.65,28.04,31.15,35.11,40.77,47.34,53.66,58.92,61.86,63.11,63.98,67.69,72.27,77.19,82.07,86.41,89.84,93.03,96.36,99.87,102.86,105.18,107.46,109.96,112.92,117.44,122.21,126.77,130.65,132.48,133.24,133.44,133.10,132.11,129.99,129.82,132.13,135.88,136.02,133.44,129.31,124.16,118.40,113.93,111.44,111.05,112.35,113.66,114.63,115.04,114.53,113.09,110.29,106.84,103.01,98.46,93.52,88.46,83.04,76.92,73.74,75.52,80.09,85.42,89.77,91.41,91.61,90.67,88.19,86.09,84.93,84.27,83.43,82.37,79.75,75.31,69.39,64.38,59.32,54.43,49.63,44.61,39.09,33.84,30.84,31.77,33.90,36.27,38.68,41.54,45.88,49.56,53.39,56.91,59.14,61.05,64.20,68.04,72.02,75.50,78.56,80.94,83.20,86.71,90.46,94.70,98.91,102.52,105.79,109.03
156.86,156.19,154.87,152.71,150.89,150.02,150.19,151.35,152.31,153.20,153.63,153.43,153.13,152.88,152.93,153.38,154.43,156.22,157.61,158.78,159.70,159.03,159.92,161.64,163.63,165.42,166.67,167.50,168.08,168.47,168.83,168.68,168.34,167.91,167.19,166.42,165.52,164.44,163.11,161.25,160.28,159.93,159.66,158.85,157.84,156.33,154.20,151.75,149.26,146.67,143.68,139.89,135.81,133.00,131.45,130.89,130.23,129.19,127.75,126.00,124.03,121.29,116.98,111.68,105.73,98.74,92.70,87.67,83.06,77.47,72.16,67.46,63.26,59.32,55.20,51.15,47.13,43.57,42.00,42.18,43.40,45.06,46.19,46.40,46.73,48.19,51.29,53.58,55.35,55.90,54.61,51.25,48.05,45.11,42.26,39.27,35.73,32.73,29.65,26.64,26.26,28.60,31.89,35.41,38.94,41.96,44.89,47.87,50.94,54.04,57.07,59.55,60.76,59.39,56.32,51.76,46.59,42.07,38.31,35.23,32.11,28.13,22.35,18.77,17.62,18.64,21.39,24.05,25.84,27.36,29.46,31.93,31.82,29.09,24.33,19.96,18.81,19.06,19.57,19.63,19.70,19.77,19.81,19.88,20.21,21.47,23.72,26.44,28.60,32.20,38.31,45.66,52.46,57.28,59.19,60.06,61.91,67.78,73.22,78.35,83.15,87.19,90.30,92.77,95.05,97.41,99.68,101.59,103.83,106.57,109.77,114.56,119.62,124.73,129.72,132.69,134.53,135.73,136.26,135.86,133.98,134.32,137.19,140.66,140.46,137.59,133.41,128.50,122.94,118.55,116.31,116.40,118.11,119.74,121.06,121.71,121.09,119.35,116.48,113.06,109.23,104.85,98.95,92.94,86.68,79.46,75.94,77.37,81.86,87.63,92.09,94.63,96.05,96.31,94.67,92.93,91.80,90.94,89.64,87.63,84.13,78.99,72.58,67.05,61.56,56.56,51.87,46.79,41.03,35.74,32.78,33.75,36.27,38.61,40.68,42.82,45.83,48.61,52.06,55.38,57.20,59.27,62.59,66.09,69.14,72.07,75.29,77.86,80.08,83.34,86.89,91.03,95.53,100.08,103.89,107.72
152.74,152.32,151.13,149.18,147.48,146.22,145.79,146.58,147.13,147.68,147.77,147.23,146.67,146.64,146.90,147.34,148.05,149.00,149.87,150.88,152.04,152.35,153.57,155.05,156.54,158.22,159.66,161.00,162.17,162.92,163.23,163.12,162.73,162.00,160.58,159.39,157.97,156.47,155.51,154.47,153.94,153.78,153.67,153.19,152.71,151.68,150.09,148.69,146.67,144.26,141.22,137.11,132.75,130.04,128.61,128.01,127.28,126.10,124.82,123.48,121.78,119.20,115.23,110.06,103.46,95.07,89.27,84.75,79.99,73.07,67.90,63.39,59.12,55.12,51.50,48.69,46.48,44.97,44.56,44.89,46.26,48.27,49.77,50.48,50.94,51.93,54.04,56.27,58.38,59.00,57.39,53.70,50.23,47.27,44.69,42.18,39.09,35.39,31.36,27.76,26.83,29.32,32.54,35.57,38.56,41.42,44.31,47.34,50.55,53.81,57.09,60.05,61.99,61.33,58.35,53.63,48.38,44.23,41.38,38.66,35.48,30.89,23.18,19.21,18.47,20.44,24.74,27.96,30.61,32.62,33.86,35.77,35.06,32.82,29.24,23.62,20.37,19.51,19.84,19.84,19.89,19.85,19.83,20.03,20.82,22.17,23.86,25.75,27.74,30.76,36.22,43.36,50.57,54.75,55.87,56.97,60.20,67.02,72.88,78.22,82.83,85.71,87.87,89.58,91.24,93.10,95.02,97.48,100.49,103.92,107.49,112.03,116.63,121.59,127.20,131.22,134.44,137.17,139.12,139.36,137.76,138.42,141.36,144.13,144.20,141.56,137.51,132.89,128.17,123.84,121.65,122.05,124.12,126.07,127.66,128.37,127.38,125.00,121.69,117.99,114.03,109.66,103.57,97.10,90.03,81.62,77.69,79.00,83.49,89.44,94.36,97.62,99.64,100.54,100.10,98.32,96.84,95.83,94.71,92.23,87.67,81.83,75.35,69.22,63.05,57.68,52.91,47.77,41.59,37.05,34.73,35.15,38.15,41.88,45.25,47.97,50.27,51.96,54.41,56.94,58.35,60.35,63.41,66.14,68.00,70.47,73.66,76.45,78.88,81.81,85.25,88.76,92.73,97.52,102.09,106.56
149.03,148.88,148.13,146.50,144.83,143.33,142.28,141.97,141.82,141.54,141.21,140.91,140.69,140.89,141.21,141.65,142.37,143.11,143.88,144.78,145.85,146.62,148.00,149.51,151.09,153.16,154.93,156.27,157.44,158.55,158.85,158.70,158.34,157.68,156.28,154.98,153.38,151.55,149.95,148.95,148.61,148.55,148.55,148.51,148.32,147.78,146.85,145.75,144.07,141.73,138.36,133.60,129.84,127.42,125.94,125.11,124.11,122.82,121.41,119.95,118.40,115.99,112.63,108.06,101.57,92.90,87.62,83.66,79.04,71.71,66.52,61.89,57.28,52.92,49.91,48.48,48.02,48.05,47.82,47.53,48.67,51.21,53.93,55.00,55.53,56.18,57.45,59.76,63.36,65.03,62.96,57.14,53.06,49.72,46.61,43.57,40.31,36.39,32.20,28.53,27.07,29.06,31.86,34.52,37.14,39.75,42.53,45.67,49.38,53.50,57.03,60.12,62.41,62.62,60.31,55.82,50.58,46.57,43.96,41.55,38.07,32.45,24.66,20.39,20.36,23.80,28.71,33.02,36.05,37.99,39.08,39.98,39.10,36.91,33.21,27.38,22.86,21.10,21.13,21.05,20.86,20.30,19.87,20.05,20.88,22.33,24.04,25.89,27.97,30.73,35.95,42.49,48.39,51.72,52.04,53.55,58.31,65.19,70.77,75.87,80.19,82.36,83.58,84.77,86.17,87.92,90.23,93.60,97.92,102.65,106.74,111.13,115.09,119.08,123.91,129.44,133.40,136.66,139.61,141.61,141.12,141.93,144.50,147.22,147.90,145.91,141.99,136.92,132.61,128.78,126.94,127.60,130.03,132.27,133.74,133.97,132.24,129.25,125.36,121.15,116.73,111.62,105.19,98.52,91.56,83.97,79.74,81.03,85.50,91.18,96.91,99.85,101.54,102.67,103.04,101.94,100.77,99.87,98.94,96.37,91.08,84.30,77.03,70.57,64.00,58.21,53.02,47.45,41.33,37.21,35.18,35.36,38.05,42.10,46.69,51.11,54.25,56.66,58.57,60.11,61.53,63.97,66.76,68.94,70.29,72.38,76.26,79.89,82.91,85.87,87.84,90.06,92.95,96.78,101.17,106.43
145.63,145.69,145.29,143.99,142.40,140.89,139.55,138.45,137.86,136.84,135.92,135.44,135.12,135.21,135.43,135.78,136.50,137.20,138.02,138.95,139.99,141.10,142.48,143.85,145.24,147.12,149.19,151.42,153.48,154.81,155.09,154.95,154.59,153.86,152.22,150.47,148.75,147.01,145.25,144.31,144.00,143.97,144.07,144.26,144.27,144.07,143.60,142.66,141.08,138.66,135.20,130.63,127.44,125.11,123.36,122.07,120.68,119.19,117.54,115.89,114.45,112.45,109.70,105.91,100.24,91.83,86.89,83.21,78.70,71.46,66.27,61.59,56.83,52.44,51.05,50.96,51.51,52.24,51.87,51.22,52.39,55.29,58.19,59.46,60.08,60.57,61.53,64.18,67.87,69.60,67.40,60.53,56.16,52.49,48.74,44.77,40.97,36.89,32.75,29.16,27.43,28.70,30.70,32.77,35.31,37.84,40.41,43.53,47.74,52.42,56.58,60.20,63.00,64.13,62.45,58.66,53.84,49.40,46.74,44.21,40.17,33.69,26.30,22.82,24.07,28.84,33.90,38.08,40.69,42.34,43.59,44.24,43.56,41.24,36.89,30.68,25.87,23.90,23.81,23.74,23.34,22.39,21.34,20.68,21.07,22.37,23.96,25.70,27.77,30.21,35.18,41.14,45.70,48.10,48.32,50.53,56.24,62.60,67.56,72.05,75.93,78.10,79.14,80.30,81.84,83.94,86.92,90.77,95.93,101.70,105.92,110.18,113.74,117.03,121.06,127.16,131.81,135.60,139.07,142.17,143.33,144.81,147.20,150.06,151.43,150.17,146.63,141.43,137.17,133.63,132.08,132.96,135.71,138.14,139.26,138.84,136.49,132.64,128.00,123.20,118.24,112.49,105.66,98.78,92.07,85.72,82.41,83.89,88.31,94.04,99.56,102.13,103.61,104.78,105.49,105.11,104.28,103.24,101.77,98.81,93.13,85.83,77.95,71.07,64.29,58.09,52.30,46.34,40.77,37.32,35.78,35.99,37.61,40.77,45.76,51.83,56.25,59.65,61.81,63.34,65.13,67.95,70.63,72.59,73.75,75.16,79.29,83.93,88.04,91.02,92.20,93.55,95.44,98.09,101.87,107.32
142.52,142.70,142.52,141.52,140.11,138.81,137.52,136.12,135.32,133.78,132.19,131.03,130.12,129.80,129.75,129.93,130.54,131.18,132.08,133.14,134.31,135.71,136.97,138.02,138.94,140.02,142.22,145.87,149.47,150.97,151.35,151.38,150.99,149.81,147.60,145.19,143.33,141.91,140.46,139.59,139.23,139.28,139.68,139.96,140.17,140.19,139.91,139.19,137.59,135.07,131.88,128.36,125.54,123.05,120.86,118.96,117.11,115.31,113.46,111.69,110.34,108.92,106.73,103.72,99.28,91.54,86.75,83.04,78.57,71.65,66.50,61.84,57.28,53.73,54.78,55.79,56.55,57.17,56.57,56.02,57.41,60.25,62.25,63.65,64.41,65.00,66.14,69.13,71.37,72.07,70.08,63.74,59.51,55.65,51.30,46.20,41.71,37.45,33.30,29.67,28.02,28.50,29.49,30.84,33.51,36.13,38.46,41.47,46.12,50.94,55.96,60.46,63.95,66.03,64.85,62.00,57.97,52.85,49.92,46.74,41.88,34.87,28.12,26.45,29.39,35.09,39.88,42.73,44.36,45.71,47.34,48.54,48.19,45.64,40.52,33.80,29.47,27.92,28.00,28.01,27.43,26.21,24.35,22.22,21.63,22.56,23.90,25.35,27.19,29.09,33.42,38.61,42.18,43.85,44.84,48.08,54.16,59.56,63.82,67.55,70.93,73.74,75.50,77.12,79.16,82.02,85.58,89.26,94.48,100.63,104.77,108.93,112.45,115.58,119.14,124.78,130.06,134.46,137.99,141.27,144.19,146.76,149.35,152.47,154.68,154.17,151.20,146.32,141.87,138.45,137.17,138.32,141.28,143.66,144.22,143.07,140.19,135.34,129.81,124.27,118.78,112.58,105.31,98.25,91.85,86.79,85.55,87.63,92.13,98.13,102.28,104.62,106.15,107.24,107.93,108.08,107.38,105.74,102.93,99.26,93.52,86.25,78.11,70.70,63.89,57.30,50.81,44.67,40.09,37.68,36.96,37.44,37.55,38.87,43.31,50.34,56.03,60.30,63.39,65.87,68.40,71.51,74.36,76.48,77.62,78.16,81.95,87.42,92.84,95.91,97.31,98.37,99.54,101.21,104.16,109.10
139.56,139.96,139.91,139.22,138.23,137.11,135.83,134.31,132.92,131.06,129.17,127.63,126.56,125.96,125.55,125.40,125.84,126.13,126.83,127.92,129.34,130.80,132.07,133.13,134.03,135.01,136.66,139.20,142.01,144.21,145.67,146.39,145.80,143.66,141.09,139.01,137.06,134.97,132.72,131.06,130.66,131.42,133.05,134.08,134.76,135.02,134.89,134.62,133.57,131.53,128.90,126.27,123.71,121.08,118.54,116.21,114.02,111.95,110.18,108.69,107.30,106.13,104.41,101.81,97.63,91.03,86.59,82.83,78.29,71.52,66.13,61.04,57.29,57.33,59.58,60.96,61.61,61.78,61.20,60.98,61.75,63.40,65.31,67.11,68.45,69.46,70.54,72.59,74.24,74.49,72.46,67.40,63.41,59.37,54.50,48.42,43.75,39.35,34.59,30.02,28.69,28.77,29.27,30.37,33.09,35.73,38.12,41.30,46.30,51.49,56.57,61.17,65.07,68.03,67.38,64.86,61.36,57.22,53.59,49.09,43.24,36.28,30.60,30.50,34.47,40.21,44.03,46.45,47.92,49.48,51.77,53.04,52.16,49.32,44.55,38.59,34.35,33.09,33.65,33.82,32.77,30.58,27.84,25.01,22.85,23.69,25.36,26.88,28.08,28.97,30.98,33.79,36.64,38.86,41.45,46.19,52.81,57.24,61.31,65.08,68.54,71.72,74.94,77.34,80.02,83.63,86.59,89.42,93.48,98.74,103.73,108.05,111.88,115.39,119.01,124.32,129.56,133.94,137.29,140.42,143.60,146.61,149.72,153.54,157.39,157.60,154.81,150.10,145.73,143.10,142.81,144.69,147.38,148.86,148.64,146.74,142.90,137.60,130.95,124.42,118.36,111.38,103.75,96.97,91.47,87.79,88.16,92.09,97.49,102.49,105.16,107.18,108.58,109.43,110.25,110.70,109.35,106.27,101.84,97.80,92.36,85.36,77.14,69.47,62.94,56.04,48.86,42.90,39.52,38.47,38.87,39.80,39.21,39.29,42.26,48.19,54.27,59.24,62.95,66.07,69.48,73.45,77.21,79.80,80.78,81.34,84.77,89.88,95.36,99.36,101.03,101.99,103.04,104.66,107.07,111.13
136.88,137.46,137.57,137.14,136.41,135.44,134.22,132.70,130.82,128.61,126.43,124.59,123.26,122.53,122.02,121.75,121.99,122.07,122.51,123.41,124.79,126.36,127.95,129.14,129.96,130.91,132.26,134.12,136.35,138.69,140.43,141.13,140.31,137.90,135.33,133.08,130.63,127.83,124.83,122.57,122.26,123.51,125.76,127.45,128.50,129.05,129.23,129.23,128.84,127.67,125.94,123.88,121.52,118.91,116.23,113.67,111.40,109.41,107.74,106.31,104.89,103.59,101.86,99.34,95.54,90.13,86.08,82.22,77.38,70.51,64.62,59.89,57.66,60.02,62.88,64.86,65.92,66.09,65.72,65.62,65.75,66.36,68.06,69.90,71.72,73.43,74.97,76.57,77.84,77.66,75.27,70.56,66.36,62.11,57.00,50.41,45.43,40.66,35.36,30.28,29.23,29.24,30.00,31.73,34.93,38.15,41.32,44.95,49.53,54.25,59.12,63.69,67.57,70.16,69.64,67.25,63.94,60.27,56.03,50.84,44.83,38.49,33.62,34.38,38.39,43.52,47.26,50.58,53.00,54.95,56.68,57.14,55.68,52.74,48.51,43.71,40.20,39.27,39.83,39.61,37.61,34.39,30.82,27.44,24.57,24.84,26.52,28.47,29.65,30.02,30.53,31.79,34.22,36.75,40.22,45.53,52.06,56.20,60.41,64.69,68.81,72.55,76.59,79.91,83.26,87.02,89.52,92.34,95.81,100.05,105.00,109.20,112.98,116.67,120.69,125.81,130.27,133.99,137.06,139.78,142.83,145.95,149.36,153.77,158.70,159.81,157.64,153.24,148.81,147.04,147.63,149.89,152.31,153.27,152.59,150.42,146.35,139.76,131.87,124.44,117.92,110.60,102.85,96.83,93.00,91.63,93.49,97.89,102.94,107.03,109.13,110.62,111.62,112.26,112.89,112.36,109.70,105.28,99.84,95.42,90.06,83.21,75.06,67.59,60.92,54.13,47.43,42.29,40.04,40.10,41.38,42.85,42.68,42.21,43.20,46.50,52.09,57.22,61.55,65.67,70.29,74.92,79.05,82.06,83.57,84.28,86.83,91.01,96.03,100.49,103.26,105.01,106.51,108.32,110.70,114.26
134.44,135.13,135.43,135.18,134.57,133.72,132.63,131.12,128.91,126.31,123.87,121.84,120.25,119.50,119.09,118.89,118.98,119.00,119.22,119.78,120.87,122.39,124.38,125.78,126.48,127.43,128.76,130.55,132.61,134.59,135.81,135.89,134.79,132.59,130.19,127.20,123.92,120.52,117.24,114.86,114.67,116.06,118.32,120.50,121.82,122.69,123.23,123.36,123.52,123.36,122.65,121.10,118.97,116.52,113.89,111.21,109.09,107.41,105.84,104.31,102.85,101.03,98.81,96.20,93.00,88.74,85.12,81.10,75.87,68.89,62.59,58.92,58.45,61.58,64.72,67.64,69.78,70.75,70.82,70.60,70.11,69.83,70.84,72.23,74.29,76.77,79.31,81.34,82.35,81.59,78.53,73.36,68.57,63.96,58.72,51.98,46.40,41.11,35.64,30.77,29.81,29.98,31.52,34.44,38.38,42.51,46.85,51.08,54.89,58.64,63.12,67.46,70.87,72.36,71.60,69.21,65.87,62.03,57.38,52.18,46.71,41.30,36.88,37.73,41.02,45.19,49.54,54.68,58.64,60.98,61.47,60.73,58.88,56.03,52.36,48.79,46.48,45.84,45.94,44.91,41.65,37.44,33.10,29.20,26.40,25.86,27.25,29.69,31.30,31.78,31.81,32.40,34.47,36.95,40.55,45.51,51.29,55.49,60.08,65.18,70.33,74.78,79.16,83.36,87.31,90.75,93.11,96.53,99.95,103.27,107.39,111.26,114.81,118.55,123.09,128.14,131.47,134.28,137.10,139.36,142.20,145.25,148.73,153.43,158.84,161.09,160.04,156.06,151.56,150.45,151.57,153.91,156.23,157.03,156.12,153.92,150.05,141.89,132.78,124.61,117.73,110.47,103.07,98.23,96.44,97.52,100.37,104.05,108.00,111.67,114.00,114.92,115.31,115.51,115.37,113.03,108.63,103.05,97.25,92.39,86.92,80.14,72.28,65.39,58.37,52.04,46.76,42.99,42.02,43.09,45.09,47.07,47.75,47.06,45.94,45.95,50.06,54.87,59.89,65.25,71.14,76.18,80.20,83.55,86.04,86.99,88.53,91.56,95.79,100.15,104.26,107.32,109.67,111.88,114.66,118.16
132.21,132.94,133.26,133.08,132.62,131.97,130.98,129.24,126.75,123.99,121.50,119.60,118.30,117.60,117.28,117.20,117.28,117.34,117.48,117.87,118.56,119.11,120.97,122.60,123.56,124.57,125.94,127.57,129.31,130.91,131.57,130.93,129.27,126.82,124.20,120.23,116.01,112.30,109.98,108.42,108.21,109.22,111.34,113.84,115.52,116.61,117.26,117.53,117.76,118.04,118.16,117.68,116.12,113.96,111.38,108.64,106.83,105.33,103.89,102.44,100.82,97.89,94.85,92.14,89.69,86.47,83.26,79.19,73.83,67.45,61.88,59.34,59.71,62.46,65.90,70.02,74.24,77.72,78.85,78.22,76.76,75.13,74.22,74.50,76.17,79.09,83.14,86.96,88.00,86.28,82.06,76.58,71.03,65.55,59.71,52.89,46.14,40.55,35.94,32.52,31.08,31.44,33.73,37.55,41.90,46.44,51.28,55.94,59.89,63.61,67.49,70.72,72.97,74.51,73.20,70.65,67.36,63.13,58.46,53.68,48.90,44.14,39.65,39.59,41.86,45.33,49.81,56.75,61.46,63.81,64.41,63.50,61.80,59.27,56.08,53.41,51.86,51.26,50.77,48.89,44.43,39.30,34.30,29.98,27.28,26.70,27.87,30.04,31.69,33.12,33.51,33.66,34.79,37.16,40.38,44.38,48.77,52.18,57.40,63.48,69.52,74.67,79.79,84.47,88.53,91.76,94.22,97.69,100.82,103.47,106.81,110.52,114.47,118.69,123.38,128.52,131.42,133.94,136.89,139.28,142.11,145.10,148.44,152.80,158.36,162.22,162.74,159.18,155.20,153.92,154.82,157.21,159.85,160.59,159.25,156.37,151.81,143.86,134.13,125.30,118.27,111.05,105.22,102.12,101.53,102.73,104.41,107.63,111.92,116.39,119.03,119.96,119.67,118.34,116.05,112.36,106.30,99.47,94.03,88.74,83.13,76.72,69.63,63.50,56.74,51.22,47.39,45.40,46.73,49.44,52.32,54.44,54.56,52.91,50.47,48.44,49.36,53.50,59.23,65.62,71.96,77.33,81.46,84.98,87.96,89.72,91.30,93.60,96.75,100.53,104.28,107.94,111.34,114.42,117.81,121.65
129.44,130.42,130.84,130.74,130.31,129.59,128.46,126.58,124.07,121.48,119.19,117.49,116.50,115.87,115.63,115.64,115.75,115.86,115.94,116.20,116.68,116.53,117.78,119.09,120.06,121.49,122.98,124.47,125.91,127.03,127.03,125.43,122.78,119.51,116.33,112.35,108.49,105.38,103.70,102.54,102.27,102.82,104.18,106.01,107.70,109.44,111.03,111.79,112.36,113.02,113.55,113.47,112.61,110.88,108.48,105.87,104.33,103.06,101.81,100.39,98.21,94.41,91.16,88.70,86.67,83.86,80.74,76.89,72.15,66.88,62.25,60.84,61.96,64.19,67.23,72.03,77.55,82.56,85.16,85.07,83.71,81.32,77.67,76.73,77.68,80.77,86.23,90.34,91.00,88.89,84.42,78.55,72.84,67.02,60.87,54.16,46.98,41.09,36.91,34.47,32.63,32.87,35.07,38.67,42.84,47.79,53.61,59.21,63.53,67.45,70.77,73.31,75.14,76.68,75.43,72.88,69.56,65.40,61.22,56.75,52.15,47.42,42.54,42.94,45.27,47.95,51.12,57.91,63.19,66.23,67.17,66.59,64.99,62.69,60.03,57.97,56.78,55.88,54.60,51.76,46.52,40.80,35.42,30.98,28.19,27.31,28.07,29.94,31.90,34.44,35.23,34.98,35.27,37.27,39.74,42.79,46.26,49.13,53.40,59.17,65.70,71.78,77.33,82.01,85.89,88.99,91.83,95.21,98.27,101.03,104.44,107.99,111.85,116.10,120.88,125.90,129.58,132.90,136.28,139.24,142.14,145.07,148.25,152.27,157.76,162.34,164.14,161.95,158.17,156.91,158.19,161.29,164.35,164.66,162.41,158.46,153.12,145.62,136.16,127.18,119.83,113.16,109.06,107.30,107.14,107.67,108.51,111.41,115.89,120.97,124.30,124.77,123.41,120.53,116.01,110.67,103.72,96.63,91.30,85.75,80.29,74.56,68.77,64.50,59.44,54.75,51.02,49.09,51.26,55.36,59.20,61.11,61.04,58.77,55.54,52.33,50.90,53.59,59.14,65.81,71.97,77.51,81.90,85.86,89.62,92.65,95.02,96.96,98.95,101.80,104.97,108.42,112.03,115.73,119.55,123.97
126.14,127.43,127.96,127.94,127.52,126.64,125.31,123.39,121.03,118.86,116.93,115.40,114.72,114.17,113.97,114.09,114.25,114.39,114.39,114.55,114.88,114.34,114.75,115.29,115.90,117.53,119.22,120.80,122.10,122.75,121.99,119.36,115.67,111.51,107.72,104.17,101.19,98.94,97.60,96.66,96.39,96.62,97.20,98.02,99.46,101.71,104.28,105.56,106.62,107.61,108.27,108.22,108.20,107.15,105.18,102.79,101.45,100.45,99.60,98.37,95.62,91.52,88.36,86.04,83.95,81.17,78.02,74.58,70.84,66.89,63.34,62.98,64.83,66.87,69.41,74.27,80.20,85.92,89.88,90.78,90.12,87.63,81.97,79.67,79.69,82.61,88.78,92.33,92.39,90.09,85.75,79.51,73.94,68.15,62.02,55.71,48.95,42.94,38.66,36.41,34.24,34.26,35.88,38.57,42.10,47.39,54.19,60.76,65.50,69.75,72.94,75.44,77.46,79.04,78.34,75.99,72.63,68.75,65.12,60.69,55.81,50.70,45.55,47.39,50.41,52.19,53.25,58.72,64.44,68.50,69.78,69.70,68.24,66.20,64.06,62.39,61.33,60.09,58.06,54.27,48.43,42.20,36.59,32.26,29.26,27.95,28.23,29.87,32.43,35.90,36.98,36.43,36.06,37.37,38.98,41.25,44.22,46.90,49.57,54.19,60.49,67.03,72.64,77.00,80.62,83.83,87.08,90.48,93.78,97.14,101.18,104.74,108.32,112.31,117.03,121.81,126.68,131.25,135.29,138.97,142.06,144.97,148.04,151.83,157.19,162.08,165.03,164.63,161.02,160.00,161.99,166.02,169.26,168.97,165.64,160.49,154.36,147.44,138.72,129.91,122.23,116.25,113.73,113.13,113.22,112.89,113.16,115.67,120.04,125.44,129.33,129.04,126.41,122.09,115.77,108.81,101.51,94.71,89.30,83.64,78.55,73.83,69.79,67.65,64.72,60.76,56.41,53.62,56.00,61.07,65.60,67.29,67.22,64.64,60.95,56.99,53.97,54.60,59.08,65.38,71.12,76.69,81.46,86.04,90.72,95.06,98.47,100.45,101.65,103.63,106.23,109.23,112.68,116.73,120.89,125.83
122.18,123.47,124.01,123.99,123.65,122.93,121.73,119.89,117.77,116.30,114.78,113.19,112.92,112.46,112.33,112.53,112.73,112.85,112.83,112.83,112.82,112.20,111.77,111.19,110.63,111.05,113.08,115.38,117.11,117.42,115.93,112.49,108.36,104.21,100.29,96.55,93.48,91.26,90.09,89.73,89.82,90.31,91.24,92.08,93.03,94.45,96.18,97.36,98.77,99.93,100.58,100.73,101.81,102.17,101.19,99.04,97.66,97.01,97.10,96.91,94.31,91.38,88.00,84.59,81.52,78.64,75.75,72.87,70.01,67.23,65.04,65.53,68.00,71.01,74.14,78.03,83.13,89.07,93.17,94.58,94.42,92.89,89.34,85.25,84.15,86.25,90.86,94.28,93.80,90.83,85.96,79.57,73.87,68.22,62.59,57.34,52.41,46.87,41.83,38.21,35.73,35.82,36.87,38.37,40.84,46.13,52.75,59.14,64.23,68.98,73.48,77.19,79.93,82.09,82.33,80.44,77.16,73.38,69.50,64.46,58.79,53.13,48.58,52.29,55.96,56.62,55.71,59.74,65.62,70.40,71.83,72.06,71.13,69.60,67.83,66.34,65.40,64.25,62.09,57.61,50.83,43.80,37.91,33.86,30.61,29.13,29.08,30.61,34.29,37.77,38.88,38.41,37.71,37.63,38.70,40.69,43.45,46.52,48.67,51.89,56.24,60.97,66.08,69.81,73.37,77.55,80.76,84.77,88.85,93.00,97.98,102.17,105.94,109.69,113.79,118.39,123.52,128.74,133.66,137.85,141.32,144.47,147.64,151.43,156.82,162.61,166.89,167.77,165.04,164.46,166.94,171.30,173.78,173.06,169.01,162.83,155.87,149.87,141.82,133.30,125.64,119.76,118.23,119.09,120.31,119.59,119.10,120.69,124.47,129.81,133.01,131.95,128.15,122.51,115.86,108.26,100.89,94.30,88.76,83.13,78.67,75.57,73.79,72.44,70.29,66.66,62.10,58.88,62.50,67.62,71.87,73.90,73.46,70.77,66.73,62.08,58.12,55.97,58.20,63.30,68.84,74.29,79.55,84.86,90.25,95.17,99.13,101.86,103.73,105.69,107.97,111.11,114.89,119.16,123.70,128.34
117.77,119.09,119.76,119.82,119.51,118.80,117.66,116.03,114.16,112.94,111.83,110.77,110.68,110.48,110.56,110.89,111.17,111.25,111.19,110.84,110.03,108.83,107.55,106.30,105.30,105.27,106.73,108.86,110.63,110.78,108.94,105.30,101.06,96.76,92.40,88.38,85.27,83.25,82.42,81.85,81.81,82.22,83.07,84.21,85.27,86.45,87.69,88.69,89.81,90.76,91.48,92.06,93.00,93.51,93.25,92.38,92.34,92.91,93.81,94.44,93.56,91.93,89.39,85.70,81.02,77.96,75.16,72.44,69.88,67.76,66.58,67.65,70.78,75.26,79.07,82.35,86.57,92.03,96.03,97.79,98.15,97.25,94.40,90.21,88.73,90.19,93.89,96.68,94.84,90.89,85.84,79.56,73.92,68.66,63.91,60.05,55.89,51.03,45.29,39.47,37.20,38.07,39.61,41.13,43.14,46.29,51.17,56.91,62.53,67.62,72.96,77.99,82.23,85.34,86.40,84.90,81.53,77.23,72.89,67.49,61.50,55.89,52.92,56.73,60.05,60.35,58.81,61.80,66.73,71.07,72.92,74.09,73.72,72.68,71.44,70.33,69.51,68.38,66.05,60.96,53.81,46.24,39.87,35.61,32.28,30.57,30.52,32.29,36.09,39.68,41.20,40.91,39.56,38.92,40.11,42.60,46.00,49.51,51.74,53.74,56.03,59.10,63.69,67.85,71.76,75.79,79.56,84.46,89.12,93.37,98.12,101.68,104.96,108.27,111.89,116.62,121.99,127.50,132.71,136.96,140.73,144.11,147.39,151.24,156.63,163.13,168.57,170.76,169.48,169.68,172.38,176.40,177.85,176.35,171.95,165.57,158.23,152.15,144.84,137.08,129.74,123.84,123.40,125.23,127.03,126.71,126.23,127.11,129.83,134.18,136.81,135.01,130.20,123.55,116.68,109.25,102.03,95.58,90.36,85.22,81.64,79.62,78.70,76.95,74.46,70.73,66.48,64.26,68.58,73.69,77.74,79.85,79.26,76.27,72.00,67.10,62.46,58.91,58.80,61.75,66.75,71.50,76.42,81.55,86.93,92.51,97.16,100.63,103.06,104.81,107.16,110.82,115.10,119.36,124.06,128.85
113.17,114.51,115.32,115.47,115.19,114.45,113.35,112.01,110.53,109.39,108.61,108.20,108.17,108.18,108.40,108.80,109.11,109.12,108.95,108.23,106.61,104.66,102.57,100.74,99.44,99.08,99.73,101.42,103.17,103.47,101.60,98.07,93.88,89.43,84.76,80.58,77.47,75.53,74.72,73.58,73.03,73.03,73.51,74.79,76.20,77.48,78.56,79.45,80.08,80.69,81.41,82.28,82.74,83.12,83.59,84.41,86.13,88.10,89.84,91.25,92.33,92.08,90.82,87.53,81.74,78.39,75.52,72.78,70.31,68.60,68.20,69.80,73.45,78.97,83.17,86.20,89.86,94.75,98.60,100.67,101.47,100.88,98.06,94.43,92.99,94.11,97.28,99.15,95.92,91.06,85.88,79.75,74.41,69.75,66.00,63.42,59.36,54.81,48.51,40.97,38.72,40.56,43.25,45.61,47.41,48.14,50.86,55.47,61.18,66.33,72.15,78.29,84.08,88.13,89.71,88.61,85.33,80.40,75.52,69.96,63.97,58.72,57.57,60.82,63.45,63.68,62.06,63.92,67.51,71.08,73.47,75.77,76.13,75.71,75.09,74.35,73.52,72.22,69.60,64.14,57.12,49.17,42.12,37.32,34.15,32.24,32.25,34.25,37.67,41.36,43.58,43.93,42.39,41.11,42.62,45.93,50.21,54.13,56.61,57.65,58.12,59.66,63.77,68.67,73.22,77.10,81.69,87.14,92.01,96.10,100.21,102.79,105.23,108.00,111.45,116.43,121.89,127.35,132.42,136.50,140.42,143.99,147.45,151.43,156.73,163.71,170.00,173.33,173.87,174.97,177.56,180.70,181.22,179.02,174.48,168.28,161.01,154.55,147.84,140.85,133.88,128.05,128.61,131.15,133.35,133.85,133.75,134.11,135.72,138.77,140.75,138.28,132.60,125.09,118.16,111.20,104.36,98.31,93.91,89.84,87.17,85.69,84.67,82.03,78.48,74.25,70.38,69.55,74.10,79.11,83.09,85.25,84.72,81.45,76.97,71.96,66.96,62.78,60.74,61.46,65.43,69.07,73.25,77.78,82.73,88.61,93.58,97.62,100.65,102.38,105.01,109.25,113.95,118.15,122.76,127.85
108.50,109.79,110.56,110.76,110.59,109.92,108.95,108.00,107.29,106.38,105.69,105.47,105.44,105.24,105.21,105.38,105.58,105.39,104.94,104.00,102.22,99.68,96.84,94.15,91.88,90.45,90.72,92.45,94.61,95.79,94.39,91.13,87.08,82.78,78.63,74.73,71.55,69.07,67.09,65.32,63.84,62.88,62.73,63.36,64.97,66.56,67.81,68.91,69.36,69.70,70.08,70.49,71.15,72.29,73.96,76.27,79.11,81.95,84.75,87.28,88.98,90.26,90.23,88.13,83.61,79.72,76.55,73.83,71.59,70.23,70.41,72.63,76.40,80.92,84.57,87.94,92.00,96.90,100.67,103.13,104.08,103.38,100.72,97.34,96.30,97.61,100.38,101.19,97.66,92.46,86.73,80.69,75.98,72.25,69.44,67.34,62.87,57.25,50.69,43.93,40.47,42.88,47.34,51.41,52.94,53.33,54.56,57.15,61.30,65.89,71.77,78.28,84.67,89.23,90.65,90.08,87.66,82.65,77.19,71.63,65.97,61.27,61.41,64.52,66.71,66.70,64.93,64.87,67.30,70.68,73.57,76.71,78.32,79.00,79.04,78.45,77.15,75.16,72.03,66.78,60.72,52.47,44.36,38.67,36.13,34.29,34.11,35.83,38.77,42.25,45.59,47.95,48.04,44.71,46.31,50.41,55.13,59.32,61.94,62.56,61.96,62.03,65.66,70.88,76.40,81.72,87.03,91.65,95.91,99.99,103.88,106.06,107.62,109.78,113.77,118.95,124.01,128.81,133.28,137.03,140.72,144.41,148.22,152.49,157.53,164.53,171.00,174.84,177.64,179.53,181.29,182.82,182.95,180.81,176.30,170.37,163.95,157.55,150.95,144.11,137.30,131.88,132.99,136.08,138.96,140.53,140.97,141.08,141.97,144.02,144.78,141.90,135.57,127.28,120.81,114.16,108.12,103.38,100.77,98.86,96.99,95.10,92.92,89.41,83.97,78.56,74.65,74.47,78.58,83.25,87.27,89.86,89.73,86.48,81.72,76.43,71.71,67.42,64.82,64.30,66.12,68.15,71.48,75.37,79.53,84.50,88.45,92.54,96.52,99.10,102.26,106.67,111.41,115.62,119.78,124.95
104.35,105.57,106.28,106.39,106.29,105.66,104.79,104.09,103.73,103.21,102.82,102.71,102.62,102.36,102.08,101.82,101.45,100.79,99.88,98.45,96.20,93.22,89.98,87.05,84.79,83.59,83.81,84.98,86.62,88.05,87.54,84.77,81.13,77.35,73.49,69.57,66.42,63.88,61.17,58.77,57.06,56.03,55.73,56.01,56.95,58.06,59.03,59.44,59.38,59.21,59.22,59.71,60.55,62.59,65.17,67.97,71.29,74.63,78.52,82.48,85.13,87.33,88.33,87.44,84.08,80.40,77.85,75.82,74.11,73.16,74.31,76.64,79.57,82.81,85.77,88.43,91.91,96.59,100.64,103.34,104.35,103.69,101.39,98.68,97.57,98.26,100.25,100.56,97.73,93.52,88.65,83.30,78.78,75.52,72.96,69.92,64.33,58.62,52.82,47.20,43.97,46.55,51.75,56.85,58.55,59.07,59.57,60.78,63.29,66.87,72.13,78.38,84.80,89.46,90.78,90.56,88.88,84.70,79.80,73.84,68.21,64.75,65.81,68.64,70.19,69.60,67.47,66.33,67.84,70.99,74.52,78.01,80.80,82.86,84.09,84.20,81.52,77.90,73.81,68.83,63.34,55.76,47.62,40.90,37.85,35.90,35.55,36.88,39.52,43.70,47.77,50.56,50.70,47.54,49.26,53.63,58.89,63.86,66.95,67.82,67.00,65.64,67.15,71.62,77.69,84.27,90.06,94.90,99.45,103.83,107.57,110.04,112.78,115.94,119.43,123.71,127.93,131.80,135.31,138.79,142.45,146.19,150.05,154.37,159.48,165.84,171.76,175.90,179.46,181.98,183.97,185.17,184.35,181.95,177.79,172.48,166.56,160.04,153.75,146.96,139.87,135.23,136.66,140.11,143.61,146.12,147.06,147.22,147.67,148.74,148.38,144.44,138.01,130.50,124.38,118.56,113.51,109.67,107.52,105.68,103.64,101.10,97.81,93.63,88.25,82.30,77.52,77.63,82.11,87.23,91.51,94.00,93.99,91.00,86.50,81.31,76.22,71.88,69.24,68.41,69.38,70.70,72.82,75.43,78.45,82.11,85.33,88.79,92.48,95.90,99.57,104.00,108.66,113.00,117.20,122.19
99.50,100.86,101.66,101.77,101.71,101.13,100.29,99.63,99.23,98.81,98.54,98.48,98.32,98.06,97.66,97.06,96.18,95.18,93.89,92.07,89.46,86.13,82.68,79.74,77.68,76.78,76.97,77.54,78.44,79.69,79.87,77.94,75.08,71.91,68.33,64.33,61.01,58.30,55.52,53.04,51.51,50.70,50.40,50.42,50.66,51.17,51.70,51.47,51.04,50.54,50.33,50.91,51.83,54.22,57.06,59.91,63.48,67.09,71.87,77.24,81.14,84.05,85.85,86.09,84.17,81.20,79.32,77.76,76.26,75.53,77.34,79.59,81.70,83.77,85.95,87.88,90.72,95.05,99.49,102.31,103.35,102.71,100.57,98.42,97.00,96.81,97.98,98.16,96.53,93.94,90.66,86.47,82.13,78.90,76.03,71.79,65.79,60.41,55.34,50.58,47.88,50.61,56.09,61.70,64.01,64.92,65.07,65.29,66.41,68.81,73.21,78.89,84.98,89.48,90.76,90.75,89.73,86.84,82.80,76.67,71.05,68.50,70.07,72.67,73.75,72.72,70.17,68.27,69.05,71.88,75.79,79.56,83.34,86.64,88.99,89.78,86.36,81.33,76.02,71.03,65.80,59.24,51.59,43.90,39.51,37.35,36.86,37.84,40.38,45.57,50.21,52.90,52.59,50.09,51.74,56.04,61.75,67.64,71.27,72.64,72.02,69.72,69.12,72.39,78.25,85.36,91.61,97.19,102.48,107.33,111.00,113.92,118.05,122.40,125.44,128.87,132.33,135.36,138.00,141.22,144.85,148.57,152.41,156.69,161.85,167.42,172.59,176.76,180.46,183.37,185.74,186.98,185.42,182.82,179.15,174.54,168.92,162.37,156.35,149.73,142.63,138.46,140.17,143.81,147.58,150.50,151.88,152.25,152.51,152.85,151.59,147.19,141.23,134.79,128.95,123.74,119.45,116.16,113.91,111.44,108.75,105.34,100.99,96.29,91.51,85.66,80.48,80.72,85.63,91.20,95.58,97.67,97.58,94.88,90.89,86.16,80.87,76.34,73.68,72.85,73.66,74.85,75.89,77.26,79.34,82.01,84.66,87.35,90.38,94.27,98.26,102.58,107.01,111.30,115.52,120.20
92.56,94.56,95.79,96.19,96.22,95.68,94.81,93.84,92.76,91.65,90.92,90.72,90.54,90.37,90.08,89.55,88.67,87.83,86.50,84.68,82.27,78.73,75.28,72.42,70.25,68.79,68.73,69.01,69.38,69.88,70.00,69.53,68.08,65.46,62.30,58.41,54.39,50.98,49.30,47.97,47.03,46.43,46.10,45.84,45.94,46.16,46.31,46.23,46.04,45.82,45.75,46.08,46.88,48.23,50.10,52.70,56.46,60.05,65.19,71.55,77.07,80.72,82.93,84.18,84.33,82.56,80.70,78.56,76.36,75.39,76.80,78.96,80.99,82.45,83.81,85.77,88.59,92.48,97.16,99.95,100.92,100.14,97.54,95.34,93.45,92.50,93.05,93.58,93.53,93.01,91.86,89.47,85.66,81.87,77.93,73.05,68.77,63.89,58.70,53.94,51.39,54.51,59.91,65.39,68.91,70.52,70.66,70.42,70.77,72.03,75.51,80.34,85.67,89.71,90.93,90.98,90.49,89.24,85.96,80.47,75.10,72.18,73.58,76.21,77.46,76.51,73.54,71.03,71.27,73.63,77.18,81.44,85.82,89.77,92.72,93.67,91.63,86.47,79.83,74.11,68.65,63.15,56.40,48.08,41.38,38.86,38.30,39.01,41.84,47.98,53.08,55.69,55.06,52.58,53.65,57.45,63.28,70.05,74.16,76.09,76.07,73.93,72.57,74.35,78.59,84.65,91.44,98.18,104.52,109.96,113.68,117.00,121.45,126.13,129.72,133.26,136.46,139.10,141.36,144.27,147.71,151.36,155.19,159.45,164.33,169.23,173.72,177.52,181.01,183.83,186.09,187.24,185.89,183.47,180.36,176.36,170.88,164.66,158.62,152.48,146.36,141.75,143.77,147.42,150.64,152.85,154.55,155.31,155.73,155.91,154.29,151.28,146.66,140.80,135.24,129.75,125.44,122.18,119.47,116.39,112.61,108.03,102.75,97.73,93.30,88.57,84.66,84.98,89.82,95.20,99.14,100.49,100.11,97.61,94.30,90.56,86.00,80.99,77.96,77.17,78.42,80.10,80.65,81.40,83.34,86.04,88.30,90.43,92.89,96.37,100.23,104.23,108.16,111.90,115.69,120.01
86.35,87.89,88.68,89.46,89.86,89.73,89.15,88.10,86.54,84.82,83.57,83.03,82.66,82.53,82.41,82.18,81.71,80.77,79.23,77.14,74.54,71.78,69.13,66.56,64.17,62.35,61.30,60.67,60.45,60.70,60.73,60.40,59.42,57.54,54.95,52.26,49.43,46.77,45.13,43.88,43.02,42.34,41.65,40.84,40.49,40.61,41.08,41.51,41.33,41.23,41.50,42.24,43.12,44.25,45.87,48.32,52.00,55.88,60.49,65.80,71.26,75.92,79.61,81.83,81.69,79.04,76.36,74.04,72.39,72.12,73.11,74.81,76.80,78.77,80.98,83.31,85.99,89.15,92.44,94.50,95.00,93.85,91.03,88.70,87.38,86.99,87.47,88.19,88.95,89.40,89.39,88.84,86.19,82.92,79.27,74.91,70.96,65.75,60.26,55.84,54.16,56.93,62.19,68.01,71.70,73.82,74.88,75.45,75.86,76.35,78.97,82.94,87.30,90.14,91.03,91.10,90.84,90.23,88.61,84.03,78.94,75.89,76.89,80.80,82.87,81.55,77.45,74.66,74.10,75.52,78.83,83.44,88.42,93.01,96.41,97.25,95.25,90.95,85.00,78.06,71.91,66.41,60.38,53.19,46.31,42.67,40.78,40.85,44.95,50.52,55.48,58.38,57.77,55.02,55.03,57.68,63.01,70.87,76.20,78.97,79.55,78.00,76.15,76.30,78.84,84.01,90.75,98.23,105.28,111.12,114.89,118.60,123.94,129.56,133.55,137.15,139.96,142.21,144.30,147.24,150.40,153.95,157.88,162.09,166.55,170.78,174.73,178.27,181.08,183.43,185.37,186.42,185.42,183.30,180.61,177.05,171.87,165.84,159.42,153.08,147.58,144.75,147.03,150.13,152.69,154.94,156.85,158.01,158.73,158.94,157.60,154.77,150.94,146.46,141.92,136.63,131.56,127.18,123.72,119.88,115.07,109.70,104.15,99.02,94.78,90.71,87.50,87.66,92.60,97.54,100.90,102.01,101.45,99.71,97.21,94.05,90.31,85.95,83.03,82.21,83.72,84.77,84.91,85.55,87.65,90.77,93.08,95.02,97.01,99.60,103.13,106.88,110.49,113.84,117.33,121.67
80.17,81.05,81.38,82.45,83.39,83.72,83.36,82.18,80.33,78.27,76.72,75.96,75.41,75.30,75.30,75.27,75.04,73.97,72.28,70.09,67.57,65.63,63.77,61.62,59.17,56.86,54.86,53.46,52.72,52.72,52.66,52.35,51.74,50.62,48.73,47.11,45.39,43.20,40.27,38.17,36.97,36.10,35.10,33.90,33.15,33.11,33.73,34.47,34.55,34.80,35.50,36.68,37.79,39.37,41.57,44.55,48.21,52.51,56.67,60.77,65.51,70.67,75.08,77.46,76.48,73.13,69.94,67.60,66.37,66.29,66.81,68.10,70.13,72.96,76.30,79.30,82.15,84.77,86.42,87.13,86.84,85.50,82.99,80.83,80.22,80.55,81.15,82.09,83.43,84.60,85.50,86.38,85.32,83.09,80.01,76.03,71.81,66.23,60.76,57.01,56.28,58.80,63.94,70.02,73.75,76.35,78.56,80.30,81.20,81.58,83.40,86.11,88.94,90.45,90.98,91.05,90.87,90.48,89.89,86.89,83.12,80.62,81.62,85.82,88.01,86.47,81.87,78.30,76.84,77.62,80.96,85.72,91.15,95.95,99.17,99.84,98.11,94.98,90.22,82.89,75.92,69.80,64.02,58.04,51.52,46.74,43.52,42.96,47.72,52.64,57.26,60.26,59.87,57.23,56.13,57.48,62.13,70.70,77.10,80.86,82.29,81.45,79.53,78.55,79.74,83.92,89.90,97.62,105.24,111.53,115.36,119.36,125.48,131.99,136.42,140.11,142.78,144.95,147.12,150.03,152.91,156.28,160.05,163.90,168.02,171.83,175.44,178.76,180.97,182.84,184.40,185.27,184.52,182.76,180.15,176.60,171.69,165.78,159.02,152.59,147.99,147.51,149.84,152.30,154.40,156.69,158.79,160.26,161.31,161.86,160.92,158.16,154.81,151.41,147.88,143.00,137.35,131.82,127.25,122.33,116.67,110.97,105.68,100.86,96.80,93.03,90.01,89.70,94.51,98.93,101.82,103.01,102.60,101.50,99.71,97.25,94.43,90.87,88.04,87.04,88.67,89.04,89.40,90.53,92.82,95.76,97.87,99.54,101.10,103.00,106.21,109.70,113.06,116.21,119.69,124.19
73.57,73.99,74.27,75.53,77.08,77.75,77.34,75.87,73.90,71.94,70.56,69.89,69.35,69.25,69.26,69.16,68.65,67.55,65.94,64.10,62.29,60.75,59.28,57.61,55.42,52.31,49.84,48.18,47.17,46.69,46.63,46.73,46.68,46.25,45.16,43.59,41.78,38.87,33.16,29.29,27.25,26.04,24.97,23.78,22.95,22.60,22.73,23.26,24.04,24.99,26.13,27.50,29.07,31.70,35.41,39.95,43.96,48.94,53.39,57.11,60.85,65.36,68.68,69.90,68.36,65.57,62.75,60.46,58.86,57.74,57.80,58.82,60.92,64.50,68.42,72.35,75.90,78.44,78.93,77.70,76.39,75.28,73.81,72.37,72.22,72.92,73.90,75.19,76.99,78.98,80.91,82.48,83.35,82.52,79.85,75.41,70.66,65.17,60.38,57.69,57.66,60.44,65.50,71.42,75.49,78.59,81.82,84.69,86.36,87.46,88.53,89.36,89.87,90.26,90.53,90.53,90.30,89.81,88.70,88.18,87.46,86.59,88.38,90.72,91.66,90.48,86.84,81.78,79.44,80.23,83.94,88.57,94.04,98.27,100.26,100.72,100.26,98.38,94.74,88.69,81.09,73.90,67.60,62.02,55.68,50.06,46.16,45.18,49.03,53.89,58.13,60.77,60.80,58.96,57.04,57.20,61.12,69.52,76.28,81.10,83.88,83.91,82.61,81.48,81.92,84.85,89.14,96.37,104.37,111.36,115.25,119.31,125.67,132.64,137.64,141.42,144.47,147.19,149.78,152.46,155.14,158.16,161.34,164.35,168.31,172.10,175.64,178.81,180.83,182.38,183.56,184.11,183.36,181.97,178.90,174.67,169.88,164.07,157.27,151.40,148.38,150.03,152.01,154.03,156.05,158.02,160.31,161.90,163.29,164.59,163.93,161.60,158.53,155.30,152.36,147.94,142.27,136.06,129.98,123.63,117.51,112.17,107.81,103.82,99.90,96.01,92.61,91.36,95.51,99.40,102.09,103.69,103.99,103.08,101.80,100.39,98.55,95.50,92.52,91.14,92.70,92.96,94.51,96.81,99.12,100.69,102.01,103.15,104.33,106.12,109.13,112.32,115.47,118.74,122.69,127.32
65.81,66.00,66.68,68.47,70.06,70.68,70.27,68.73,66.34,64.59,63.60,63.29,63.19,63.32,63.51,63.47,62.74,61.79,60.63,59.38,58.14,56.94,55.63,54.10,51.87,48.03,45.38,43.62,42.58,42.37,42.51,42.73,42.80,42.46,41.27,37.74,34.16,30.66,26.05,22.01,18.89,16.57,15.03,14.10,13.64,13.42,13.46,13.90,14.24,14.61,15.43,17.34,19.74,21.93,25.30,30.38,35.31,43.02,49.71,54.33,57.44,60.59,62.86,63.59,62.16,59.28,56.24,53.91,52.50,51.64,51.50,51.91,52.95,54.95,58.00,61.53,64.83,67.14,67.34,66.43,65.35,64.21,62.75,62.04,62.37,63.95,66.73,68.25,70.01,72.72,76.13,78.69,80.51,80.37,78.05,73.52,69.00,64.59,61.05,59.21,59.45,62.31,66.99,72.44,76.86,80.04,83.68,87.03,88.78,89.41,89.59,89.16,88.28,87.95,88.12,87.93,87.18,85.87,84.48,84.75,85.83,87.22,89.57,92.14,93.63,93.40,91.04,87.47,85.27,85.37,88.31,92.21,96.66,99.62,100.44,100.71,100.75,99.97,97.77,93.09,86.59,79.25,72.27,66.21,59.94,52.76,48.11,47.26,50.14,54.73,58.69,61.26,61.79,60.09,58.20,57.89,60.66,67.79,74.32,79.66,83.92,86.84,86.91,85.98,85.45,86.38,89.52,95.53,103.31,110.90,114.66,118.39,124.48,131.41,136.69,140.21,143.87,147.68,151.28,154.07,156.83,159.65,162.44,165.13,168.71,172.31,175.75,178.78,180.78,182.29,183.30,183.53,182.45,181.24,177.73,172.75,167.65,161.85,155.96,151.80,150.72,152.71,154.66,156.44,158.19,160.08,161.86,163.60,165.44,167.08,166.80,164.66,161.85,159.05,156.57,151.35,144.71,137.64,130.85,124.53,119.06,114.77,111.55,107.74,103.36,99.02,95.14,92.93,95.84,99.13,101.67,103.49,105.19,105.17,104.55,103.67,102.02,99.40,96.83,95.41,96.29,97.28,99.50,101.60,102.81,103.92,105.03,106.11,107.32,109.06,111.77,114.80,118.11,121.91,126.18,130.70
57.54,57.81,59.21,61.62,62.99,63.30,62.69,61.11,58.92,57.56,56.85,56.53,56.30,56.48,57.07,57.72,57.75,57.14,56.33,55.42,54.33,52.78,50.57,48.26,45.61,41.66,39.06,37.34,36.30,36.00,36.11,36.33,36.43,36.12,34.80,30.58,26.19,22.32,18.61,15.25,12.19,9.70,8.07,7.06,6.95,6.77,6.50,7.05,7.15,6.75,6.99,9.33,11.37,12.94,15.51,19.95,25.48,34.07,42.19,48.76,53.82,56.41,57.98,58.50,57.27,54.24,51.07,48.80,47.69,47.14,46.93,46.96,47.15,47.65,49.10,51.32,53.73,55.67,56.04,55.90,55.41,54.57,53.43,53.23,53.69,55.33,58.48,60.28,62.40,65.87,70.58,74.70,77.20,77.84,76.33,72.17,68.51,65.61,63.41,62.08,61.97,64.24,68.22,73.11,77.69,80.87,84.18,86.91,87.74,87.10,86.17,85.13,84.21,84.15,84.41,83.82,82.39,80.66,79.46,80.41,82.67,85.56,88.52,92.20,95.16,96.54,95.52,93.48,91.32,90.29,91.65,94.34,97.51,99.28,99.26,99.57,100.00,99.97,98.83,95.46,90.50,83.84,76.92,70.61,64.30,56.48,51.30,49.89,51.18,55.00,58.49,60.95,62.05,61.58,59.91,59.08,60.73,66.15,72.28,77.96,83.39,88.79,90.33,89.84,88.83,88.59,90.93,95.64,102.41,109.62,113.61,117.29,122.94,129.47,134.88,138.44,142.56,147.13,151.53,154.65,157.90,160.82,163.40,165.97,169.11,172.45,175.76,178.73,180.77,182.28,183.20,183.25,181.93,180.73,176.77,171.12,165.74,160.22,155.49,153.06,153.65,155.57,157.66,159.62,161.50,163.42,164.60,165.93,167.63,169.33,169.25,167.31,164.70,162.05,159.50,153.33,145.62,137.77,130.81,125.12,121.27,118.42,115.75,111.84,107.09,101.93,97.13,94.50,96.02,98.53,100.90,102.95,105.54,106.75,107.17,106.87,105.15,102.86,100.79,99.57,100.06,102.12,104.37,105.76,106.10,106.95,107.92,109.06,110.42,112.23,114.70,117.77,121.45,125.77,130.03,134.41
49.24,49.98,52.19,55.06,56.01,55.79,54.76,53.04,51.83,51.03,50.35,49.58,48.54,48.56,49.83,51.87,53.66,53.48,52.48,51.17,49.51,46.88,42.86,39.05,35.82,32.56,30.04,28.37,27.18,26.25,26.06,26.23,26.44,26.30,25.13,22.45,19.04,15.22,11.24,9.09,7.51,6.21,5.16,3.74,3.83,3.46,2.53,3.41,3.81,2.87,2.50,4.98,5.22,6.19,7.82,10.51,15.88,22.38,30.11,39.07,48.51,52.10,53.80,54.37,53.16,50.19,47.28,45.30,44.38,43.86,43.69,43.71,43.77,43.66,43.23,43.54,44.51,45.85,46.64,47.05,47.08,46.86,46.73,46.87,47.17,47.83,49.22,51.42,54.46,58.61,64.07,70.33,73.57,75.27,75.15,72.05,69.93,68.66,67.57,66.33,65.22,66.15,69.06,73.35,77.78,80.90,83.02,83.80,82.55,80.06,77.96,77.01,77.43,78.63,79.17,78.05,76.02,74.71,74.34,76.26,79.28,82.59,86.33,91.43,96.42,99.94,100.15,98.66,96.15,93.81,92.96,93.98,95.80,96.61,96.23,96.83,97.72,98.06,97.42,95.29,91.85,86.78,81.01,75.08,68.75,61.66,56.26,53.26,52.34,54.67,57.37,59.58,61.24,63.34,62.14,60.84,61.58,65.08,70.65,76.46,82.48,89.08,91.93,92.22,91.64,91.51,93.36,96.95,101.91,107.48,112.04,116.15,121.40,127.33,132.81,136.92,141.24,145.89,150.54,154.19,158.30,161.61,164.16,166.74,169.50,172.56,175.73,178.69,180.76,182.24,183.13,183.19,181.86,180.55,176.18,170.05,164.56,159.66,156.14,155.06,156.68,158.72,161.17,163.77,166.28,168.22,168.93,169.16,169.88,171.32,171.21,169.49,166.88,163.83,160.62,153.70,145.20,136.86,130.32,125.76,124.33,123.02,120.07,115.88,111.03,104.81,98.64,96.17,96.46,98.03,100.05,102.25,104.83,107.30,109.12,109.67,108.04,106.00,104.35,103.51,104.20,107.36,109.01,109.51,109.64,110.25,111.03,112.19,113.78,115.88,118.32,121.68,125.81,130.34,134.17,138.45
43.14,44.37,46.13,48.23,48.55,47.84,46.48,44.69,43.52,42.74,42.14,41.62,41.21,41.86,44.04,46.87,48.30,47.77,44.60,40.41,36.71,34.39,31.79,29.14,26.62,24.16,20.71,17.95,16.23,15.57,15.66,16.10,16.66,17.02,16.45,14.54,12.07,9.54,7.49,5.87,4.52,3.57,3.14,3.04,3.33,2.92,1.89,2.83,3.28,2.25,1.79,4.29,4.23,2.93,3.04,5.14,9.48,14.63,20.99,28.43,36.21,42.46,46.90,48.60,46.65,44.01,42.05,40.73,39.97,39.54,39.35,39.44,39.63,39.64,39.18,38.63,38.27,38.35,39.01,39.18,38.51,37.59,37.88,39.40,40.82,42.02,43.37,45.69,48.72,52.50,57.65,65.19,69.99,72.48,73.29,72.81,72.65,72.06,70.97,69.43,67.83,67.54,69.39,73.00,76.89,79.32,79.76,78.16,74.53,70.96,68.98,68.44,69.14,70.39,70.88,69.89,68.41,68.20,69.05,71.63,75.43,80.07,84.85,90.18,95.97,100.87,101.68,99.87,97.37,94.84,92.72,92.21,91.95,91.41,90.81,91.38,92.59,93.57,93.94,93.25,91.03,87.62,83.53,78.78,72.83,66.14,60.39,56.38,54.62,54.70,56.23,58.19,59.85,62.32,63.67,63.98,64.00,65.94,70.00,74.99,80.86,87.78,91.52,93.78,94.77,94.69,95.98,98.75,102.36,106.38,110.34,114.73,120.09,126.15,132.24,136.90,141.33,145.73,150.05,154.18,158.53,161.91,164.47,167.10,169.96,172.98,176.03,178.85,180.79,182.19,183.09,183.19,181.90,180.58,176.25,170.19,164.78,160.06,157.75,157.54,159.33,162.54,165.73,168.94,171.72,172.94,173.37,172.93,172.72,173.42,173.41,171.24,167.79,163.88,160.36,152.73,144.11,136.26,130.81,128.72,128.66,127.86,124.75,119.64,114.65,108.30,101.68,98.40,98.68,99.54,100.41,101.67,104.14,106.75,109.06,110.74,111.14,109.57,108.04,107.38,108.31,111.66,112.87,112.92,112.89,113.38,114.18,115.45,117.34,120.19,123.74,127.47,131.21,134.89,138.29,142.34
37.33,39.23,40.97,42.23,42.24,41.44,40.22,38.86,37.71,36.92,36.33,35.88,35.64,36.40,37.89,39.37,39.50,38.24,34.49,29.75,25.61,23.21,21.02,19.01,17.23,15.35,12.28,9.60,8.07,8.13,8.16,8.98,9.79,10.04,9.84,8.84,6.97,5.00,4.36,3.16,2.65,2.31,2.12,e,e,e,e,e,e,e,e,e,e,0.30,0.92,2.80,5.42,8.94,13.55,18.95,24.96,31.84,36.73,38.35,36.11,33.49,32.19,31.47,31.03,30.93,31.11,31.57,32.13,32.39,31.87,31.51,31.15,30.78,30.93,30.57,29.49,28.35,28.85,31.22,33.66,35.88,38.13,41.00,44.19,47.67,52.37,60.28,66.08,69.15,70.54,71.60,72.69,72.96,72.67,71.87,70.36,69.56,70.51,72.98,75.63,76.65,74.92,71.00,65.72,61.59,59.68,59.54,60.75,62.22,62.31,61.55,60.94,61.81,63.74,66.99,71.49,77.08,82.56,88.10,94.06,99.01,99.26,96.90,94.73,92.86,90.78,89.32,87.76,86.43,85.67,85.78,86.85,88.18,89.31,89.71,89.01,87.34,84.77,81.09,76.24,70.06,64.00,59.20,57.06,55.81,56.29,57.68,59.13,61.17,64.01,65.93,66.50,67.61,70.37,74.36,79.59,86.13,90.48,93.93,96.39,97.67,99.18,101.59,104.39,107.36,110.55,114.83,120.19,126.20,132.28,137.19,141.55,145.66,149.74,154.26,158.66,162.08,164.78,167.56,170.54,173.54,176.52,179.25,180.95,182.27,183.09,183.12,181.95,180.74,177.04,171.61,166.11,161.52,159.63,160.07,162.69,166.81,170.87,174.33,176.76,177.34,177.45,176.63,175.86,175.92,175.76,172.97,168.92,164.47,159.92,151.81,143.55,136.80,133.02,132.73,133.13,132.30,129.09,123.52,118.15,111.89,105.46,101.64,101.44,102.05,102.48,102.76,104.16,105.96,108.06,110.36,112.42,112.79,112.38,112.19,113.33,115.73,116.42,116.27,116.14,116.49,117.50,119.29,121.85,125.28,129.14,132.79,136.05,138.93,141.79,145.54
31.96,34.53,36.67,37.33,37.35,36.83,36.13,35.57,34.66,33.92,33.21,32.38,31.55,31.63,30.97,29.49,27.90,25.76,23.20,20.54,17.90,15.12,11.98,9.69,8.33,6.77,5.71,4.46,3.83,4.70,4.29,5.27,5.92,5.57,5.75,5.60,4.07,1.86,1.59,0.79,0.54,e,e,e,e,e,e,e,e,e,e,e,e,e,e,e,3.21,5.06,7.90,11.69,16.63,21.54,23.97,24.12,22.37,19.64,18.63,18.42,18.48,18.78,19.55,20.63,21.67,22.11,21.32,21.80,22.52,22.57,22.08,21.25,20.34,19.73,20.34,22.93,26.08,29.43,33.01,36.77,40.45,43.98,48.29,55.66,61.75,65.30,67.04,68.21,69.56,70.92,72.28,73.23,72.41,71.85,72.16,73.17,73.99,73.02,68.91,63.02,57.08,52.93,50.89,50.95,52.79,54.54,54.07,53.51,53.77,55.45,58.21,62.27,67.41,73.38,79.11,84.88,90.44,94.29,93.25,90.51,88.92,88.12,86.98,85.19,83.36,81.92,81.01,80.42,80.98,82.31,83.85,85.01,86.04,86.02,84.71,82.02,78.79,73.34,67.20,61.87,59.43,57.94,57.70,58.33,59.50,60.84,63.48,66.28,68.43,69.57,71.63,74.72,78.95,84.48,89.07,92.77,96.43,100.29,102.88,105.36,107.85,110.33,112.89,116.83,121.99,127.60,132.85,137.66,141.79,145.64,149.61,154.31,158.71,162.26,165.22,168.21,171.22,174.18,177.13,179.82,181.21,182.43,183.13,183.05,182.05,181.03,178.46,174.13,168.35,163.91,161.64,162.44,166.45,170.96,175.80,179.22,180.94,181.23,181.09,180.15,179.21,178.85,178.22,174.85,170.59,165.88,159.64,151.40,143.94,138.66,136.86,137.41,137.57,136.31,132.96,127.43,121.55,115.40,109.53,105.52,104.31,105.15,106.03,105.56,105.13,105.50,106.79,108.97,111.77,115.06,116.74,117.53,118.95,119.88,120.03,119.86,119.70,119.98,121.35,123.87,127.23,130.81,134.04,137.16,140.01,142.35,144.66,148.06
29.64,31.84,33.13,33.46,33.37,32.95,32.46,32.05,31.50,30.73,29.54,27.88,26.29,25.12,23.48,21.28,18.79,15.96,13.50,11.77,10.87,9.66,7.22,5.19,3.86,2.19,e,e,e,e,e,2.79,2.59,2.40,e,3.28,3.03,e,e,e,e,e,e,e,e,e,e,e,e,e,e,e,e,e,e,e,e,3.56,5.62,8.95,10.99,12.66,12.31,11.33,10.84,9.17,8.91,9.49,10.13,9.75,10.26,11.51,12.79,13.17,12.98,13.26,13.61,13.64,13.45,13.16,12.86,12.74,13.46,16.84,20.87,24.83,28.68,32.69,36.74,40.59,44.68,50.61,57.10,61.41,63.61,64.67,65.44,66.99,69.13,71.25,71.74,71.72,71.76,71.88,71.36,68.53,63.00,56.39,50.65,47.46,45.73,45.40,46.13,46.22,45.81,45.68,46.24,48.06,51.48,56.53,62.48,68.74,74.57,79.58,83.96,86.87,86.19,84.49,83.30,82.36,80.95,79.04,77.49,76.16,75.03,74.41,74.70,75.98,77.94,80.16,82.38,83.19,83.13,82.37,80.07,75.42,70.07,65.11,61.69,59.95,59.72,60.42,61.64,62.70,63.96,65.88,68.46,70.72,73.12,75.83,79.05,83.01,87.01,91.37,96.48,102.17,106.30,109.08,111.39,113.64,116.22,120.32,125.58,130.69,134.48,138.86,142.93,146.49,149.86,154.28,158.79,162.61,165.81,168.82,171.84,174.80,177.68,180.17,181.29,182.30,183.12,183.38,182.42,181.46,180.00,176.83,170.89,166.65,163.90,164.15,167.98,172.61,177.60,181.24,183.25,183.94,184.46,183.76,182.67,181.88,180.59,177.10,172.60,167.18,159.84,152.05,145.77,141.84,141.12,142.28,142.31,140.50,136.48,130.72,124.80,118.70,112.71,108.00,106.78,108.23,109.48,108.51,107.48,106.91,107.16,108.44,110.91,114.79,117.95,120.42,122.87,124.55,124.97,124.80,124.65,125.33,127.03,129.49,132.40,135.40,138.25,140.88,143.24,145.36,147.54,150.53
25.49,27.22,28.19,28.53,28.49,28.16,27.69,27.17,26.59,25.60,24.02,21.85,19.75,17.78,15.80,13.72,11.42,9.08,8.28,7.52,5.59,5.72,4.11,2.96,2.18,0.35,e,e,e,e,e,1.30,1.17,0.92,e,2.20,2.20,e,e,e,e,e,e,e,e,e,e,e,e,e,e,e,e,e,e,e,e,2.54,4.38,6.98,7.06,7.03,5.46,4.35,5.87,4.82,4.92,5.41,5.57,5.85,4.94,5.66,7.30,8.16,8.24,8.32,8.37,8.32,8.32,8.41,8.41,8.45,9.25,12.01,15.64,19.79,24.30,28.39,32.55,36.65,40.88,46.00,52.06,56.63,59.21,59.91,60.30,61.66,63.91,66.55,68.13,68.47,67.84,66.62,65.19,62.15,56.73,50.58,45.69,42.99,41.16,39.86,38.85,37.47,36.94,37.31,38.59,41.12,45.34,50.72,56.51,62.21,67.28,71.52,75.11,77.56,77.59,77.12,76.44,75.28,73.22,70.94,69.82,69.01,68.26,68.29,68.89,70.19,72.09,74.49,77.00,78.50,79.82,80.98,79.54,75.99,71.69,67.46,64.20,63.00,63.20,64.09,65.12,65.72,65.94,66.74,68.69,71.66,74.69,77.39,79.92,82.76,85.94,89.98,95.28,101.93,108.09,111.59,114.15,116.73,119.89,124.42,129.23,133.43,136.47,140.42,144.55,147.99,150.77,154.60,158.87,162.72,166.07,169.23,172.31,175.35,178.42,181.11,181.85,182.48,183.10,183.41,182.77,181.87,180.89,178.56,173.45,169.09,166.23,165.84,168.38,172.38,177.41,181.34,183.97,185.97,187.35,187.12,186.03,184.62,182.52,178.84,174.20,168.43,160.62,153.77,148.61,145.60,145.55,146.88,146.74,144.48,139.86,133.70,127.65,121.80,116.05,110.68,109.02,110.88,112.77,111.94,110.37,108.99,108.38,108.86,110.71,114.62,118.62,122.25,125.56,128.11,129.05,129.22,129.41,130.48,132.45,134.83,137.37,139.88,142.31,144.45,146.47,148.53,150.68,153.33
19.43,20.59,21.64,22.16,22.38,22.17,21.66,20.95,20.11,18.87,17.20,15.10,12.87,10.73,8.90,7.26,5.64,4.85,4.71,e,2.07,3.18,2.21,1.36,e,e,e,e,e,e,e,e,e,e,e,e,e,e,e,e,e,e,e,e,e,e,e,e,e,e,e,e,e,e,e,e,e,2.42,3.55,5.01,4.50,4.30,2.79,1.45,e,e,e,3.55,3.52,e,1.51,2.74,4.75,6.09,6.00,6.02,6.05,5.93,5.90,6.13,6.12,6.11,7.00,8.22,10.60,14.37,19.44,23.73,27.91,32.21,36.73,41.68,46.79,51.12,53.81,53.96,54.11,55.19,57.20,59.93,62.26,62.71,61.16,58.46,56.39,54.21,49.89,44.89,41.14,38.52,36.34,33.94,31.24,28.88,27.96,28.77,31.07,34.75,39.77,45.02,50.00,54.39,58.03,61.48,64.55,66.85,67.76,68.40,68.28,67.07,64.50,61.95,61.25,61.14,61.21,62.16,63.46,64.93,66.57,68.49,70.64,72.62,74.98,77.42,76.84,74.68,71.64,68.43,66.48,66.53,67.41,68.43,69.16,69.31,69.03,68.98,69.94,72.91,76.43,79.23,81.40,83.60,86.00,89.05,93.55,100.23,108.29,112.74,115.92,119.24,123.40,128.45,132.65,135.90,138.73,142.31,146.46,149.82,152.14,155.28,158.91,162.52,165.98,169.37,172.56,175.69,178.97,181.98,182.51,182.71,182.94,183.15,183.05,182.21,181.22,179.48,175.93,171.42,168.68,167.64,168.41,171.34,176.14,180.25,183.57,187.22,189.53,190.03,189.13,187.02,184.02,180.08,175.41,169.64,162.00,156.27,152.06,149.67,149.96,151.10,150.66,148.03,142.95,136.36,130.02,124.53,119.37,113.73,111.13,113.21,115.96,115.68,113.60,111.83,110.78,110.60,111.50,114.93,119.06,123.25,127.24,130.45,132.09,132.97,133.76,135.16,137.30,139.67,142.06,144.33,146.34,148.13,149.95,152.01,154.15,156.52
12.59,12.74,13.15,13.74,14.34,14.43,14.04,13.29,12.59,11.63,10.66,9.70,8.18,6.88,5.63,4.08,2.02,e,e,e,e,e,e,e,e,e,e,e,e,e,e,e,e,e,e,e,e,e,e,e,e,e,e,e,e,e,e,e,e,e,e,e,e,e,e,e,e,2.89,2.77,2.78,3.51,e,e,e,e,e,e,e,e,e,e,e,e,4.21,3.52,3.66,3.92,3.76,3.61,3.85,3.87,3.90,4.95,5.90,7.51,9.80,13.04,18.23,23.04,27.55,32.02,36.88,41.70,45.40,47.30,46.76,46.43,47.52,49.69,52.56,55.21,55.40,53.40,50.22,47.66,45.40,41.78,37.70,34.48,32.26,30.25,27.82,24.90,22.12,20.59,21.37,24.25,28.84,34.01,39.60,44.16,46.81,49.01,51.10,53.07,55.05,57.31,58.60,58.77,57.91,56.08,54.43,54.02,54.28,54.94,56.01,57.82,59.94,62.03,63.81,65.55,67.04,68.58,70.02,70.10,69.67,68.32,66.70,66.94,68.62,70.05,71.12,72.05,72.61,72.44,72.67,73.87,75.83,78.78,81.28,83.22,85.22,87.32,90.01,93.63,98.93,106.89,112.04,116.03,120.16,125.51,130.98,135.69,139.23,141.50,144.77,148.38,151.33,153.50,156.22,158.81,161.91,165.47,169.04,172.22,175.22,178.06,180.52,181.94,182.03,182.21,182.85,183.24,182.49,181.56,180.33,178.10,174.44,171.52,169.75,169.57,171.74,175.29,179.03,182.79,186.90,190.16,191.73,191.42,188.94,185.20,181.18,176.41,170.69,164.31,159.09,155.56,153.75,153.82,154.67,153.60,150.48,145.23,138.32,131.63,126.23,121.73,117.07,113.27,115.53,119.22,119.41,117.08,116.59,116.22,115.21,114.24,115.64,118.81,123.09,127.89,131.47,134.11,136.13,137.69,139.43,141.41,143.70,146.19,148.54,150.50,152.40,154.29,156.18,158.21,160.27
7.77,7.24,7.49,8.59,8.89,9.04,8.95,8.31,7.83,6.96,6.40,6.29,5.48,3.81,3.28,3.04,0.68,e,e,e,e,e,e,e,e,e,e,e,e,e,e,e,e,e,e,e,e,e,e,e,e,e,e,e,e,e,e,e,e,e,e,e,e,e,e,e,e,3.10,2.48,1.94,3.10,1.10,0.50,e,e,e,e,e,e,e,e,e,e,3.48,2.60,2.03,1.81,1.76,1.60,1.88,1.97,2.04,2.97,3.73,5.17,7.00,9.13,13.17,17.92,22.73,27.49,32.38,37.15,40.42,41.82,41.18,40.63,41.44,43.54,46.68,49.59,49.60,47.31,43.09,37.30,33.89,31.20,28.83,26.87,25.20,23.39,21.01,18.03,15.22,13.77,14.39,17.23,22.46,27.48,32.61,36.65,38.76,40.19,41.51,42.95,44.73,47.27,49.40,50.13,49.59,48.13,46.89,46.58,47.01,47.99,49.09,50.73,52.77,55.07,57.51,59.73,61.46,62.70,63.32,63.24,63.20,62.77,62.37,63.59,65.96,68.34,70.33,71.69,72.58,72.85,73.29,74.48,76.88,80.10,82.81,84.93,86.99,89.29,92.14,95.46,99.66,106.10,111.36,115.75,120.16,126.08,131.95,137.07,140.86,142.88,145.45,148.39,151.03,153.17,155.31,157.65,160.73,164.38,167.98,171.26,174.06,176.53,178.72,180.63,181.17,181.63,182.38,182.93,182.73,182.45,181.98,180.66,177.71,175.06,173.12,172.33,173.53,176.17,179.47,183.07,186.77,190.25,193.05,193.67,190.90,187.14,182.73,177.52,171.72,166.30,161.95,159.26,158.00,157.92,158.21,156.40,152.45,146.42,139.09,132.42,127.28,123.24,119.14,115.17,117.31,121.51,123.06,121.93,121.98,121.46,119.65,117.43,116.80,118.56,122.39,127.67,131.92,135.48,138.32,140.40,142.32,144.50,146.99,149.60,151.96,153.93,155.92,158.11,160.54,162.74,164.68
4.81,4.04,4.37,5.71,5.20,5.28,5.72,5.55,5.00,4.03,3.59,3.97,3.71,1.52,0.18,e,e,e,e,e,e,e,e,e,e,e,e,e,e,e,e,e,e,e,e,e,e,e,e,e,e,e,e,e,e,e,e,e,e,e,e,e,e,e,e,e,e,e,e,e,e,0.54,0.50,e,e,e,e,e,e,e,e,e,e,e,e,0.12,0.15,0.24,0.13,0.46,0.63,0.74,1.41,1.82,3.27,5.17,6.85,9.01,13.03,17.96,23.22,28.23,33.07,36.11,37.26,36.84,36.27,36.73,38.68,42.11,45.16,45.12,42.03,35.66,25.98,21.49,19.71,19.01,18.52,17.36,15.88,13.90,11.37,8.72,7.76,8.24,10.59,15.71,20.16,24.44,28.10,30.53,31.69,32.72,34.08,35.94,38.37,41.03,42.13,41.67,40.09,38.97,38.94,39.57,40.61,41.65,42.82,44.42,46.67,49.86,52.85,55.18,56.58,56.80,56.27,55.91,55.86,56.33,57.76,60.27,63.60,66.76,68.75,70.04,70.89,71.50,72.57,76.11,80.31,83.69,86.25,88.67,91.61,94.92,98.28,101.74,106.34,111.13,115.42,119.67,125.50,131.51,136.61,140.33,142.38,144.25,146.54,148.92,151.10,152.92,155.48,158.81,162.57,166.19,169.54,172.24,174.53,176.66,178.76,180.23,181.28,182.01,182.45,182.71,183.03,183.15,182.50,180.66,178.77,177.05,175.82,175.99,178.27,181.50,184.88,187.76,190.90,194.48,195.83,192.88,189.44,184.51,178.81,173.04,168.36,165.16,163.40,162.58,162.18,161.41,158.66,153.77,146.82,139.11,132.65,127.83,124.06,120.19,116.82,118.76,123.12,126.37,127.18,127.23,126.09,123.66,120.76,118.51,118.77,121.74,127.17,132.06,136.38,139.87,142.34,144.41,146.88,149.68,152.51,154.87,156.96,159.16,161.80,164.95,167.31,169.13
3.91,e,e,3.47,1.98,2.02,3.01,e,2.73,1.74,1.31,1.71,1.53,1.24,e,e,e,e,e,e,e,e,e,e,e,e,e,e,e,e,e,e,e,e,e,e,e,e,e,e,e,e,e,e,e,e,e,e,e,e,e,e,e,e,e,e,e,e,e,e,e,e,e,e,e,e,e,e,e,e,e,e,e,e,e,e,e,e,e,e,e,e,e,0.71,1.75,3.34,4.88,6.90,9.49,13.66,19.36,24.66,29.60,32.59,33.66,33.26,32.78,33.36,35.44,38.95,41.72,41.84,35.85,24.91,14.70,11.50,9.90,8.99,9.05,7.97,7.25,7.14,6.87,4.34,3.85,4.44,5.93,8.73,11.52,15.44,19.52,22.68,23.99,25.02,26.71,29.31,32.56,34.22,34.36,33.13,30.86,30.10,31.24,32.59,33.39,33.88,35.00,36.47,38.38,41.07,43.93,46.47,48.16,48.60,48.29,47.97,48.17,49.05,50.66,53.42,56.80,60.24,63.19,65.41,66.79,67.77,69.19,73.05,78.80,83.33,86.55,89.88,94.04,97.98,101.43,104.57,108.61,112.00,115.29,119.02,123.78,128.86,132.85,135.82,138.14,140.15,142.00,144.01,146.37,149.10,151.92,155.32,159.23,163.21,166.29,169.28,171.90,173.89,176.19,179.10,181.34,182.38,182.31,181.82,181.26,180.85,180.94,182.00,181.69,180.42,178.87,178.18,181.20,185.71,189.93,192.12,194.30,196.93,197.67,194.69,191.39,186.17,180.50,175.35,171.57,169.65,168.70,167.92,166.44,163.33,159.02,153.46,146.46,138.78,132.42,127.67,123.93,120.31,118.11,120.16,124.39,128.51,131.05,131.05,129.56,127.09,124.13,121.43,120.51,122.22,127.25,131.98,136.80,140.96,143.96,146.37,148.61,151.56,154.93,157.61,160.17,163.13,166.34,169.31,171.11,172.49
3.40,e,e,2.74,1.01,1.05,2.00,e,1.90,1.06,0.64,1.02,0.84,0.80,e,e,e,e,e,e,e,e,e,e,e,e,e,e,e,e,e,e,e,e,e,e,e,e,e,e,e,e,e,e,e,e,e,e,e,e,e,e,e,e,e,e,e,e,e,e,e,e,e,e,e,e,e,e,e,e,e,e,e,e,e,e,e,e,e,e,e,e,e,0.30,1.29,2.63,3.17,5.22,7.34,10.37,14.83,20.43,24.71,27.14,27.87,27.07,25.99,26.10,27.98,31.32,33.03,31.96,25.38,15.31,8.67,6.47,4.59,3.65,5.97,5.11,3.17,2.95,3.67,2.93,2.70,3.33,4.25,4.24,6.23,8.69,11.55,14.55,15.88,17.17,19.39,22.38,24.90,25.65,24.94,23.26,21.21,20.49,21.47,22.76,23.72,24.42,25.75,27.50,29.66,32.38,35.34,37.91,39.71,40.45,40.42,40.89,41.72,42.77,44.15,46.75,50.23,54.03,57.64,60.79,62.98,64.84,67.01,70.41,76.02,80.98,85.01,89.17,94.22,98.80,102.39,105.17,109.19,111.81,114.10,116.82,120.47,124.22,126.95,129.00,130.98,132.86,135.03,137.52,140.31,143.27,146.64,150.05,153.39,156.69,159.77,163.02,166.28,169.45,172.89,176.93,180.18,182.04,182.46,181.19,179.78,178.99,179.50,181.41,182.64,182.69,181.65,180.98,183.72,188.15,192.74,195.73,197.59,199.00,198.94,196.31,192.70,187.49,182.12,177.55,174.77,173.88,173.11,171.69,168.93,164.29,158.90,152.68,145.46,137.83,131.76,127.19,123.56,120.37,119.72,122.46,126.75,130.86,134.05,134.09,132.57,130.28,127.58,124.84,123.32,123.84,127.31,131.59,136.49,141.05,144.76,148.08,150.83,153.91,157.32,160.47,163.28,166.66,170.10,172.81,174.51,175.69
e,e,e,e,e,e,e,e,e,e,e,e,e,e,e,e,e,e,e,e,e,e,e,e,e,e,e,e,e,e,e,e,e,e,e,e,e,e,e,e,e,e,e,e,e,e,e,e,e,e,e,e,e,e,e,e,e,e,e,e,e,e,e,e,e,e,e,e,e,e,e,e,e,e,e,e,e,e,e,e,e,e,e,e,e,e,1.88,3.76,5.81,7.97,10.83,15.76,18.75,20.28,20.59,19.52,18.02,17.63,18.95,21.55,22.04,19.91,14.59,8.08,5.27,4.06,2.01,0.26,e,e,0.24,0.62,1.30,e,e,e,e,1.40,3.34,4.09,5.20,7.60,8.97,10.53,12.88,15.48,16.65,16.71,15.53,13.90,12.65,12.08,12.48,13.36,14.39,15.29,16.66,18.48,20.68,23.26,26.28,28.93,31.00,32.28,32.87,34.54,36.18,37.38,38.55,40.77,44.07,47.93,51.89,55.83,58.93,61.88,64.98,67.95,72.72,77.80,82.64,87.30,92.55,97.41,101.09,103.56,107.33,109.55,111.23,113.15,115.93,118.48,120.22,121.55,123.02,124.69,127.17,130.21,133.53,136.72,140.73,144.28,147.11,149.50,152.41,155.76,159.63,164.13,168.78,173.44,177.46,180.40,181.65,180.14,178.25,177.30,178.25,180.18,182.63,184.18,184.25,184.01,185.90,189.52,194.08,198.19,200.03,200.50,199.89,197.87,194.09,188.94,183.91,179.96,178.14,177.93,176.81,174.25,170.07,164.41,158.33,151.60,144.09,136.72,131.08,126.80,123.50,121.27,122.07,125.46,129.65,133.37,136.71,136.91,135.58,133.55,131.13,128.63,126.77,126.14,127.70,131.19,135.85,140.60,145.00,149.31,152.78,156.00,159.34,162.99,166.14,169.81,173.38,175.97,177.80,178.93
e,e,e,e,e,e,e,e,e,e,e,e,e,e,e,e,e,e,e,e,e,e,e,e,e,e,e,e,e,e,e,e,e,e,e,e,e,e,e,e,e,e,e,e,e,e,e,e,e,e,e,e,e,e,e,e,e,e,e,e,e,e,e,e,e,e,e,e,e,e,e,e,e,e,e,e,e,e,e,e,e,e,e,e,e,e,e,2.46,4.43,7.02,9.40,10.75,11.45,11.77,11.78,11.38,10.90,10.76,10.98,11.32,11.11,10.08,8.60,6.38,2.81,e,e,e,e,e,e,e,e,e,e,e,e,e,e,2.48,3.08,4.78,6.43,7.92,8.90,9.32,9.36,9.07,8.45,7.92,7.96,8.32,8.71,9.14,9.49,9.48,10.05,10.78,11.54,12.63,15.14,18.29,21.34,23.89,26.09,29.19,31.71,33.36,34.90,36.60,38.73,41.55,45.37,49.62,53.58,57.56,61.60,65.26,69.39,74.59,80.09,84.33,88.09,92.11,95.67,98.14,100.32,102.36,104.55,106.98,109.59,111.84,113.55,114.92,116.21,117.86,119.68,122.30,126.11,130.52,135.06,139.23,142.69,144.88,146.68,149.74,153.75,158.30,163.14,167.22,171.54,175.69,177.44,177.37,176.04,175.31,177.15,179.42,182.14,184.72,186.56,186.94,187.63,190.07,194.08,198.33,200.19,200.78,200.62,199.49,196.53,191.28,186.41,183.25,182.19,181.91,179.61,175.23,169.37,163.06,156.92,150.05,142.36,135.96,130.89,127.03,124.68,124.79,126.39,129.40,132.81,135.97,139.34,140.00,139.15,137.39,134.96,133.04,130.85,129.08,129.20,131.23,135.15,139.81,144.60,149.37,153.14,156.59,160.18,164.26,168.39,172.47,176.20,179.22,181.29,182.47
e,e,e,e,e,e,e,e,e,e,e,e,e,e,e,e,e,e,e,e,e,e,e,e,e,e,e,e,e,e,e,e,e,e,e,e,e,e,e,e,e,e,e,e,e,e,e,e,e,e,e,e,e,e,e,e,e,e,e,e,e,e,e,e,e,e,e,e,e,e,e,e,e,e,e,e,e,e,e,e,e,e,e,e,e,e,0.30,1.77,3.93,6.53,8.65,8.85,8.91,8.87,8.76,8.56,8.33,8.18,7.90,7.34,6.61,5.75,5.09,4.25,2.31,e,e,e,e,e,e,e,e,e,e,e,e,e,e,2.00,2.58,3.90,3.75,5.37,5.91,5.18,5.01,4.54,4.15,4.11,4.55,4.91,5.94,6.66,6.55,6.03,6.54,7.09,7.52,8.21,9.82,11.73,13.60,15.28,16.98,20.87,24.66,27.75,30.96,33.26,35.31,37.58,40.45,43.57,47.36,51.42,55.61,60.03,64.58,69.53,74.54,78.73,81.99,85.32,88.44,90.93,93.00,95.04,97.11,99.22,101.29,103.40,105.54,107.70,109.89,112.25,114.34,116.75,119.90,123.91,128.58,132.78,136.18,138.69,140.84,143.89,147.66,151.84,156.29,160.37,164.77,169.24,172.23,173.32,173.40,173.95,176.33,178.76,181.50,184.34,186.95,188.70,189.97,191.93,194.78,198.12,199.97,200.75,200.89,200.38,198.86,195.50,191.17,187.29,186.41,184.08,180.00,174.55,168.16,161.93,155.71,148.89,141.62,135.83,131.38,128.64,127.79,129.16,131.06,133.34,135.86,138.56,141.45,142.25,141.98,141.13,139.78,138.46,136.76,134.93,133.53,132.81,135.38,139.61,144.22,148.44,152.14,155.68,159.40,163.84,168.89,173.63,177.88,181.50,184.17,185.93
e,e,e,e,e,e,e,e,e,e,e,e,e,e,e,e,e,e,e,e,e,e,e,e,e,e,e,e,e,e,e,e,e,e,e,e,e,e,e,e,e,e,e,e,e,e,e,e,e,e,e,e,e,e,e,e,e,e,e,e,e,e,e,e,e,e,e,e,e,e,e,e,e,e,e,e,e,e,e,e,e,e,e,e,e,e,0.60,1.97,4.06,6.31,8.01,7.94,7.85,7.70,7.52,7.33,7.09,6.87,6.37,5.41,4.38,3.35,2.77,2.65,2.44,e,e,e,e,e,e,e,e,e,e,e,e,e,e,e,e,e,1.19,3.04,3.66,2.72,2.64,2.05,1.75,1.91,2.45,2.58,3.84,4.53,4.17,3.35,4.03,4.72,5.21,5.92,6.80,7.47,8.03,8.61,9.44,13.03,16.98,20.70,25.10,28.89,32.00,34.51,36.48,38.42,41.53,45.06,48.83,53.50,58.23,63.05,67.76,71.87,74.86,77.68,80.48,83.15,85.50,87.56,89.46,91.23,92.92,95.06,97.57,100.39,103.55,106.83,109.65,112.13,114.58,117.89,122.32,126.31,129.53,132.24,134.87,137.92,141.35,145.07,149.07,153.24,157.66,162.22,166.34,168.64,170.45,172.53,175.23,177.78,180.58,183.49,186.40,189.25,191.35,193.09,194.88,197.15,199.07,200.24,200.77,200.69,200.39,199.11,195.68,191.19,189.56,185.05,179.42,173.35,166.95,160.92,154.62,148.03,141.55,136.39,132.60,131.21,131.99,134.02,136.05,137.70,139.34,141.38,143.72,144.55,144.77,144.84,144.67,144.02,142.88,141.16,138.59,135.56,136.33,139.51,143.71,147.23,150.72,154.24,157.99,162.50,168.34,173.70,178.48,182.82,186.35,188.87
e,e,e,e,e,e,e,e,e,e,e,e,e,e,e,e,e,e,e,e,e,e,e,e,e,e,e,e,e,e,e,e,e,e,e,e,e,e,e,e,e,e,e,e,e,e,e,e,e,e,e,e,e,e,e,e,e,e,e,e,e,e,e,e,e,e,e,e,e,e,e,e,e,e,e,e,e,e,e,e,e,e,e,e,1.02,1.19,1.80,3.33,4.98,6.34,7.10,6.92,6.63,6.33,6.05,5.74,5.47,5.32,4.76,3.58,2.66,1.42,0.81,e,e,e,e,e,e,e,e,e,e,e,e,e,e,e,e,e,e,e,0.25,1.31,2.00,e,e,e,e,e,e,e,2.14,2.07,1.72,0.83,1.65,2.49,3.10,3.92,4.77,5.46,6.07,6.68,7.34,8.64,10.05,11.81,15.29,21.46,27.29,31.47,33.41,35.17,37.24,39.55,42.25,45.93,49.54,54.63,60.27,63.95,66.48,69.16,72.18,75.32,77.72,79.77,81.84,83.94,85.93,88.36,90.78,93.42,96.84,100.94,104.80,107.91,110.41,113.57,117.21,120.92,124.21,126.47,128.77,131.61,134.80,138.19,141.92,145.95,150.46,155.26,159.66,163.50,167.08,170.37,173.21,175.91,179.05,182.17,185.01,187.71,189.89,191.54,192.93,194.63,196.82,198.78,199.97,200.07,200.06,199.69,197.70,194.03,190.01,184.47,178.41,172.23,166.10,160.09,153.73,147.66,142.38,138.13,135.05,135.00,137.28,139.46,141.56,143.01,143.94,144.78,146.77,147.59,148.07,148.61,149.03,149.12,148.13,146.12,143.22,139.86,138.26,139.31,142.94,146.12,149.38,152.80,156.38,160.37,166.69,172.31,177.40,182.60,187.24,190.59
e,e,e,e,e,e,e,e,e,e,e,e,e,e,e,e,e,e,e,e,e,e,e,e,e,e,e,e,e,e,e,e,e,e,e,e,e,e,e,e,e,e,e,e,e,e,e,e,e,e,e,e,e,e,e,e,e,e,e,e,e,e,e,e,e,e,e,e,e,e,e,e,e,e,e,e,e,e,e,e,e,e,e,0.00,1.08,1.94,2.90,4.32,5.29,5.52,5.10,4.73,4.77,4.72,4.39,3.80,3.86,3.86,3.35,2.26,1.41,0.87,0.30,e,e,e,e,e,e,e,e,e,e,e,e,e,e,e,e,e,e,1.50,0.24,0.94,1.50,e,e,e,e,e,e,e,1.60,1.53,1.19,0.28,1.13,2.00,2.41,2.02,2.77,3.48,4.10,4.72,5.38,6.19,7.06,8.20,10.31,13.98,19.24,24.53,28.21,31.09,32.98,34.56,36.49,39.73,43.02,47.08,51.35,54.56,57.74,61.36,64.75,67.42,70.01,72.53,74.75,76.71,78.85,81.86,84.88,87.88,91.28,95.55,99.97,103.64,106.39,109.32,112.74,116.45,119.81,121.82,123.99,126.58,129.53,132.84,136.44,140.45,145.14,150.22,154.70,159.05,163.14,166.90,170.19,173.24,176.41,179.53,182.40,184.76,186.73,188.40,189.94,191.64,193.77,195.88,197.30,197.67,198.20,198.19,196.80,193.73,189.19,183.37,177.25,171.25,165.53,159.82,154.24,149.01,144.23,139.87,137.63,138.58,141.74,144.75,147.17,148.27,148.58,148.82,149.90,150.75,151.77,153.06,154.22,154.92,153.79,151.14,147.65,143.76,140.69,140.30,143.16,146.07,149.14,152.37,155.73,159.39,164.90,170.40,175.89,181.65,187.04,190.91
e,e,e,e,e,e,e,e,e,e,e,e,e,e,e,e,e,e,e,e,e,e,e,e,e,e,e,e,e,e,e,e,e,e,e,e,e,e,e,e,e,e,e,e,e,e,e,e,e,e,e,e,e,e,e,e,e,e,e,e,e,e,e,e,e,e,e,e,e,e,e,e,e,e,e,e,e,e,e,e,e,e,e,0.00,1.00,2.20,3.39,4.72,5.07,4.42,3.27,3.04,3.06,3.24,3.20,2.46,2.47,2.38,2.06,1.44,0.56,0.40,e,e,e,e,e,e,e,e,e,e,e,e,e,e,e,e,e,e,e,1.60,e,e,e,e,e,e,e,e,e,e,e,e,e,e,e,e,e,0.71,1.50,2.22,2.62,2.81,3.47,4.30,5.22,6.21,7.31,8.48,12.03,16.83,21.12,24.84,27.06,28.65,30.42,33.39,36.51,39.72,42.98,46.31,49.92,53.88,57.26,59.56,62.25,64.97,67.39,69.58,72.06,75.40,79.01,82.63,86.25,90.45,94.99,98.97,102.04,104.94,108.42,112.25,115.72,117.74,119.82,122.15,124.91,128.22,131.73,135.79,140.69,146.06,150.56,154.98,159.11,163.00,166.66,169.96,173.02,175.95,178.66,180.85,182.81,184.60,186.31,188.06,190.17,192.40,194.08,194.85,195.91,196.19,195.11,192.39,187.98,182.14,176.10,170.39,165.22,160.25,155.80,151.54,147.20,142.70,140.54,141.66,145.07,148.56,151.28,152.45,152.72,152.76,153.13,154.01,155.67,157.95,159.88,160.63,159.10,155.87,151.80,147.41,143.60,142.16,143.94,146.69,149.82,153.14,156.52,159.94,164.44,169.53,175.01,180.84,186.64,191.05
e,e,e,e,e,e,e,e,e,e,e,e,e,e,e,e,e,e,e,e,e,e,e,e,e,e,e,e,e,e,e,e,e,e,e,e,e,e,e,e,e,e,e,e,e,e,e,e,e,e,e,e,e,e,e,e,e,e,e,e,e,e,e,e,e,e,e,e,e,e,e,e,e,e,e,e,e,e,e,e,e,e,e,e,0.97,1.49,2.83,4.24,4.22,3.29,2.16,e,1.54,2.12,2.87,e,1.35,0.94,0.61,e,0.19,0.15,e,e,e,e,e,e,e,e,e,e,e,e,e,e,e,e,e,e,e,e,e,e,e,e,e,e,e,e,e,e,e,e,e,e,e,e,e,e,e,e,e,1.07,1.70,2.57,3.51,4.44,5.40,6.42,8.03,10.02,12.25,15.59,18.46,20.97,23.39,26.13,28.96,32.26,36.13,40.44,43.67,46.57,49.33,51.91,54.48,56.83,59.56,62.77,66.00,69.15,72.99,77.31,81.62,85.61,89.75,93.66,97.08,100.31,104.08,108.08,111.74,114.13,116.12,118.23,120.84,124.16,127.64,131.75,136.85,142.47,147.00,151.24,155.19,158.99,162.66,165.96,168.82,171.30,173.47,175.76,178.12,180.11,181.77,183.47,185.83,188.47,190.71,192.14,193.62,194.33,193.47,190.81,186.67,180.97,175.12,169.77,165.34,161.80,158.65,155.38,151.67,147.44,144.04,144.03,146.82,149.90,152.78,154.77,155.89,156.25,156.54,157.51,159.87,163.29,165.87,165.75,163.53,159.94,155.46,150.77,147.01,144.93,145.25,147.94,151.49,155.39,159.27,162.63,166.48,170.86,175.65,180.89,186.64,191.68
e,e,e,e,e,e,e,e,e,e,e,e,e,e,e,e,e,e,e,e,e,e,e,e,e,e,e,e,e,e,e,e,e,e,e,e,e,e,e,e,e,e,e,e,e,e,e,e,e,e,e,e,e,e,e,e,e,e,e,e,e,e,e,e,e,e,e,e,e,e,e,e,e,e,e,e,e,e,e,e,e,e,e,e,0.66,1.02,2.12,3.36,3.46,2.67,1.59,e,0.50,1.09,2.80,e,1.04,0.61,0.24,e,0.10,0.10,e,e,e,e,e,e,e,e,e,e,e,e,e,e,e,e,e,e,e,e,e,e,e,e,e,e,e,e,e,e,e,e,e,e,e,e,e,e,e,e,e,0.72,1.37,2.24,2.38,2.37,3.32,4.32,5.54,6.83,8.13,10.02,11.91,13.85,16.06,18.73,21.58,24.64,28.01,31.76,35.15,38.93,42.48,45.31,47.93,50.98,54.24,57.78,61.87,65.40,69.02,72.97,77.15,80.59,84.28,88.32,92.38,95.64,99.69,103.86,107.71,110.73,112.93,115.11,117.61,120.61,124.09,128.12,133.05,138.58,143.47,147.50,151.28,154.91,158.29,161.51,164.04,165.97,167.46,169.00,170.67,172.24,174.00,176.72,179.94,183.03,186.01,188.94,191.51,192.60,192.08,189.72,185.18,179.86,174.58,169.97,166.86,165.28,163.16,160.19,156.33,152.02,148.35,147.05,148.21,151.24,154.49,157.01,158.78,159.78,160.17,162.29,165.44,168.79,170.75,169.96,167.08,162.94,158.13,153.38,149.58,147.06,146.50,148.74,152.49,156.79,161.19,165.44,169.67,173.93,178.43,183.38,188.68,193.83
e,e,e,e,e,e,e,e,e,e,e,e,e,e,e,e,e,e,e,e,e,e,e,e,e,e,e,e,e,e,e,e,e,e,e,e,e,e,e,e,e,e,e,e,e,e,e,e,e,e,e,e,e,e,e,e,e,e,e,e,e,e,e,e,e,e,e,e,e,e,e,e,e,e,e,e,e,e,e,e,e,e,e,e,0.50,0.93,1.86,2.83,2.87,2.16,1.18,e,0.00,0.00,e,e,0.73,0.48,0.20,e,e,e,e,e,e,e,e,e,e,e,e,e,e,e,e,e,e,e,e,e,e,e,e,e,e,e,e,e,e,e,e,e,e,e,e,e,e,e,e,e,e,e,e,e,e,e,0.90,1.13,2.05,2.43,3.27,4.38,5.29,6.20,7.30,8.65,10.34,12.50,14.83,17.37,20.19,23.46,26.98,31.23,35.28,38.45,41.47,45.31,49.24,53.25,58.07,62.20,65.75,69.16,72.72,75.44,78.88,83.03,87.44,90.89,95.11,99.47,103.59,107.14,109.66,112.04,114.50,117.23,120.75,124.70,129.28,134.44,139.55,143.44,146.97,150.28,153.24,156.14,158.31,159.76,160.62,161.50,162.67,164.08,166.00,169.18,173.03,176.61,180.22,184.17,187.84,190.09,190.54,188.65,183.76,178.97,174.51,171.06,169.75,169.68,167.65,164.26,160.10,155.83,152.27,150.16,150.08,152.97,156.40,159.33,161.72,163.52,164.56,167.47,170.83,173.67,175.05,173.64,170.10,165.38,160.31,155.58,151.84,149.19,148.15,149.70,153.21,157.56,162.35,167.53,172.60,177.41,182.14,186.97,191.64,196.41
e,e,e,e,e,e,e,e,e,e,e,e,e,e,e,e,e,e,e,e,e,e,e,e,e,e,e,e,e,e,e,e,e,e,e,e,e,e,e,e,e,e,e,e,e,e,e,e,e,e,e,e,e,e,e,e,e,e,e,e,e,e,e,e,e,e,e,e,e,e,e,e,e,e,e,e,e,e,e,e,e,e,e,e,e,e,2.23,2.81,2.50,1.66,0.79,e,e,e,e,e,0.18,0.18,e,e,e,e,e,e,e,e,e,e,e,e,e,e,e,e,e,e,e,e,e,e,e,e,e,e,e,e,e,e,e,e,e,e,e,e,e,e,e,e,e,e,e,e,e,e,e,e,e,e,e,0.58,1.12,2.05,2.92,3.83,4.78,5.80,6.95,8.05,9.24,11.01,13.50,16.72,19.99,23.67,27.45,31.10,34.88,39.26,43.87,48.69,53.97,58.77,62.52,65.57,68.29,70.34,73.75,77.91,82.23,86.06,90.34,94.87,99.34,103.20,106.08,108.70,111.25,113.92,117.51,121.40,125.59,130.17,135.13,138.94,142.12,144.92,147.36,149.66,151.48,152.61,153.08,153.77,155.06,156.81,158.93,161.61,165.52,169.58,173.57,177.62,182.12,186.35,188.52,187.48,182.67,178.51,175.18,173.38,174.05,174.54,171.49,167.03,162.63,158.67,155.41,153.23,152.74,155.18,158.52,161.81,164.79,167.39,169.72,172.68,175.48,177.66,178.83,176.85,172.68,167.45,162.20,157.54,154.09,151.74,150.70,151.34,154.00,157.93,162.80,168.51,174.69,180.70,186.25,191.05,195.06,199.05
e,e,e,e,e,e,e,e,e,e,e,e,e,e,e,e,e,e,e,e,e,e,e,e,e,e,e,e,e,e,e,e,e,e,e,e,e,e,e,e,e,e,e,e,e,e,e,e,e,e,e,e,e,e,e,e,e,e,e,e,e,e,e,e,e,e,e,e,e,e,e,e,e,e,e,e,e,e,e,e,e,e,e,e,e,e,2.29,2.50,2.24,1.51,0.61,e,e,e,e,e,0.10,0.10,e,e,e,e,e,e,e,e,e,e,e,e,e,e,e,e,e,e,e,e,e,e,e,e,e,e,e,e,e,e,e,e,e,e,e,e,e,e,e,e,e,e,e,e,e,e,e,e,e,e,e,0.20,0.78,1.68,2.54,3.46,2.96,3.13,4.22,5.17,6.24,7.62,9.28,11.23,13.38,16.83,20.92,25.06,29.19,33.70,38.52,43.61,48.96,53.94,57.65,60.68,63.76,66.23,69.52,73.54,77.92,81.66,85.88,90.31,94.78,98.96,102.15,104.91,107.59,110.55,114.24,118.10,122.18,126.47,130.75,134.32,137.10,139.30,141.10,142.84,144.49,145.68,146.44,147.76,149.28,151.05,153.26,156.37,160.05,164.11,168.21,172.26,176.86,181.50,185.08,186.23,182.82,179.05,177.59,177.94,178.68,178.66,174.59,169.41,165.04,161.38,158.50,156.44,155.63,157.19,160.60,164.38,167.78,170.59,173.81,177.06,179.69,181.42,182.08,179.63,175.16,169.82,164.62,160.01,157.41,156.13,155.60,155.16,156.41,159.25,163.46,168.93,175.52,182.69,189.10,193.67,197.55,201.63
e,e,e,e,e,e,e,e,e,e,e,e,e,e,e,e,e,e,e,e,e,e,e,e,e,e,e,e,e,e,e,e,e,e,e,e,e,e,e,e,e,e,e,e,e,e,e,e,e,e,e,e,e,e,e,e,e,e,e,e,e,e,e,e,e,e,e,e,e,e,e,e,e,e,e,e,e,e,e,e,e,e,e,e,e,e,e,1.90,1.93,1.53,0.77,e,e,e,e,e,e,e,e,e,e,e,e,e,e,e,e,e,e,e,e,e,e,e,e,e,e,e,e,e,e,e,e,e,e,e,e,e,e,e,e,e,e,e,e,e,e,e,e,e,e,e,e,e,e,e,e,e,e,e,e,e,e,e,1.30,1.81,2.84,2.83,3.79,5.00,6.22,7.43,8.81,11.49,14.99,19.05,23.89,28.65,33.61,38.88,44.33,49.49,53.51,56.85,60.17,63.16,66.37,70.03,74.01,77.50,81.46,85.69,90.06,94.37,97.85,100.84,103.75,106.98,110.86,114.85,118.90,122.92,126.75,129.93,132.16,133.73,134.98,136.35,138.00,139.52,140.86,142.77,144.67,146.66,148.99,152.13,155.55,159.42,163.46,167.54,171.91,176.49,180.76,183.69,183.20,181.25,180.82,181.53,181.89,181.09,176.87,171.89,167.85,164.77,162.12,159.95,158.68,159.45,162.89,166.89,170.49,173.45,176.89,180.50,183.39,185.07,185.01,182.00,177.43,172.23,167.06,162.85,161.20,160.96,160.98,159.79,159.82,161.52,164.87,169.97,176.36,183.94,190.88,195.66,200.07,204.44
e,e,e,e,e,e,e,e,e,e,e,e,e,e,e,e,e,e,e,e,e,e,e,e,e,e,e,e,e,e,e,e,e,e,e,e,e,e,e,e,e,e,e,e,e,e,e,e,e,e,e,e,e,e,e,e,e,e,e,e,e,e,e,e,e,e,e,e,e,e,e,e,e,e,e,e,e,e,e,e,e,e,e,e,e,e,e,1.19,1.51,1.54,1.17,e,e,e,e,e,e,e,e,e,e,e,e,e,e,e,e,e,e,e,e,e,e,e,e,e,e,e,e,e,e,e,e,e,e,e,e,e,e,e,e,e,e,e,e,e,e,e,e,e,e,e,e,e,e,e,e,e,e,e,e,e,e,e,e,e,e,0.76,1.72,2.83,3.85,5.08,6.29,7.79,9.88,13.22,18.69,23.92,29.14,34.58,40.17,45.62,50.37,54.33,57.56,60.85,63.93,66.97,70.09,73.31,76.87,80.81,85.02,89.25,93.03,96.39,99.62,103.07,107.21,111.62,115.72,119.43,123.06,125.74,127.33,128.31,129.23,130.44,132.19,134.14,136.16,138.51,140.91,143.35,145.86,148.55,151.72,155.25,159.10,163.25,167.29,171.62,175.84,179.68,182.73,183.69,183.48,183.10,183.13,181.85,178.50,174.61,171.24,168.83,166.31,163.90,162.10,162.24,165.38,169.14,172.68,175.78,178.93,182.95,186.47,188.42,187.67,184.13,179.62,174.68,169.47,165.85,165.16,165.83,166.34,164.88,164.02,164.66,167.13,171.91,177.74,185.05,192.13,197.56,202.90,207.52
e,e,e,e,e,e,e,e,e,e,e,e,e,e,e,e,e,e,e,e,e,e,e,e,e,e,e,e,e,e,e,e,e,e,e,e,e,e,e,e,e,e,e,e,e,e,e,e,e,e,e,e,e,e,e,e,e,e,e,e,e,e,e,e,e,e,e,e,e,e,e,e,e,e,e,e,e,e,e,e,e,e,e,e,e,e,e,1.10,0.87,0.72,e,e,e,e,e,e,e,e,e,e,e,e,e,e,e,e,e,e,e,e,e,e,e,e,e,e,e,e,e,e,e,e,e,e,e,e,e,e,e,e,e,e,e,e,e,e,e,e,e,e,e,e,e,e,e,e,e,e,e,e,e,e,e,e,e,e,e,e,e,1.22,1.46,2.71,4.07,5.53,7.26,9.56,12.85,18.70,24.69,30.09,35.69,41.40,47.02,51.84,55.09,58.19,60.38,62.44,64.93,68.06,71.43,74.97,78.72,82.75,87.09,90.95,94.63,98.48,102.67,108.01,112.56,115.91,119.06,121.21,122.38,123.17,124.24,125.46,127.09,129.05,131.38,134.35,137.27,140.10,142.85,145.48,148.23,151.23,154.79,159.09,163.26,167.25,171.05,174.61,177.69,179.50,180.61,181.38,181.92,182.08,180.36,177.83,175.18,172.66,170.68,168.69,166.86,166.21,167.77,170.53,173.59,176.51,179.61,184.24,188.31,190.52,190.00,186.79,182.35,177.31,172.08,168.31,168.68,170.45,171.47,170.30,168.71,168.39,170.15,174.85,180.68,187.81,194.95,200.93,206.27,210.57
e,e,e,e,e,e,e,e,e,e,e,e,e,e,e,e,e,e,e,e,e,e,e,e,e,e,e,e,e,e,e,e,e,e,e,e,e,e,e,e,e,e,e,e,e,e,e,e,e,e,e,e,e,e,e,e,e,e,e,e,e,e,e,e,e,e,e,e,e,e,e,e,e,e,e,e,e,e,e,e,e,e,e,e,e,e,e,1.10,0.55,0.16,e,e,e,e,e,e,e,e,e,e,e,e,e,e,e,e,e,e,e,e,e,e,e,e,e,e,e,e,e,e,e,e,e,e,e,e,e,e,e,e,e,e,e,e,e,e,e,e,e,e,e,e,e,e,e,e,e,e,e,e,e,e,e,e,e,e,e,e,e,0.10,0.43,1.67,2.35,3.58,5.24,7.04,9.03,13.53,19.35,25.55,31.06,36.77,42.64,48.09,52.22,54.87,56.06,57.25,59.18,61.84,64.55,67.56,71.03,75.15,79.99,84.73,89.18,93.41,97.93,103.56,108.19,111.32,113.86,115.61,116.58,117.28,118.34,119.89,121.98,124.22,126.72,130.30,133.69,136.82,139.72,142.39,144.91,147.54,150.66,154.59,158.90,162.76,166.31,169.58,172.39,174.62,176.47,177.97,179.08,180.60,180.62,179.66,177.96,175.39,174.32,173.13,171.54,170.31,170.39,172.04,174.46,177.13,180.21,184.91,189.16,191.67,191.58,188.94,184.76,179.90,175.20,171.95,172.93,175.15,176.42,175.78,173.84,172.97,174.38,179.11,184.99,191.86,198.50,203.82,208.58,212.70
