e,e,e,e,e,e,e,e,e,e,e,e,e,e,e,e,e,e,e,e,e,e,e,e,e,e,e,e,e,e,e,e,e,e,e,e,e,e,e,e,e,e,e,e,e,e,e,e,e,e,e,e,e,e,e,e,e,e,e,e,e,e,e,e,e,e,e,e,e,e,e,e,e,e,e,e,e,e,e,e,e,e,e,e,e,e,e,e,e,e,e,e,e,e,e,e,e,e,e,e,e,e,e,e,e,e,e,e,e,e,e,e,e,e,e,e,e,e,e,e,e,1.29,1.36,1.83,3.97,4.26,3.24,4.31,4.96,5.16,5.85,7.71,10.17,13.40,16.35,18.91,22.04,25.44,29.14,32.98,36.65,39.83,43.19,46.94,51.22,56.20,63.16,70.27,76.90,82.99,88.41,91.82,93.95,95.54,96.71,97.82,99.01,100.37,102.00,103.78,105.50,107.24,109.28,111.84,114.67,117.41,119.76,121.61,123.34,124.79,125.78,125.97,125.36,123.50,120.20,115.38,110.83,109.73,111.01,113.80,116.68,119.24,121.35,123.00,124.24,126.21,128.57,131.07,133.27,134.14,134.19,133.39,132.00,130.69,129.58,128.97,128.65,128.40,128.20,128.22,129.25,132.13,137.63,141.98,144.87,146.99,149.40,152.39,154.38,155.99,157.90,160.43,163.30,166.68,170.24,172.99,175.36,177.03,177.97,178.25,178.54,180.03,182.49,185.52,188.25,190.72,193.17,195.82,198.88,201.79,204.58,207.22,209.63,211.80,213.68,215.44,217.22,219.27,222.31,226.21,230.42,234.45,238.09,241.99,246.11,250.29,254.04,256.39,257.01,255.96,253.25,250.29,246.16,241.35,236.46,232.21
e,e,e,e,e,e,e,e,e,e,e,e,e,e,e,e,e,e,e,e,e,e,e,e,e,e,e,e,e,e,e,e,e,e,e,e,e,e,e,e,e,e,e,e,e,e,e,e,e,e,e,e,e,e,e,e,e,e,e,e,e,e,e,e,e,e,e,e,e,e,e,e,e,e,e,e,e,e,e,e,e,e,e,e,e,e,e,e,e,e,e,e,e,e,e,e,e,e,e,e,e,e,e,e,e,e,e,e,e,e,e,e,e,e,e,e,e,e,e,e,1.60,2.36,3.23,4.13,5.97,6.67,6.45,7.16,8.09,9.73,12.01,14.72,17.10,19.82,22.56,25.39,28.95,32.45,35.83,39.18,42.50,45.63,48.82,52.37,56.72,62.51,69.60,76.36,82.48,88.35,93.15,96.17,98.50,101.03,102.89,104.60,106.23,107.83,109.60,111.40,113.13,114.93,117.08,119.51,121.96,124.27,126.38,128.43,130.41,132.00,133.08,133.57,133.37,131.94,129.17,124.65,118.50,115.72,116.00,118.55,121.41,124.34,127.26,129.94,132.13,134.50,136.53,138.41,140.05,140.77,140.77,140.12,138.96,137.56,136.39,135.59,135.03,134.54,134.05,133.65,134.15,136.54,141.99,146.67,150.98,155.07,158.60,160.73,162.03,163.21,164.78,167.12,169.89,173.12,176.68,180.14,182.91,184.88,186.06,186.40,186.65,187.86,189.84,192.37,194.85,196.87,199.01,201.54,204.58,207.48,210.18,212.57,214.59,216.51,218.44,220.32,222.13,223.96,226.76,230.35,234.31,238.28,242.00,246.07,250.26,254.34,258.07,260.06,260.30,258.93,255.96,252.87,249.06,244.70,240.20,236.69
e,e,e,e,e,e,e,e,e,e,e,e,e,e,e,e,e,e,e,e,e,e,e,e,e,e,e,e,e,e,e,e,e,e,e,e,e,e,e,e,e,e,e,e,e,e,e,e,e,e,e,e,e,e,e,e,e,e,e,e,e,e,e,e,e,e,e,e,e,e,e,e,e,e,e,e,e,e,e,e,e,e,e,e,e,e,e,e,e,e,e,e,e,e,e,e,e,e,e,e,e,e,e,e,e,e,e,e,e,e,e,e,e,e,e,e,e,e,e,e,2.36,3.43,5.53,7.01,8.76,10.21,11.29,12.25,13.70,16.32,19.39,22.14,24.38,26.81,29.56,32.77,36.48,39.89,42.86,45.64,48.59,51.70,55.01,58.68,63.21,69.61,76.48,82.73,88.25,93.39,97.67,100.94,103.98,107.31,109.85,112.01,113.93,115.63,117.28,119.02,120.80,122.66,124.68,126.75,128.77,130.74,132.76,135.25,137.62,139.41,140.55,141.07,140.83,139.50,137.13,133.22,126.59,122.35,121.29,123.12,125.78,129.10,132.71,136.19,139.02,141.45,143.24,144.79,146.29,147.34,147.33,146.62,145.44,144.03,143.15,142.47,141.93,141.42,140.50,139.54,139.50,141.41,146.40,151.49,157.02,162.67,167.29,169.34,170.57,171.50,172.40,174.17,176.69,179.74,183.27,187.20,190.46,192.74,194.09,194.49,194.76,195.49,196.77,198.62,200.78,202.48,204.34,206.70,209.74,212.70,215.56,218.02,219.91,221.82,223.98,226.06,227.91,229.62,232.11,235.23,238.72,242.44,246.16,250.22,254.29,258.18,261.72,263.33,263.10,261.33,258.18,254.91,251.48,247.75,243.89,241.27
e,e,e,e,e,e,e,e,e,e,e,e,e,e,e,e,e,e,e,e,e,e,e,e,e,e,e,e,e,e,e,e,e,e,e,e,e,e,e,e,e,e,e,e,e,e,e,e,e,e,e,e,e,e,e,e,e,e,e,e,e,e,e,e,e,e,e,e,e,e,e,e,e,e,e,e,e,e,e,e,e,e,e,e,e,e,e,e,e,e,e,e,e,e,e,e,e,e,e,e,e,e,e,e,e,e,e,e,e,e,e,e,e,e,e,e,e,e,e,1.35,3.36,5.77,7.93,9.90,12.10,14.67,17.41,19.86,22.05,24.14,26.28,28.55,31.00,34.02,37.37,40.84,44.14,47.28,49.96,52.41,55.05,58.08,61.92,66.19,70.97,77.26,83.40,88.73,93.32,97.64,102.36,106.96,111.12,114.54,117.34,119.42,121.23,122.92,124.42,126.05,127.80,129.51,130.98,132.61,134.68,136.95,139.38,142.26,145.01,146.99,148.05,148.13,147.27,145.65,143.38,140.04,134.64,129.68,127.18,127.81,130.35,134.09,137.91,141.35,144.13,146.40,148.27,150.17,152.31,154.33,154.24,152.88,151.03,149.75,149.56,149.59,149.61,149.37,147.78,145.81,144.97,146.40,150.88,156.50,162.41,168.21,173.43,177.07,179.42,180.50,180.47,181.19,183.46,186.75,190.51,193.97,197.60,200.15,201.52,201.84,201.97,202.00,202.28,203.11,204.63,206.40,208.43,210.92,214.25,217.37,220.74,223.83,226.23,228.53,230.89,232.91,234.55,236.21,238.44,240.92,243.65,246.82,250.35,254.20,258.06,261.71,264.88,266.28,265.56,263.20,259.92,256.71,253.57,250.43,247.54,245.79
e,e,e,e,e,e,e,e,e,e,e,e,e,e,e,e,e,e,e,e,e,e,e,e,e,e,e,e,e,e,e,e,e,e,e,e,e,e,e,e,e,e,e,e,e,e,e,e,e,e,e,e,e,e,e,e,e,e,e,e,e,e,e,e,e,e,e,e,e,e,e,e,e,e,e,e,e,e,e,e,e,e,e,e,e,e,e,e,e,e,e,e,e,e,e,e,e,e,e,e,e,e,e,e,e,e,e,e,e,e,e,e,e,e,e,e,e,e,e,2.02,4.32,7.62,10.99,14.05,16.83,19.72,22.74,25.56,27.89,30.00,32.16,34.63,37.56,40.87,44.28,47.58,50.54,53.30,55.90,58.71,62.30,66.00,70.01,74.31,79.04,84.57,89.30,93.55,97.77,102.60,108.05,113.27,117.80,121.33,124.22,126.10,127.64,129.08,130.32,131.47,132.81,134.30,135.84,137.72,140.25,143.16,146.22,149.22,151.94,154.04,155.31,155.44,154.26,151.90,148.86,145.29,140.57,135.83,133.12,133.33,135.78,139.14,142.54,145.90,149.42,152.89,155.68,158.17,160.45,161.82,161.41,159.56,157.29,156.68,157.20,157.46,157.31,156.63,154.31,151.88,150.75,151.98,156.23,160.68,165.95,171.94,177.96,182.51,185.55,187.28,187.82,188.32,189.96,192.65,195.97,199.15,202.27,204.77,206.43,207.01,207.11,206.84,206.68,206.98,207.95,209.78,212.10,214.92,218.55,222.49,226.37,229.86,232.82,235.60,237.67,239.28,240.63,242.06,243.99,246.28,248.83,251.70,255.09,258.66,262.29,265.76,268.38,269.40,268.39,265.81,262.46,259.27,256.37,253.74,251.50,249.96
e,e,e,e,e,e,e,e,e,e,e,e,e,e,e,e,e,e,e,e,e,e,e,e,e,e,e,e,e,e,e,e,e,e,e,e,e,e,e,e,e,e,e,e,e,e,e,e,e,e,e,e,e,e,e,e,e,e,e,e,e,e,e,e,e,e,e,e,e,e,e,e,e,e,e,e,e,e,e,e,e,e,e,e,e,e,e,e,e,e,e,e,e,e,e,e,e,e,e,e,e,e,e,e,e,e,e,e,e,e,e,e,e,e,e,e,e,e,e,2.85,5.59,9.75,14.53,18.39,21.66,24.71,27.66,30.49,32.89,35.29,37.91,40.98,44.71,48.54,51.95,54.82,57.39,59.92,62.62,65.80,69.84,73.88,77.96,82.12,86.39,90.83,94.50,98.25,102.64,108.29,114.18,119.48,124.03,127.72,130.77,132.59,133.88,134.96,136.00,136.81,137.79,139.09,140.87,143.17,146.16,149.51,152.95,156.22,159.18,161.42,162.73,162.80,161.43,158.47,154.59,150.28,145.63,141.34,138.75,138.63,140.84,143.79,147.24,151.12,155.42,159.54,162.97,166.15,168.96,170.03,169.17,166.87,164.23,163.42,163.93,164.25,164.14,163.41,161.05,158.47,156.97,157.56,160.93,164.24,169.01,175.13,181.60,186.71,190.32,192.77,194.21,195.04,196.09,197.95,200.60,203.52,206.22,208.77,210.88,212.07,212.51,212.30,212.03,212.03,212.52,214.02,216.31,219.37,223.48,227.94,232.13,235.89,239.15,242.01,243.97,245.56,247.04,248.52,250.41,252.50,254.71,257.10,260.00,263.33,266.81,270.03,272.09,272.85,271.65,268.95,265.71,262.64,259.84,257.42,255.51,253.93
e,e,e,e,e,e,e,e,e,e,e,e,e,e,e,e,e,e,e,e,e,e,e,e,e,e,e,e,e,e,e,e,e,e,e,e,e,e,e,e,e,e,e,e,e,e,e,e,e,e,e,e,e,e,e,e,e,e,e,e,e,e,e,e,e,e,e,e,e,e,e,e,e,e,e,e,e,e,e,e,e,e,e,e,e,e,e,e,e,e,e,e,e,e,e,e,e,e,e,e,e,e,e,e,e,e,e,e,e,e,e,e,e,e,e,e,e,e,1.13,3.72,7.46,12.58,18.56,22.59,26.19,29.37,32.24,35.03,37.58,40.55,44.02,48.08,52.83,57.40,60.89,63.22,65.38,67.90,70.86,74.11,77.54,81.21,85.25,89.11,92.53,95.81,99.22,103.34,108.45,114.71,120.48,125.34,129.63,133.56,136.86,138.91,140.16,140.97,141.97,142.69,143.55,144.78,146.72,149.42,152.71,156.13,159.53,163.26,166.83,169.19,170.13,169.83,168.29,165.15,160.75,155.41,150.25,146.35,143.88,143.28,145.19,148.11,152.38,157.43,162.19,165.88,169.34,173.14,176.98,178.68,177.41,174.69,171.63,169.47,169.10,169.42,169.81,169.71,168.22,165.72,163.65,162.99,164.57,167.35,172.05,178.13,184.45,189.84,193.96,197.12,199.43,201.13,201.87,202.95,204.84,207.43,210.07,212.88,215.60,217.74,218.95,219.15,219.03,218.94,219.05,219.77,221.55,224.62,229.29,233.63,237.89,241.81,245.04,247.50,249.74,251.92,254.02,255.88,258.02,259.76,261.25,262.90,264.97,268.14,271.53,274.39,276.04,276.81,275.56,272.76,269.72,266.86,263.98,261.40,259.42,257.68
e,e,e,e,e,e,e,e,e,e,e,e,e,e,e,e,e,e,e,e,e,e,e,e,e,e,e,e,e,e,e,e,e,e,e,e,e,e,e,e,e,e,e,e,e,e,e,e,e,e,e,e,e,e,e,e,e,e,e,e,e,e,e,e,e,e,e,e,e,e,e,e,e,e,e,e,e,e,e,e,e,e,e,e,e,e,e,e,e,e,e,e,e,e,e,e,e,e,e,e,e,e,e,e,e,e,e,e,e,e,e,e,e,e,e,e,e,e,2.13,5.39,10.55,16.65,22.79,26.98,30.47,33.60,36.58,39.66,42.60,46.58,51.50,57.00,61.93,65.99,69.25,71.83,74.21,76.75,79.47,82.36,85.46,88.69,91.84,94.83,97.72,101.02,104.80,109.64,115.30,120.89,125.92,130.15,134.08,138.08,141.63,144.24,146.30,147.94,149.15,149.58,150.40,151.78,153.64,156.16,159.67,163.22,166.43,170.16,173.34,175.17,175.54,174.59,172.70,169.84,165.77,160.34,155.34,151.19,148.34,147.53,149.94,154.14,158.82,163.52,167.99,171.99,175.78,179.45,182.70,184.50,183.82,180.93,177.07,174.95,174.78,175.34,175.82,175.57,174.27,172.14,170.11,168.86,169.16,171.30,175.45,180.81,186.26,191.72,196.41,200.57,204.26,206.96,208.15,208.99,210.15,212.13,214.33,217.23,220.61,223.90,225.63,226.03,226.07,226.12,226.19,226.66,228.11,230.74,234.78,238.88,243.31,247.47,250.81,253.65,256.29,258.59,260.52,262.16,263.82,265.10,266.19,267.58,269.93,272.92,275.89,278.49,280.58,281.68,280.71,277.94,274.24,270.82,268.00,265.39,262.88,261.11
e,e,e,e,e,e,e,e,e,e,e,e,e,e,e,e,e,e,e,e,e,e,e,e,e,e,e,e,e,e,e,e,e,e,e,e,e,e,e,e,e,e,e,e,e,e,e,e,e,e,e,e,e,e,e,e,e,e,e,e,e,e,e,e,e,e,e,e,e,e,e,e,e,e,e,e,e,e,e,e,e,e,e,e,e,e,e,e,e,e,e,e,e,e,e,e,e,e,e,e,e,e,e,e,e,e,e,e,e,e,e,e,e,e,e,1.70,2.76,4.39,4.86,9.76,15.59,21.57,27.19,31.15,34.47,37.65,40.89,44.28,47.80,52.57,58.29,64.33,69.20,73.09,76.59,79.81,82.58,85.16,87.68,90.25,93.01,95.76,98.32,100.84,103.64,107.28,111.60,116.70,122.13,126.78,130.87,134.56,138.32,142.38,146.01,148.99,151.58,153.74,155.19,156.54,158.41,160.50,162.29,164.44,167.36,170.38,173.33,177.16,179.91,181.10,180.70,178.83,176.41,173.54,169.78,164.76,160.10,156.07,153.32,152.77,155.63,160.29,164.94,169.23,173.42,177.39,181.09,184.47,187.41,189.49,189.36,186.80,182.92,180.54,180.32,180.91,181.40,181.14,180.04,178.37,176.58,175.13,174.91,176.47,179.63,183.75,188.32,193.75,198.80,203.67,208.36,211.90,214.04,215.32,216.27,217.68,219.51,222.34,225.91,229.58,231.86,232.75,233.09,233.25,233.24,233.66,235.03,237.42,240.91,244.80,248.97,252.89,256.18,259.18,261.99,264.33,266.23,267.99,269.51,270.64,271.62,272.93,275.45,278.23,280.89,283.30,285.44,286.45,285.27,282.10,277.72,274.06,271.05,268.14,265.13,262.85
e,e,e,e,e,e,e,e,e,e,e,e,e,e,e,e,e,e,e,e,e,e,e,e,e,e,e,e,e,e,e,e,e,e,e,e,e,e,e,e,e,e,e,e,e,e,e,e,e,e,e,e,e,e,e,e,e,e,e,e,e,e,e,e,e,e,e,e,e,e,e,e,e,e,e,e,e,e,e,e,e,e,e,e,e,e,e,e,e,e,e,e,e,e,e,e,e,e,e,e,e,e,e,e,e,e,e,e,e,e,e,e,e,e,e,2.47,3.89,6.53,10.06,17.01,22.45,27.18,31.78,35.21,38.45,41.80,45.32,49.04,53.19,58.32,63.96,69.52,74.33,78.73,82.95,86.85,90.00,92.72,95.22,97.64,100.05,102.41,104.86,107.51,110.62,114.67,119.42,124.16,128.56,132.30,135.45,138.80,142.56,146.66,150.23,153.38,156.23,158.67,160.48,163.71,167.30,170.38,172.13,173.90,175.73,177.84,180.63,184.49,186.81,187.27,185.97,183.06,180.00,176.78,173.12,168.75,164.46,161.04,159.03,159.11,162.08,166.16,170.38,174.51,178.48,181.94,185.09,188.28,191.54,194.16,194.33,192.50,189.39,186.37,185.72,186.12,186.63,186.61,185.81,184.51,182.94,181.55,181.58,182.88,184.84,187.40,191.09,196.32,201.42,206.53,211.71,215.82,219.16,221.44,222.81,223.92,225.60,228.21,231.36,234.58,237.49,239.17,240.09,240.45,240.32,240.82,242.25,244.55,247.69,251.34,254.81,258.03,261.07,263.94,266.78,269.28,271.47,273.70,275.51,276.84,277.93,279.21,281.51,283.94,286.33,288.52,290.11,290.53,288.63,284.71,279.80,276.09,272.51,269.00,265.67,262.46
e,e,e,e,e,e,e,e,e,e,e,e,e,e,e,e,e,e,e,e,e,e,e,e,e,e,e,e,e,e,e,e,e,e,e,e,e,e,e,e,e,e,e,e,e,e,e,e,e,e,e,e,e,e,e,e,e,e,e,e,e,e,e,e,e,e,e,e,e,e,e,e,e,e,e,e,e,e,e,e,e,e,e,e,e,e,e,e,e,e,e,e,e,e,e,e,e,e,e,e,e,e,e,0.80,1.40,3.56,4.05,4.10,4.10,3.81,2.26,4.08,6.50,7.73,6.97,7.00,11.20,17.23,21.50,25.64,29.53,33.24,36.81,40.23,43.70,47.05,50.50,54.64,58.98,63.84,68.98,74.17,79.34,84.59,89.02,92.52,95.94,99.09,101.80,104.20,106.53,109.11,111.73,114.62,118.10,122.58,126.89,130.68,134.03,137.17,139.97,143.05,146.60,150.57,154.25,158.01,162.25,166.60,169.61,172.63,175.63,178.20,179.85,181.63,184.14,187.19,190.42,192.91,193.76,193.09,191.05,187.71,184.18,180.76,177.19,173.10,168.88,166.13,164.87,165.32,167.87,171.59,175.55,179.30,182.49,185.66,188.64,191.94,195.69,198.64,199.08,197.58,194.84,192.18,191.73,192.22,192.78,192.82,191.99,190.40,188.52,187.12,187.88,190.07,191.68,192.91,195.26,199.62,204.11,209.08,214.67,218.94,222.80,225.89,228.17,230.00,231.88,234.06,236.47,239.12,242.52,245.06,247.07,248.53,248.91,249.44,250.42,251.94,254.13,256.95,259.88,262.76,265.63,268.72,272.23,275.46,278.12,280.17,281.87,283.25,284.46,285.67,287.30,288.79,290.19,291.55,292.66,292.38,290.13,286.08,280.59,275.33,270.71,266.64,263.03,259.63
e,e,e,e,e,e,e,e,e,e,e,e,e,e,e,e,e,e,e,e,e,e,e,e,e,e,e,e,e,e,e,e,e,e,e,e,e,e,e,e,e,e,e,e,e,e,e,e,e,e,e,e,e,e,e,e,e,e,e,e,e,e,e,e,e,e,e,e,e,e,e,e,e,e,e,e,e,e,e,e,e,e,e,e,e,e,e,e,e,e,e,e,e,e,e,e,e,e,e,e,e,1.30,3.08,3.44,3.54,5.58,6.54,7.45,8.30,8.88,9.29,11.28,13.33,14.24,13.18,14.52,20.29,27.50,31.97,35.55,38.97,42.00,44.55,47.41,50.55,53.63,56.83,60.83,65.12,69.78,74.63,79.61,85.17,90.22,94.32,97.72,101.59,105.35,108.44,111.04,113.56,116.32,119.14,122.26,125.90,129.90,133.53,136.68,139.45,142.02,144.50,147.53,151.00,154.79,158.85,163.58,168.51,173.29,177.43,181.20,184.13,186.38,188.31,190.65,193.51,196.55,199.34,200.95,200.89,199.23,196.25,192.45,188.44,184.81,181.37,177.78,173.97,171.38,170.26,170.87,173.27,176.58,180.04,183.29,186.12,189.10,192.14,195.80,200.07,203.03,203.59,202.33,199.97,197.73,197.57,198.19,198.80,198.87,198.13,196.43,194.71,193.80,194.83,196.88,198.06,198.66,200.15,203.51,207.47,212.20,217.67,222.00,226.11,229.51,232.15,234.46,236.74,239.00,241.31,243.99,247.87,251.33,254.25,256.41,257.12,257.51,258.06,258.98,260.50,262.51,265.04,267.90,271.07,274.60,278.29,281.61,284.26,286.10,287.65,289.00,290.18,291.22,292.24,293.02,293.75,294.50,295.01,293.68,290.80,286.47,280.34,273.93,268.29,263.54,259.68,256.19
e,e,e,e,e,e,e,e,e,e,e,e,e,e,e,e,e,e,e,e,e,e,e,e,e,e,e,e,e,e,e,e,e,e,e,e,e,e,e,e,e,e,e,e,e,e,e,e,e,e,e,e,e,e,e,e,e,e,e,e,e,e,e,e,e,e,e,e,e,e,e,e,e,e,e,e,e,e,e,e,e,e,e,e,e,e,e,e,e,e,e,e,e,e,e,e,e,e,e,e,e,1.54,3.52,6.53,9.80,12.59,14.88,17.16,19.06,20.46,23.01,24.47,25.46,25.72,24.09,25.07,30.05,36.45,40.96,45.82,49.52,52.16,54.03,56.07,58.54,61.25,64.22,67.75,71.81,76.29,80.98,85.90,91.59,95.73,99.28,103.02,107.51,111.88,115.34,118.21,121.05,123.93,126.89,130.17,133.69,136.69,139.60,142.39,144.91,146.97,149.18,152.31,155.90,159.62,164.14,169.67,174.63,178.82,183.85,189.02,192.59,195.00,197.50,200.51,203.16,205.36,207.09,208.42,208.03,205.72,201.94,197.64,193.19,189.15,185.58,182.42,179.26,176.55,175.21,175.81,178.27,181.11,183.94,186.72,189.55,192.41,195.75,199.91,204.60,207.45,208.01,206.98,204.94,202.92,202.95,203.70,204.38,204.52,204.03,202.58,201.43,201.24,201.95,203.00,203.69,204.25,205.53,208.05,211.67,216.06,220.91,225.19,229.32,232.66,235.24,237.75,240.52,243.25,246.06,249.37,253.71,257.92,261.48,263.93,264.82,265.06,265.31,265.89,267.13,268.61,270.82,273.72,277.32,281.22,284.68,287.57,289.84,291.47,292.88,294.15,295.27,296.18,296.87,297.22,297.50,297.73,297.34,294.75,290.98,286.08,279.31,272.29,265.77,260.31,256.25,252.69
e,e,e,e,e,e,e,e,e,e,e,e,e,e,e,e,e,e,e,e,e,e,e,e,e,e,e,e,e,e,e,e,e,e,e,e,e,e,e,e,e,e,e,e,e,e,e,e,e,e,e,e,e,e,e,e,e,e,e,e,e,e,e,e,e,e,e,e,e,e,e,e,e,e,e,e,e,e,e,e,e,e,e,e,e,e,e,e,e,e,e,e,e,e,e,e,e,e,0.40,0.73,1.59,2.74,5.89,14.76,26.66,34.49,40.27,43.18,43.92,42.97,41.48,38.75,36.92,36.25,35.03,35.66,39.76,45.55,50.35,53.89,56.73,59.30,61.76,64.14,66.56,69.45,72.77,76.25,79.89,83.69,87.94,92.86,97.69,101.53,105.35,109.75,114.92,119.39,122.71,125.46,128.43,131.45,134.52,137.57,140.57,143.37,145.87,148.12,150.15,152.05,154.45,157.76,161.64,165.84,170.29,174.89,179.87,185.26,190.62,195.70,199.92,203.33,206.13,208.60,210.73,212.61,214.21,215.34,214.65,212.51,209.18,204.78,200.13,194.89,189.87,186.03,183.14,180.89,179.84,180.40,182.50,184.92,187.52,190.20,192.86,195.69,199.68,204.39,209.09,212.14,212.83,211.88,209.82,207.41,207.24,208.07,208.98,209.34,209.20,208.60,207.99,207.54,207.25,207.78,208.41,209.31,211.25,213.87,217.23,220.99,224.90,228.68,232.49,235.78,238.60,241.57,244.59,247.66,251.15,255.53,260.30,264.44,268.15,271.17,272.47,273.04,273.23,273.61,274.94,276.71,278.63,280.91,283.87,287.34,290.73,293.50,295.46,296.67,297.83,299.16,300.58,301.90,302.94,302.97,302.39,301.26,299.12,295.56,290.84,285.03,277.86,270.32,263.27,257.44,253.30,249.87
e,e,e,e,e,e,e,e,e,e,e,e,e,e,e,e,e,e,e,e,e,e,e,e,e,e,e,e,e,e,e,e,e,e,e,e,e,e,e,e,e,e,e,e,e,e,e,e,e,e,e,e,e,e,e,e,e,e,e,e,e,e,e,e,e,e,e,e,e,e,e,e,e,e,e,e,e,e,e,e,e,e,e,e,e,e,e,e,e,e,e,e,e,e,e,e,e,e,0.91,1.77,3.75,5.98,14.81,28.63,43.84,54.53,60.11,61.98,61.49,58.99,54.75,50.22,47.21,46.00,45.28,45.56,48.82,53.88,58.58,61.61,64.62,67.86,71.10,73.66,76.03,78.72,81.77,84.97,88.47,92.06,95.90,100.18,104.33,108.40,112.70,117.44,122.53,126.71,129.99,132.82,135.69,138.53,141.43,144.35,147.26,150.08,151.84,153.38,155.19,157.67,161.12,165.00,169.13,173.47,177.87,182.14,186.84,192.02,196.94,201.71,206.21,210.31,213.71,216.24,218.41,220.44,222.08,222.26,220.72,218.19,214.89,210.74,206.41,200.94,195.13,190.18,186.97,185.03,184.37,185.13,187.16,189.59,191.99,194.29,196.70,199.88,204.41,209.28,213.66,217.05,218.11,217.42,215.52,213.25,212.50,212.79,213.35,213.58,213.57,213.45,213.16,212.72,212.45,212.97,213.82,215.31,218.30,221.78,224.95,227.95,230.95,233.87,236.94,239.94,242.91,246.16,249.69,253.31,257.33,262.24,267.55,272.23,276.12,278.87,279.83,280.40,280.58,280.77,281.74,283.31,285.10,287.38,290.50,294.12,297.33,299.81,301.56,302.92,304.31,305.80,307.28,308.54,309.51,309.05,307.33,304.44,300.60,295.89,290.29,283.81,276.37,268.60,261.24,255.11,250.83,247.69
e,e,e,e,e,e,e,e,e,e,e,e,e,e,e,e,e,e,e,e,e,e,e,e,e,e,e,e,e,e,e,e,e,e,e,e,e,e,e,e,e,e,e,e,e,e,e,e,e,e,e,e,e,e,e,e,e,e,e,e,e,e,e,e,e,e,e,e,e,e,e,e,e,e,e,e,e,e,e,e,e,e,e,e,e,e,e,e,e,e,e,e,e,e,e,e,e,e,2.13,3.64,7.43,13.01,28.54,45.48,60.26,70.77,73.85,73.91,72.51,69.50,64.36,59.84,56.73,55.19,54.84,54.90,57.48,61.88,66.44,69.83,73.61,77.61,81.28,83.75,85.98,88.33,90.85,93.62,97.06,100.69,104.31,107.88,111.80,116.30,120.98,125.66,130.15,133.82,137.02,139.95,142.64,145.31,148.10,151.19,154.53,157.50,158.46,159.34,161.10,164.47,169.04,173.57,177.92,182.23,186.54,190.68,194.70,198.69,202.83,207.25,211.77,216.24,220.42,223.65,226.31,228.59,229.93,228.79,226.14,222.87,219.29,215.47,211.70,206.80,200.97,195.04,191.14,189.26,188.94,190.03,192.25,194.97,197.26,199.17,201.34,204.80,209.44,214.13,218.24,222.09,223.65,223.39,221.94,220.24,218.95,218.40,218.17,217.88,217.84,217.88,217.82,217.74,218.17,219.06,220.35,222.56,226.64,230.82,233.66,235.88,238.06,240.10,242.52,245.31,248.43,251.90,255.89,260.21,264.83,269.93,275.65,280.83,284.75,286.92,287.36,287.71,287.78,287.76,288.11,289.18,290.89,293.45,297.08,301.11,304.10,306.32,308.11,309.90,311.68,313.32,314.67,315.53,315.96,314.60,311.52,306.86,301.60,295.77,289.41,282.49,274.90,267.16,259.54,253.09,248.77,245.95
e,e,e,e,e,e,e,e,e,e,e,e,e,e,e,e,e,e,e,e,e,e,e,e,e,e,e,e,e,e,e,e,e,e,e,e,e,e,e,e,e,e,e,e,e,e,e,e,e,e,e,e,e,e,e,e,e,e,e,e,e,e,e,e,e,e,e,e,e,e,e,e,e,e,e,e,e,e,e,e,e,e,e,e,e,e,e,e,e,e,e,e,e,e,e,e,e,2.20,3.87,6.23,12.10,29.41,45.82,62.03,75.78,80.74,81.52,80.64,79.07,76.77,73.23,69.17,65.81,63.84,63.51,63.72,66.13,70.40,75.59,80.16,84.27,87.82,90.58,92.52,94.49,96.83,99.42,101.92,104.78,108.32,112.28,116.47,121.00,125.68,130.06,134.02,137.71,140.80,143.44,145.94,148.68,151.97,155.43,159.54,164.20,167.45,168.21,168.84,170.62,174.42,178.63,183.18,187.82,192.28,196.25,199.20,201.81,204.63,208.24,212.27,216.62,221.25,226.18,230.72,234.25,236.19,235.91,233.67,230.23,226.48,222.67,218.81,215.31,211.50,206.77,200.99,196.34,194.12,193.78,195.14,197.75,200.86,203.48,205.64,207.77,210.35,213.85,218.00,222.59,227.17,229.15,229.57,229.14,228.36,227.44,226.31,224.95,223.53,223.30,223.34,223.68,224.43,225.60,227.25,229.25,232.20,236.89,239.73,241.56,243.09,244.65,246.44,249.39,252.78,256.37,260.26,263.95,268.99,274.75,280.27,285.69,289.63,292.79,295.21,296.19,296.20,295.90,295.56,295.44,296.22,297.67,299.98,303.37,307.26,310.25,312.83,315.19,317.13,318.80,320.37,321.60,321.97,321.17,317.86,313.09,307.41,301.28,295.00,288.27,281.05,273.46,266.14,258.00,251.13,247.25,244.50
e,e,e,e,e,e,e,e,e,e,e,e,e,e,e,e,e,e,e,e,e,e,e,e,e,e,e,e,e,e,e,e,e,e,e,e,e,e,e,e,e,e,e,e,e,e,e,e,e,e,e,e,e,e,e,e,e,e,e,e,e,e,e,e,e,e,e,e,e,e,e,e,e,e,e,e,e,e,e,e,e,e,e,e,e,e,e,e,e,e,e,e,e,e,e,e,e,3.04,5.45,13.14,27.80,46.76,61.90,74.27,83.42,86.70,87.46,87.01,86.06,84.69,82.59,79.69,76.98,75.04,74.30,74.48,76.41,79.94,84.63,88.91,92.46,95.66,98.57,100.70,102.77,105.24,108.13,111.25,114.42,118.14,122.12,126.07,130.13,134.27,138.11,141.47,144.37,147.33,150.12,153.00,156.57,161.07,165.33,169.74,174.12,176.59,177.38,178.35,180.38,184.03,187.81,192.19,196.67,200.68,204.09,206.38,208.75,211.57,214.34,217.61,221.70,226.48,231.64,236.28,239.54,240.88,239.94,237.69,234.06,229.95,225.82,221.90,218.21,214.74,210.98,206.50,202.11,199.40,198.66,200.04,203.04,206.38,209.23,211.50,213.27,215.13,218.37,222.78,227.88,232.22,234.28,235.05,235.10,234.83,234.26,233.28,232.03,230.80,230.42,230.06,230.15,230.92,232.13,234.16,236.44,239.22,243.00,245.46,248.15,250.87,253.23,255.27,258.57,261.96,265.33,269.58,273.50,278.39,283.68,288.39,292.78,296.03,298.86,301.49,303.45,304.40,304.43,303.93,303.54,303.83,304.69,306.55,309.75,313.39,316.15,318.66,321.10,323.25,325.32,326.95,327.81,327.28,324.89,319.68,313.38,306.80,300.06,293.54,286.77,279.57,271.97,264.66,256.48,249.72,246.18,243.33
e,e,e,e,e,e,e,e,e,e,e,e,e,e,e,e,e,e,e,e,e,e,e,e,e,e,e,e,e,e,e,e,e,e,e,e,e,e,e,e,e,e,e,e,e,e,e,e,e,e,e,e,e,e,e,e,e,e,e,e,e,e,e,e,e,e,e,e,e,e,e,e,e,e,e,e,e,e,e,e,e,e,e,e,e,e,e,e,e,e,e,e,e,e,e,e,e,4.66,10.11,24.63,46.82,62.19,74.63,82.63,87.21,90.77,92.49,93.06,93.02,92.56,91.67,90.24,88.69,87.26,86.27,86.37,87.62,90.01,93.66,97.35,100.42,103.53,106.82,109.37,111.74,114.39,117.51,121.23,124.81,128.62,132.38,135.81,139.06,142.43,145.77,148.85,151.39,154.55,157.79,161.39,166.08,171.59,176.46,180.79,184.32,185.87,186.79,188.13,190.25,193.28,196.68,200.76,204.85,208.22,211.11,213.16,215.67,218.69,220.66,223.30,227.20,231.99,236.92,240.97,243.42,244.13,243.02,241.11,237.66,233.43,229.00,224.97,220.97,217.46,214.33,211.28,207.68,204.75,203.62,204.85,208.05,211.50,214.58,217.03,218.64,220.29,223.71,228.45,233.65,237.28,239.27,240.20,240.47,240.43,240.10,239.46,238.72,238.12,237.67,236.91,236.63,237.16,238.13,240.20,242.42,244.76,247.66,250.55,254.51,258.62,261.98,264.42,267.81,270.96,274.03,278.50,282.77,287.20,291.45,294.99,298.20,301.03,303.73,306.49,309.53,311.80,312.43,311.91,311.35,311.20,311.63,313.13,316.03,319.22,321.69,323.97,326.35,328.94,331.56,333.14,333.35,331.60,327.50,320.69,313.14,305.76,298.57,291.90,285.20,278.13,270.50,263.01,255.11,248.75,245.35,242.28
e,e,e,e,e,e,e,e,e,e,e,e,e,e,e,e,e,e,e,e,e,e,e,e,e,e,e,e,e,e,e,e,e,e,e,e,e,e,e,e,e,e,e,e,e,e,e,e,e,e,e,e,e,e,e,e,e,e,e,e,e,e,e,e,e,e,e,e,e,e,e,e,e,e,e,e,e,e,e,e,e,e,e,e,e,e,e,e,e,e,e,e,e,e,1.10,1.99,4.80,7.13,24.11,44.58,60.62,71.05,78.69,84.81,89.93,94.01,96.57,98.13,98.95,99.05,99.12,99.14,99.08,98.95,98.83,99.01,99.37,100.38,102.99,107.30,111.39,114.88,117.73,120.36,123.08,125.90,128.80,131.78,134.77,137.94,141.23,144.55,147.68,150.54,153.69,157.26,160.90,164.48,168.15,172.41,177.91,183.11,187.84,191.99,195.22,197.01,198.08,199.13,200.40,202.16,205.29,208.98,212.54,215.53,218.29,220.58,222.73,224.80,226.64,229.63,233.64,237.99,241.86,245.05,246.70,246.92,245.72,243.66,240.85,237.03,232.51,228.16,224.15,220.49,217.23,214.47,211.92,209.77,208.83,209.69,212.50,215.92,219.41,222.60,225.11,227.76,231.39,235.56,239.60,242.43,244.29,245.36,245.78,245.69,245.36,244.73,243.99,243.37,243.05,242.43,242.32,243.00,243.85,245.48,247.22,249.60,253.89,258.17,261.96,265.34,268.38,271.05,273.99,277.13,280.64,285.03,289.20,293.36,297.18,300.14,302.64,305.04,307.51,310.37,314.19,317.15,318.21,317.87,317.25,317.09,318.04,319.72,321.86,324.10,326.35,328.60,331.20,334.87,337.68,338.69,337.73,334.31,328.57,320.97,312.81,304.81,297.43,290.61,283.89,276.89,269.19,261.56,254.24,248.36,244.70,241.27
e,e,e,e,e,e,e,e,e,e,e,e,e,e,e,e,e,e,e,e,e,e,e,e,e,e,e,e,e,e,e,e,e,e,e,e,e,e,e,e,e,e,e,e,e,e,e,e,e,e,e,e,e,e,e,e,e,e,e,e,e,e,e,e,e,e,e,e,e,e,e,e,e,e,e,e,e,e,e,e,e,e,e,e,e,e,e,e,e,e,e,e,e,0.60,0.92,2.27,6.98,16.94,37.23,56.41,68.04,74.97,80.81,86.54,92.17,97.14,101.02,103.91,105.91,107.04,108.29,109.37,110.01,110.26,110.55,110.67,110.56,110.73,112.35,116.77,121.34,124.95,127.43,129.98,132.64,135.45,138.35,141.26,144.26,147.48,150.81,154.00,156.57,159.41,162.89,167.12,171.84,175.92,179.94,184.27,189.10,193.62,197.78,201.31,203.84,205.29,206.19,207.21,208.47,209.96,212.80,215.84,218.66,221.17,223.75,226.16,228.32,230.28,232.42,235.56,239.18,242.87,246.30,249.28,250.54,250.30,248.64,246.12,243.31,239.71,235.41,231.08,227.37,223.63,220.21,217.65,215.37,213.75,213.15,214.02,216.84,220.52,224.27,227.82,231.06,234.45,238.09,241.79,245.26,247.87,249.84,251.07,251.56,251.50,251.10,250.32,249.32,248.38,247.99,247.80,248.12,249.02,250.14,251.92,253.98,256.67,260.82,264.94,269.12,272.52,274.67,276.69,279.13,281.99,285.50,290.29,294.87,298.71,301.90,304.57,306.86,309.16,311.54,314.35,318.34,321.57,323.12,323.31,322.99,323.05,323.81,325.10,326.78,328.63,330.78,333.20,336.00,339.33,341.31,341.64,340.14,336.08,329.28,321.17,312.79,304.59,296.97,289.91,283.03,275.96,268.24,260.51,253.55,247.97,244.09,240.36
e,e,e,e,e,e,e,e,e,e,e,e,e,e,e,e,e,e,e,e,e,e,e,e,e,e,e,e,e,e,e,e,e,e,e,e,e,e,e,e,e,e,e,e,e,e,e,e,e,e,e,e,e,e,e,e,e,e,e,e,e,e,e,e,e,e,e,e,e,e,e,e,e,e,e,e,e,e,e,e,e,e,e,e,e,e,e,e,e,e,e,e,e,1.15,1.75,4.11,11.77,29.45,48.85,63.94,72.24,76.91,82.25,88.19,94.33,100.17,105.28,109.36,112.61,115.23,118.01,120.04,121.30,121.97,122.59,122.52,121.99,121.55,122.30,126.20,130.66,134.25,136.63,139.16,141.61,144.29,147.22,150.30,153.63,157.19,160.73,163.78,165.69,168.42,172.11,176.75,182.16,186.74,191.15,195.45,199.38,203.25,206.86,209.85,211.88,213.03,213.76,214.72,215.96,217.34,219.69,221.97,224.05,226.10,228.51,230.97,233.24,235.32,237.64,240.76,243.97,247.22,250.68,253.57,254.66,254.12,252.00,248.86,245.61,241.97,237.93,233.81,230.35,226.62,223.18,220.77,218.58,217.43,217.27,218.40,221.38,225.27,229.13,232.86,236.70,240.59,244.25,247.74,251.02,253.72,255.94,257.39,258.09,258.22,257.88,256.92,255.63,254.40,253.80,253.94,254.55,255.53,256.88,258.84,261.30,264.44,268.52,272.09,276.24,279.48,280.80,282.04,283.92,286.35,289.71,294.87,299.66,303.25,306.09,308.73,311.14,313.47,315.79,318.50,322.44,325.69,327.57,328.30,328.40,328.65,329.14,330.00,331.38,333.03,335.11,337.60,340.38,342.98,344.11,343.71,341.73,337.42,329.90,321.51,313.04,304.76,296.89,289.54,282.42,275.21,267.49,259.71,252.98,247.57,243.48,239.47
e,e,e,e,e,e,e,e,e,e,e,e,e,e,e,e,e,e,e,e,e,e,e,e,e,e,e,e,e,e,e,e,e,e,e,e,e,e,e,e,e,e,e,e,e,e,e,e,e,e,e,e,e,e,e,e,e,e,e,e,e,e,e,e,e,e,e,e,e,e,e,e,e,e,e,e,e,e,e,e,e,e,e,e,e,e,e,e,e,e,e,e,0.62,2.69,4.85,9.50,21.38,42.08,57.39,67.49,73.57,77.89,83.52,89.97,96.69,103.06,108.70,113.31,117.70,122.54,127.49,130.50,132.79,134.75,135.91,135.50,134.40,133.44,133.65,135.95,139.34,142.72,145.62,148.39,150.58,152.99,155.83,159.09,163.08,167.18,170.94,173.78,175.13,177.23,180.45,184.78,189.80,194.82,199.75,204.25,207.93,211.57,215.00,217.99,220.28,221.71,222.53,223.11,223.67,224.55,225.99,227.50,229.03,230.74,233.05,235.41,237.66,239.71,241.61,244.44,247.63,251.21,255.30,257.81,258.87,258.44,256.18,252.37,248.09,243.97,240.09,236.30,232.70,229.18,226.05,223.72,221.78,221.17,221.62,223.26,226.47,230.19,233.93,237.75,241.97,246.05,249.90,253.65,257.28,260.39,262.91,264.80,266.09,266.75,266.81,265.77,264.30,263.13,262.11,262.08,262.48,263.12,264.19,265.98,268.44,272.05,277.37,280.70,283.40,285.43,286.56,287.44,288.57,290.47,293.63,298.68,302.79,306.38,309.70,312.83,315.70,318.12,320.39,323.01,326.85,329.75,331.54,332.52,333.07,333.31,333.87,334.73,335.88,337.43,339.36,341.52,343.77,345.85,346.88,345.72,342.88,338.43,330.60,322.20,313.75,305.36,297.23,289.49,282.04,274.65,266.97,259.17,252.59,247.19,242.81,238.59
e,e,e,e,e,e,e,e,e,e,e,e,e,e,e,e,e,e,e,e,e,e,e,e,e,e,e,e,e,e,e,e,e,e,e,e,e,e,e,e,e,e,e,e,e,e,e,e,e,e,e,e,e,e,e,e,e,e,e,e,e,e,e,e,e,e,e,e,e,e,e,e,e,e,e,e,e,e,e,e,e,e,e,e,e,e,e,e,e,1.50,2.41,3.68,2.74,4.77,7.09,13.89,31.02,48.01,60.11,68.71,74.70,79.28,85.29,91.90,98.64,105.24,110.86,115.68,120.80,126.89,132.38,136.47,139.78,142.66,145.19,145.56,144.75,143.91,144.29,146.16,148.87,151.64,154.21,156.89,159.09,161.45,164.31,168.09,173.27,177.86,181.41,183.75,185.22,187.31,190.37,194.19,197.88,202.52,207.46,212.01,215.64,219.72,223.13,225.98,228.20,229.42,229.94,230.34,230.94,232.10,233.53,234.56,235.33,236.23,238.03,239.46,240.92,242.64,244.53,247.25,251.05,255.30,258.85,260.48,261.03,260.75,259.40,256.61,251.64,246.79,242.62,238.62,235.06,231.73,228.73,226.41,224.89,224.77,225.76,227.86,231.10,234.65,238.44,242.53,246.95,251.17,255.31,259.55,263.76,267.20,270.08,272.61,274.61,275.49,275.71,274.94,273.63,272.21,270.82,270.15,270.03,270.37,271.07,272.76,275.34,278.82,283.20,286.44,288.69,290.26,291.22,291.88,292.16,293.61,296.68,300.95,304.83,308.75,312.77,316.69,319.87,322.55,325.11,327.83,331.04,333.62,335.41,336.57,337.35,337.82,338.39,339.24,340.49,342.10,344.02,346.02,347.91,349.35,349.53,347.71,344.17,338.82,331.06,322.91,314.73,306.54,298.37,290.41,282.60,274.89,267.14,259.06,252.36,246.96,242.54,238.25
e,e,e,e,e,e,e,e,e,e,e,e,e,e,e,e,e,e,e,e,e,e,e,e,e,e,e,e,e,e,e,e,e,e,e,e,e,e,e,e,e,e,e,e,e,e,e,e,e,e,e,e,e,e,e,e,e,e,e,e,e,e,e,e,e,e,e,e,e,e,e,e,e,e,e,e,e,e,e,e,e,e,e,e,e,e,e,e,e,2.64,3.45,4.96,5.90,9.40,13.41,21.87,39.32,51.00,60.59,68.87,75.62,80.85,87.05,93.60,100.21,106.70,112.10,116.95,122.32,128.73,134.07,138.92,143.15,146.95,150.96,152.86,153.07,152.91,153.90,156.08,158.65,161.13,163.42,165.83,167.94,170.06,172.84,177.44,183.25,187.95,191.19,193.09,194.87,197.00,199.72,202.82,205.54,209.69,214.51,219.17,222.99,227.06,230.51,233.17,234.88,235.65,235.88,236.19,236.90,238.34,239.75,240.25,240.37,240.89,242.41,243.05,243.78,245.11,246.93,249.35,253.56,258.29,261.10,262.02,262.14,261.97,261.45,259.90,255.13,249.99,245.42,241.25,237.74,234.57,231.69,229.36,228.26,228.50,229.83,232.22,235.38,238.76,242.71,247.15,251.80,256.22,260.76,265.41,269.92,273.56,276.56,279.29,281.55,282.56,282.97,282.58,281.67,280.43,278.93,277.82,277.28,277.34,277.84,279.47,281.99,284.99,288.09,291.04,293.17,294.62,295.44,295.77,295.32,296.27,299.02,302.51,306.25,310.49,315.09,319.67,323.20,326.29,329.26,332.17,334.91,337.19,338.99,340.34,341.25,341.93,342.60,343.59,345.08,346.70,348.59,350.49,352.12,352.97,351.97,349.44,345.31,339.02,331.46,323.57,315.70,307.83,299.69,291.58,283.47,275.42,267.52,259.17,252.27,246.83,242.52,238.27
e,e,e,e,e,e,e,e,e,e,e,e,e,e,e,e,e,e,e,e,e,e,e,e,e,e,e,e,e,e,e,e,e,e,e,e,e,e,e,e,e,e,e,e,e,e,e,e,e,e,e,e,e,e,e,e,e,e,e,e,e,e,e,e,e,e,e,e,e,e,e,e,e,e,e,e,e,e,e,e,e,e,e,e,e,e,e,2.97,4.05,5.58,7.26,9.13,11.61,18.80,27.37,36.13,44.71,51.90,59.94,68.31,76.18,82.45,88.42,94.75,101.25,107.13,112.31,116.99,121.95,127.52,132.34,137.25,142.16,147.09,152.18,156.36,158.53,159.79,161.92,165.19,168.38,171.27,173.79,175.71,177.36,178.89,181.40,187.01,192.15,196.25,199.18,200.97,203.11,205.08,207.06,209.31,212.16,215.99,220.64,225.52,229.78,232.75,236.19,238.66,239.27,239.49,239.65,239.90,240.48,241.73,242.54,242.27,242.09,243.18,245.06,245.69,246.21,247.24,248.73,250.49,254.45,259.11,261.45,262.27,262.38,262.22,261.83,261.01,257.87,253.38,248.54,244.53,240.95,237.98,235.32,233.01,232.26,232.58,233.92,236.28,239.29,242.50,246.66,251.54,256.55,261.33,266.34,271.15,275.32,278.93,281.60,283.69,285.35,286.53,287.27,287.28,287.01,286.74,285.61,284.66,284.05,283.92,284.52,286.11,288.14,290.38,292.74,295.08,297.15,298.69,299.38,299.15,298.30,298.58,300.46,303.53,307.01,311.32,316.17,321.03,325.07,328.71,332.13,335.32,338.21,340.24,342.05,343.66,344.64,345.38,346.32,347.68,349.44,350.94,352.75,354.53,355.98,356.36,354.06,350.72,346.08,339.23,331.95,324.19,316.53,309.05,301.00,292.81,284.49,276.15,267.94,259.50,252.42,246.90,242.83,238.76
e,e,e,e,e,e,e,e,e,e,e,e,e,e,e,e,e,e,e,e,e,e,e,e,e,e,e,e,e,e,e,e,e,e,e,e,e,e,e,e,e,e,e,e,e,e,e,e,e,e,e,e,e,e,e,e,e,e,e,e,e,e,e,e,e,e,e,e,e,e,e,e,e,e,e,e,e,e,e,e,e,e,e,e,1.50,1.92,3.38,5.14,7.38,13.92,20.55,25.48,29.09,34.02,38.83,42.75,45.64,50.51,58.86,67.97,76.09,82.86,89.00,95.20,101.41,106.96,111.87,116.39,120.96,125.80,130.37,135.17,140.14,145.35,151.12,156.82,161.44,165.22,168.90,173.56,177.06,179.76,181.85,183.03,184.19,185.87,188.71,193.63,197.67,200.68,203.14,205.46,207.95,210.30,212.84,215.59,218.19,220.98,224.87,229.21,232.72,235.55,238.30,240.10,240.47,240.71,240.91,241.22,241.57,241.69,241.35,240.42,239.90,240.92,243.22,244.70,245.62,246.56,248.47,250.53,254.41,258.84,261.28,262.14,262.26,262.13,261.88,261.39,259.36,255.85,251.51,247.61,244.39,241.75,239.52,237.82,237.17,237.37,238.42,240.40,243.15,246.19,250.59,255.89,261.10,266.07,271.12,275.80,279.68,282.97,285.52,287.55,289.20,290.59,291.64,291.98,291.89,291.57,290.73,290.08,289.68,289.60,290.06,291.22,292.72,294.45,296.54,299.21,301.30,302.61,302.97,302.26,301.31,300.81,301.39,303.99,307.15,310.98,315.58,320.88,325.13,329.06,333.02,336.95,340.23,342.48,344.56,346.53,347.84,348.67,349.60,350.75,352.22,354.13,356.23,357.93,358.94,358.78,355.94,351.97,346.71,339.52,332.89,325.16,317.48,310.31,302.76,294.71,286.30,277.63,268.83,260.37,253.53,248.20,244.08,239.88
e,e,e,e,e,e,e,e,e,e,e,e,e,e,e,e,e,e,e,e,e,e,e,e,e,e,e,e,e,e,e,e,e,e,e,e,e,e,e,e,e,e,e,e,e,e,e,e,e,e,e,e,e,e,e,e,e,e,e,e,e,e,e,e,e,e,e,e,e,e,e,e,e,e,e,e,e,e,e,e,e,e,e,e,2.82,3.62,6.59,12.62,18.27,27.94,36.73,42.48,45.45,46.99,47.52,47.24,46.77,49.68,58.05,67.42,75.33,82.37,88.90,95.14,101.04,106.29,110.97,115.32,119.57,123.89,128.45,133.25,138.21,143.53,149.75,156.16,162.40,168.13,173.17,178.75,182.83,185.79,187.76,188.60,189.40,191.25,194.32,198.24,201.20,203.49,205.75,208.41,211.11,213.70,216.52,219.46,221.84,223.95,227.07,230.64,233.52,236.34,238.72,240.19,240.61,240.93,241.19,241.49,241.58,240.86,239.61,238.13,237.31,238.16,240.52,242.45,243.67,244.68,246.98,249.65,253.44,257.50,260.15,261.39,261.74,261.73,261.58,261.27,259.95,257.30,253.73,250.30,247.81,245.89,244.42,243.50,243.03,243.06,243.62,244.93,247.39,250.53,255.04,260.38,265.57,270.69,275.57,279.93,283.52,286.52,288.97,291.08,292.94,294.63,296.01,296.67,296.57,295.77,294.97,294.46,294.22,294.26,294.62,295.47,296.92,298.86,301.22,304.00,305.71,306.44,306.27,305.25,304.21,303.13,302.61,304.14,306.87,310.08,314.21,319.72,324.10,328.20,332.56,337.11,340.92,343.61,346.17,348.60,350.25,351.37,352.33,353.37,354.74,356.89,358.91,360.35,360.98,360.37,357.40,352.99,347.24,340.09,333.98,326.42,318.75,311.68,304.59,296.78,288.45,279.61,270.27,262.12,255.75,250.58,246.12,241.59
e,e,e,e,e,e,e,e,e,e,e,e,e,e,e,e,e,e,e,e,e,e,e,e,e,e,e,e,e,e,e,e,e,e,e,e,e,e,e,e,e,e,e,e,e,e,e,e,e,e,e,e,e,e,e,e,e,e,e,e,e,e,e,e,e,e,e,e,e,e,e,e,e,e,e,e,e,e,e,e,e,2.12,2.30,3.25,5.69,8.74,15.34,27.30,38.13,46.95,52.87,55.65,55.89,54.75,53.20,51.45,49.85,50.75,57.99,66.63,73.98,81.09,88.10,94.50,100.18,105.11,109.63,113.82,117.88,122.03,126.83,131.79,136.88,142.34,148.75,155.08,161.61,168.02,173.84,179.53,184.55,188.51,191.04,192.22,192.99,194.83,197.74,200.82,202.94,205.16,207.60,210.15,212.77,215.23,217.57,219.84,222.12,224.27,226.84,229.70,232.49,235.22,237.84,239.63,240.25,240.63,240.94,241.09,240.91,239.97,238.34,236.49,235.43,236.12,238.03,239.64,240.86,242.14,244.59,247.88,251.49,254.96,257.70,259.65,260.57,260.88,260.83,260.67,259.65,257.63,254.96,252.52,251.08,250.35,249.99,249.82,249.71,249.65,249.66,250.15,252.30,255.80,260.20,265.05,270.02,275.23,279.76,283.65,286.96,289.80,292.07,294.23,296.42,298.55,300.34,301.34,301.24,299.89,298.85,298.25,298.02,298.14,298.57,299.44,301.43,304.25,307.19,309.41,310.24,310.10,309.30,308.16,306.88,305.54,304.39,304.18,306.27,308.86,312.39,317.69,322.07,326.24,330.69,335.49,339.96,343.28,346.46,349.40,351.37,352.98,354.21,355.50,357.20,359.22,360.60,361.60,362.05,361.11,358.36,353.69,347.71,341.08,335.17,327.99,320.48,313.27,306.48,298.95,290.91,282.17,272.52,265.04,259.20,254.00,248.92,243.96
e,e,e,e,e,e,e,e,e,e,e,e,e,e,e,e,e,e,e,e,e,e,e,e,e,e,e,e,e,e,e,e,e,e,e,e,e,e,e,e,e,e,e,e,e,e,e,e,e,e,e,e,e,e,e,e,e,e,e,e,e,e,e,e,e,e,e,e,e,e,e,e,e,e,e,e,e,e,e,e,2.20,3.25,4.38,6.32,11.24,21.70,34.07,45.21,54.90,60.11,62.73,63.58,62.67,60.91,58.77,56.45,54.37,54.48,59.78,66.67,73.31,80.39,86.93,93.03,98.64,103.45,108.01,112.36,116.62,121.01,126.14,131.25,136.44,141.91,147.93,154.81,161.54,167.65,172.87,178.21,183.42,187.94,191.21,192.93,194.52,196.66,199.23,201.63,203.51,205.57,207.83,210.08,212.16,214.36,216.46,218.41,220.33,222.24,224.71,227.57,230.44,233.16,235.81,237.98,239.37,240.16,240.48,240.50,239.99,238.35,236.53,234.59,233.19,233.17,234.85,236.48,238.07,239.98,242.90,246.16,249.09,251.66,254.02,256.18,257.99,259.17,259.59,259.72,258.94,257.67,256.19,254.80,253.92,254.09,254.61,254.75,254.96,255.28,255.65,256.38,258.38,261.36,265.13,269.58,274.66,279.53,283.62,287.12,290.09,292.49,294.63,296.80,299.17,301.95,304.42,306.06,306.59,305.84,305.20,304.65,304.32,304.38,305.11,306.32,308.10,310.04,311.55,312.82,313.29,313.04,312.10,310.77,309.21,307.66,306.23,305.20,306.16,308.10,311.09,315.45,319.34,323.28,327.48,332.12,337.22,341.44,345.03,348.12,350.54,352.37,354.08,355.99,358.15,360.00,361.47,362.64,363.07,361.64,359.24,354.42,348.37,342.64,336.94,330.11,322.73,315.45,309.11,301.92,294.12,285.64,276.37,268.77,262.84,257.29,251.49,246.67
e,e,e,e,e,e,e,e,e,e,e,e,e,e,e,e,e,e,e,e,e,e,e,e,e,e,e,e,e,e,e,e,e,e,e,e,e,e,e,e,e,e,e,e,e,e,e,e,e,e,e,e,e,e,e,e,e,e,e,e,e,e,e,e,e,e,e,e,e,e,e,e,e,e,e,e,e,e,e,2.28,2.89,4.29,7.16,11.90,21.78,36.56,50.67,59.84,66.56,69.12,70.03,70.07,68.62,66.25,63.66,61.03,58.72,58.45,61.92,67.12,73.15,80.22,86.08,91.68,97.16,102.09,106.86,111.78,116.56,121.06,126.12,131.17,136.31,141.65,147.37,154.79,161.46,166.94,171.52,176.40,181.28,185.99,190.01,192.25,194.40,196.52,198.72,201.17,202.94,204.86,206.95,208.97,210.71,212.57,214.38,216.08,217.85,219.75,222.23,225.12,228.08,230.89,233.54,235.88,237.69,238.88,239.20,239.00,238.18,236.17,234.29,232.41,230.83,230.27,231.83,233.72,235.82,238.30,241.35,244.26,246.52,248.36,250.29,252.40,254.64,256.42,257.37,257.99,257.96,257.72,257.42,257.11,256.97,257.80,258.98,259.76,260.36,261.10,261.92,262.94,264.61,267.01,270.22,274.28,279.21,283.56,287.15,290.24,292.90,295.03,297.14,299.45,302.09,305.16,307.94,309.70,310.47,310.37,310.11,310.09,310.14,310.33,311.14,312.30,313.61,314.71,315.15,315.76,316.05,315.84,314.96,313.49,311.63,309.80,308.15,306.78,306.56,307.71,310.06,313.49,316.89,320.26,323.94,328.23,333.44,338.53,342.70,346.03,348.79,351.06,353.25,355.59,358.09,360.28,362.11,363.52,363.98,362.25,360.11,355.50,349.71,344.56,339.28,332.75,325.38,317.89,311.75,304.99,297.53,289.46,280.90,273.35,267.07,260.94,254.49,249.50
e,e,e,e,e,e,e,e,e,e,e,e,e,e,e,e,e,e,e,e,e,e,e,e,e,e,e,e,e,e,e,e,e,e,e,e,e,e,e,e,e,e,e,e,e,e,e,e,e,e,e,e,e,e,e,e,e,e,e,e,e,e,e,e,e,e,e,e,e,e,e,e,e,e,e,e,e,e,e,2.40,3.79,6.04,10.25,19.57,35.78,50.25,61.50,69.07,72.82,74.65,75.80,76.16,74.50,71.33,67.97,64.88,62.52,62.06,64.14,68.04,73.60,80.59,85.81,90.92,96.32,101.56,106.62,112.23,117.59,122.04,126.61,131.40,136.31,141.38,146.95,154.61,160.96,165.82,170.06,174.45,178.63,183.11,187.65,190.34,192.57,194.36,196.28,199.43,201.26,203.18,205.23,207.12,208.78,210.26,211.69,213.22,215.11,217.26,219.75,222.54,225.57,228.52,231.23,233.54,235.33,236.73,236.96,236.50,235.44,233.54,231.70,229.95,228.42,227.66,229.22,231.51,234.12,236.93,239.68,242.10,243.82,245.21,246.87,248.81,250.95,252.89,254.38,255.69,256.90,257.92,258.74,259.46,260.37,261.66,263.30,265.07,266.11,267.19,268.34,269.48,270.72,272.74,275.63,279.32,283.68,287.38,290.40,293.06,295.47,297.59,299.73,302.27,305.20,308.16,310.79,312.13,312.65,312.93,312.88,313.76,314.70,315.35,316.05,316.73,317.50,318.16,318.38,318.75,318.93,318.73,317.94,316.32,314.09,311.94,310.13,308.74,307.52,307.75,309.32,311.95,314.95,317.58,320.53,324.29,328.99,334.73,339.68,343.50,346.50,349.48,352.09,354.63,357.39,360.33,362.59,364.25,364.81,363.09,361.16,357.13,351.90,346.89,342.11,335.86,328.47,320.67,314.35,308.09,301.13,293.55,285.84,278.69,272.02,265.27,258.35,252.77
e,e,e,e,e,e,e,e,e,e,e,e,e,e,e,e,e,e,e,e,e,e,e,e,e,e,e,e,e,e,e,e,e,e,e,e,e,e,e,e,e,e,e,e,e,e,e,e,e,e,e,e,e,e,e,e,e,e,e,e,e,e,e,e,e,e,e,e,e,e,e,e,e,e,e,e,e,0.60,1.12,3.10,5.39,7.69,12.89,27.15,43.55,55.43,64.17,71.13,75.20,78.43,81.00,82.29,80.79,77.82,72.85,67.94,65.91,65.36,66.85,70.11,75.15,81.43,86.27,91.76,97.94,103.45,108.43,113.19,117.99,122.85,127.20,131.73,136.27,140.88,146.11,153.08,159.14,164.02,168.16,172.16,175.79,179.49,183.28,186.33,188.59,190.48,192.59,195.81,198.75,201.21,203.34,205.15,206.39,207.60,208.93,210.53,212.69,214.96,217.34,219.87,222.69,225.74,228.75,231.31,233.08,234.06,233.99,233.44,232.46,230.81,229.07,227.49,226.04,225.21,227.17,229.73,232.35,234.93,237.37,239.44,240.90,242.19,244.05,246.20,248.21,250.13,252.09,254.29,256.49,258.55,260.38,261.98,263.92,265.72,267.66,269.93,271.35,272.66,273.95,275.24,276.64,278.64,281.57,285.03,288.39,291.24,293.69,295.96,298.19,300.29,302.44,304.84,307.53,310.35,312.95,314.20,314.67,315.05,315.12,316.27,317.89,319.48,320.52,321.14,321.54,321.83,322.09,322.32,322.40,322.08,321.00,318.91,315.95,313.57,311.98,310.53,309.11,308.52,309.10,311.09,313.52,315.82,318.15,320.92,325.00,330.46,335.99,340.81,344.28,347.78,350.85,353.90,357.19,360.28,362.63,364.68,365.89,364.59,363.18,359.81,355.06,349.95,344.98,339.20,332.29,324.48,317.44,311.78,305.35,298.02,290.83,284.29,277.71,270.97,264.25,258.22
e,e,e,e,e,e,e,e,e,e,e,e,e,e,e,e,e,e,e,e,e,e,e,e,e,e,e,e,e,e,e,e,e,e,e,e,e,e,e,e,e,e,e,e,e,e,e,e,e,e,e,e,e,e,e,e,e,e,e,e,e,e,e,e,e,e,e,e,e,e,e,e,e,e,e,e,e,0.60,1.13,3.28,5.88,8.97,15.75,32.40,46.61,56.54,64.33,71.31,76.32,81.06,85.03,87.29,86.33,84.00,78.98,73.44,70.54,69.28,70.21,72.92,77.31,82.81,87.52,93.33,99.91,105.34,110.16,114.33,118.54,123.16,127.16,131.28,135.55,140.04,145.06,151.07,156.61,161.25,165.01,168.92,172.38,175.61,178.71,181.51,183.71,186.03,188.85,192.41,195.89,198.84,201.23,202.96,203.88,204.89,206.23,208.11,210.77,213.16,215.46,217.77,220.18,222.89,225.94,228.70,230.61,231.39,231.18,230.58,229.66,228.10,226.43,224.74,223.28,222.76,224.94,227.62,230.19,232.50,234.56,236.43,237.99,239.61,241.85,244.38,246.59,248.80,251.43,254.70,257.60,260.16,262.40,264.31,266.68,269.21,271.81,274.32,276.12,277.59,278.94,280.38,282.28,284.46,287.05,289.84,292.52,294.91,296.97,298.90,300.82,302.84,305.02,307.45,310.05,312.58,314.96,316.21,316.73,317.06,317.30,318.67,320.84,323.26,324.78,325.55,325.86,325.97,326.09,326.18,326.07,325.42,323.76,321.04,317.73,315.27,313.81,312.34,310.82,309.88,309.79,310.87,312.79,314.76,316.63,318.65,321.80,326.85,332.55,337.94,342.07,345.87,349.62,353.37,357.00,360.22,362.62,364.85,366.62,366.63,365.82,363.13,358.84,353.52,348.70,343.09,336.36,328.63,321.13,315.33,309.17,302.31,295.45,289.50,283.12,276.62,270.53,265.11
e,e,e,e,e,e,e,e,e,e,e,e,e,e,e,e,e,e,e,e,e,e,e,e,e,e,e,e,e,e,e,e,e,e,e,e,e,e,e,e,e,e,e,e,e,e,e,e,e,e,e,e,e,e,e,e,e,e,e,e,e,e,e,e,e,e,e,e,e,e,e,e,e,e,e,e,e,e,e,3.19,5.63,10.01,18.66,35.44,46.48,55.22,63.13,70.39,76.43,82.39,87.45,90.66,90.72,89.31,85.63,80.75,76.33,73.92,74.11,76.20,79.94,84.75,89.48,95.31,101.69,106.73,111.33,115.29,119.06,122.92,126.48,130.21,134.38,139.02,143.91,148.96,153.75,157.89,161.11,165.16,168.64,171.66,174.36,176.63,178.83,181.70,185.37,189.54,193.10,196.31,198.95,200.54,201.26,202.14,203.62,205.96,209.20,211.76,214.04,216.17,218.12,220.20,222.95,225.72,227.83,228.72,228.58,227.99,227.03,225.50,223.82,221.96,220.56,220.60,222.71,225.37,227.87,229.96,231.62,233.40,235.39,237.68,240.47,243.48,246.12,248.88,252.31,256.64,259.88,262.48,264.65,266.47,268.94,272.29,275.65,278.18,280.29,281.87,283.31,284.97,287.40,289.73,291.71,293.66,296.06,298.27,300.13,301.75,303.33,305.24,307.54,310.19,312.91,315.12,317.08,318.25,318.81,319.02,319.50,321.10,323.66,326.71,328.78,330.01,330.66,330.88,330.74,330.44,329.88,328.62,326.21,322.85,319.45,317.05,315.58,314.11,312.57,311.58,311.05,311.01,312.47,314.14,315.74,317.37,319.52,324.03,329.53,335.06,339.77,343.80,348.37,352.86,356.63,360.07,362.52,364.76,366.99,368.72,368.57,366.64,362.85,357.15,352.70,347.10,340.41,332.89,325.25,318.76,312.59,306.27,299.67,294.05,287.86,281.68,276.38,272.04
e,e,e,e,e,e,e,e,e,e,e,e,e,e,e,e,e,e,e,e,e,e,e,e,e,e,e,e,e,e,e,e,e,e,e,e,e,e,e,e,e,e,e,e,e,e,e,e,e,e,e,e,e,e,e,e,e,e,e,e,e,e,e,e,e,e,e,e,e,e,e,e,e,e,e,e,e,1.10,1.66,3.83,6.34,11.33,20.83,36.86,45.52,53.02,60.42,67.44,74.43,81.03,86.62,90.75,92.84,92.69,90.49,86.90,82.63,79.31,78.38,79.62,82.95,87.50,92.19,97.38,102.72,107.22,111.39,115.07,118.49,121.84,125.42,129.27,133.62,138.35,142.89,147.27,151.30,154.85,158.04,162.28,165.33,167.91,170.58,173.24,175.99,179.01,182.60,187.22,191.24,194.38,196.61,197.81,198.34,199.24,201.16,204.20,207.64,210.55,212.84,214.72,216.44,218.22,220.34,222.56,224.56,225.76,225.96,225.52,224.59,223.14,221.48,220.15,219.44,219.78,221.40,223.85,226.18,228.02,229.47,231.37,233.97,237.17,240.77,244.36,247.25,250.51,254.81,259.33,262.28,264.65,266.81,268.77,271.86,275.60,278.94,281.06,283.15,284.89,286.76,288.94,291.08,292.92,294.73,296.74,299.07,300.98,302.64,304.18,305.72,307.60,310.26,313.28,316.24,318.48,319.82,320.49,320.78,321.00,321.78,323.42,326.06,329.44,332.16,334.74,336.67,337.72,337.43,335.91,334.02,331.62,328.38,324.62,321.01,318.51,317.05,315.60,314.34,313.14,311.89,310.84,311.85,313.47,315.19,316.90,318.77,322.25,327.18,332.60,337.14,341.72,347.01,351.95,355.78,359.44,361.95,364.41,367.12,369.47,370.17,369.41,366.21,359.66,354.94,349.83,343.84,336.90,329.55,322.41,315.87,309.71,303.39,297.25,290.87,284.95,280.03,275.10
e,e,e,e,e,e,e,e,e,e,e,e,e,e,e,e,e,e,e,e,e,e,e,e,e,e,e,e,e,e,e,e,e,e,e,e,e,e,e,e,e,e,e,e,e,e,e,e,e,e,e,e,e,e,e,e,e,e,e,e,e,e,e,e,e,e,e,e,e,e,e,e,e,e,e,e,e,1.10,1.64,3.60,6.25,11.72,21.49,36.76,44.42,50.70,57.34,64.29,70.48,77.95,84.36,88.94,92.41,94.39,94.34,92.55,89.36,86.42,85.08,85.47,87.85,92.05,96.09,99.96,103.74,107.49,111.34,114.94,118.28,121.44,124.77,128.55,132.99,137.85,142.19,145.95,149.18,152.13,155.28,159.35,162.48,165.22,168.04,170.98,173.96,176.93,180.26,184.73,188.91,192.01,193.93,194.67,195.07,196.32,198.76,202.22,205.68,208.84,211.27,213.12,214.75,216.38,218.02,219.75,221.53,222.81,223.25,222.99,222.19,220.99,219.67,218.80,218.66,219.52,221.05,223.18,225.26,227.01,228.59,230.86,234.17,238.21,242.46,246.20,250.26,254.35,258.18,261.75,264.42,266.80,269.11,271.45,274.53,277.99,281.02,282.98,284.91,286.83,289.04,291.52,293.74,295.63,297.47,299.39,301.41,303.13,304.78,306.38,308.05,310.34,313.43,316.46,319.02,320.85,321.92,322.40,322.62,322.90,323.73,325.23,327.62,330.84,334.01,337.25,339.67,340.99,340.92,339.39,337.06,334.10,330.46,326.56,322.91,320.29,318.65,317.19,315.88,314.41,312.74,311.19,311.27,312.66,314.44,316.21,318.01,320.82,325.42,330.84,335.30,339.91,345.54,350.82,354.75,358.52,361.43,364.26,367.20,369.77,370.79,370.57,367.72,360.85,355.91,351.23,346.00,339.90,333.07,326.08,319.39,312.81,305.81,298.81,292.08,286.20,281.40,276.14
e,e,e,e,e,e,e,e,e,e,e,e,e,e,e,e,e,e,e,e,e,e,e,e,e,e,e,e,e,e,e,e,e,e,e,e,e,e,e,e,e,e,e,e,e,e,e,e,e,e,e,e,e,e,e,e,e,e,e,e,e,e,e,e,e,e,e,e,e,e,e,e,e,e,e,e,e,e,e,2.98,5.72,11.27,20.68,35.28,43.03,48.37,54.04,60.77,65.63,73.49,80.63,85.79,90.27,94.45,96.89,97.38,95.95,94.15,92.96,92.75,94.13,97.94,100.86,103.06,105.13,107.99,111.53,115.10,118.47,121.57,124.56,128.04,132.37,137.26,141.47,144.66,147.19,149.61,152.50,156.11,159.84,163.26,166.23,169.21,172.14,174.98,178.02,181.95,185.95,189.06,190.89,191.31,191.74,193.58,196.53,200.12,203.41,206.70,209.31,211.31,212.93,214.47,215.79,217.18,218.72,219.95,220.57,220.52,219.92,219.02,218.21,217.83,218.22,219.63,221.33,223.20,225.06,226.86,228.66,231.53,235.55,240.26,245.01,248.91,254.35,259.12,261.73,263.87,266.28,268.76,271.29,274.00,276.76,279.62,282.24,284.22,286.02,288.13,290.56,293.20,295.74,297.94,299.82,301.55,303.30,304.98,306.72,308.47,310.39,313.19,316.55,319.28,321.09,322.29,323.37,324.01,324.39,324.79,325.51,326.75,328.72,331.52,334.78,338.12,340.50,341.88,342.35,341.45,339.26,336.18,332.42,328.51,325.03,322.35,320.42,318.81,317.22,315.47,313.63,311.91,310.88,311.86,313.55,315.33,317.16,319.64,324.07,329.54,334.07,338.48,344.08,349.48,353.55,357.35,360.78,363.99,367.02,369.67,370.72,370.61,367.91,361.14,356.13,351.74,347.19,342.03,335.88,329.50,322.65,315.17,306.96,299.09,292.10,286.24,281.44,275.95
e,e,e,e,e,e,e,e,e,e,e,e,e,e,e,e,e,e,e,e,e,e,e,e,e,e,e,e,e,e,e,e,e,e,e,e,e,e,e,e,e,e,e,e,e,e,e,e,e,e,e,e,e,e,e,e,e,e,e,e,e,e,e,e,e,e,e,e,e,e,e,e,e,e,e,e,e,e,e,3.24,5.64,9.90,17.62,31.68,40.70,45.97,50.42,55.81,61.28,67.15,73.96,81.20,86.94,91.84,96.46,100.03,101.16,100.57,99.83,99.82,101.31,104.85,106.34,106.97,107.73,109.64,112.51,115.81,119.06,121.98,124.91,127.85,131.60,136.09,140.02,142.77,145.03,147.10,149.19,152.02,157.10,161.74,164.50,167.02,169.81,172.54,175.31,178.59,181.91,185.00,187.20,188.00,188.88,191.46,194.81,198.20,200.94,204.04,206.84,209.10,210.75,212.21,213.41,214.66,216.06,217.30,218.15,218.41,218.08,217.32,216.89,217.46,218.64,220.11,222.00,224.02,226.02,227.87,229.55,233.30,237.93,242.89,248.04,253.06,258.54,262.65,264.36,265.63,267.75,270.16,272.65,275.23,278.05,280.59,282.84,284.91,286.98,289.18,291.70,294.54,297.24,299.36,301.01,302.65,304.85,306.81,308.60,310.52,312.84,315.56,318.48,320.64,321.90,322.71,323.98,325.25,326.21,326.74,327.43,328.34,329.94,332.31,334.84,337.87,340.39,342.37,343.87,343.03,340.90,337.87,334.02,330.12,327.11,324.61,322.37,320.20,318.24,316.37,314.51,312.69,311.02,311.33,312.67,314.46,316.33,318.81,323.06,328.40,333.26,337.88,342.88,347.74,351.98,355.81,359.43,362.78,365.89,368.70,370.07,369.95,367.22,360.81,356.03,351.71,347.54,343.22,337.85,332.01,324.44,315.44,306.25,297.97,291.28,285.91,281.20,274.81
e,e,e,e,e,e,e,e,e,e,e,e,e,e,e,e,e,e,e,e,e,e,e,e,e,e,e,e,e,e,e,e,e,e,e,e,e,e,e,e,e,e,e,e,e,e,e,e,e,e,e,e,e,e,e,e,e,e,e,e,e,e,e,e,e,e,e,e,e,e,e,e,e,e,e,e,e,e,e,3.00,5.04,8.29,14.50,27.30,37.10,42.67,46.85,51.85,57.14,62.42,68.92,76.41,82.92,88.58,94.46,99.83,103.20,104.98,105.66,106.52,108.25,110.77,111.36,111.06,110.73,111.44,113.22,115.97,118.93,121.60,124.41,127.14,130.39,134.17,137.72,140.51,142.65,144.42,146.28,149.53,154.51,158.97,161.73,164.01,166.67,169.54,172.56,175.80,179.06,182.17,184.71,186.39,188.03,190.59,193.53,196.46,199.00,201.66,204.29,206.62,208.28,209.71,211.01,212.25,213.47,214.72,215.60,216.12,216.29,216.18,216.66,217.81,219.51,221.63,223.74,225.64,227.46,229.42,232.10,236.26,241.05,246.10,251.34,256.76,262.06,265.89,267.44,268.00,269.45,271.46,273.73,276.06,278.74,281.23,283.50,285.63,287.79,289.98,292.49,295.36,298.18,300.24,301.72,303.23,305.50,307.67,309.81,311.96,314.09,316.02,318.25,320.06,321.20,321.78,323.21,325.03,326.78,328.07,328.90,329.84,331.20,333.07,335.22,337.87,340.35,342.62,344.59,344.58,342.54,339.25,335.24,331.35,328.39,325.85,323.44,320.98,318.92,317.13,315.40,313.55,311.69,311.11,311.83,313.66,315.71,318.23,322.15,327.08,331.94,336.42,341.02,345.63,350.00,353.94,357.65,361.09,364.18,366.82,368.58,368.65,366.19,360.54,355.93,351.64,347.59,343.64,338.99,333.28,325.29,315.61,305.93,297.56,291.08,285.98,281.36,274.57
e,e,e,e,e,e,e,e,e,e,e,e,e,e,e,e,e,e,e,e,e,e,e,e,e,e,e,e,e,e,e,e,e,e,e,e,e,e,e,e,e,e,e,e,e,e,e,e,e,e,e,e,e,e,e,e,e,e,e,e,e,e,e,e,e,e,e,e,e,e,e,e,e,e,e,e,e,e,e,2.40,4.29,6.95,11.88,22.74,32.89,38.76,43.02,48.05,53.34,58.84,65.21,72.32,79.07,85.39,92.06,98.53,103.78,107.94,110.36,112.38,114.51,115.98,115.91,114.97,113.83,113.39,114.06,116.00,118.43,120.82,123.45,126.12,128.92,131.91,135.08,138.01,140.10,141.68,143.65,147.58,151.78,155.47,158.38,160.85,163.69,166.98,170.53,174.04,177.56,180.80,183.68,186.17,188.49,190.75,193.08,195.49,197.82,200.03,202.41,204.75,206.55,208.04,209.40,210.57,211.56,212.74,213.54,214.28,215.00,215.70,217.10,218.72,220.85,223.70,226.01,227.83,229.56,231.81,235.70,240.00,244.83,249.98,255.17,260.59,265.35,268.76,270.28,270.36,271.13,272.63,274.61,276.75,279.18,281.67,284.07,286.30,288.51,290.69,293.13,295.91,298.75,300.75,302.18,303.62,305.73,307.94,310.32,312.51,314.14,315.16,316.75,318.33,319.53,320.24,321.89,324.17,326.66,328.88,330.08,331.25,332.51,333.94,335.85,338.06,340.43,342.83,345.02,346.10,344.09,340.40,336.23,332.39,329.18,326.42,323.89,321.34,319.28,317.64,316.07,314.26,312.50,311.15,311.17,312.88,315.10,317.62,321.13,325.54,330.32,334.61,338.88,343.24,347.66,351.82,355.63,359.15,362.28,364.69,366.73,366.97,364.92,360.27,355.84,351.56,347.53,343.71,339.58,333.81,325.74,316.06,306.29,298.04,291.79,286.88,282.30,275.56
e,e,e,e,e,e,e,e,e,e,e,e,e,e,e,e,e,e,e,e,e,e,e,e,e,e,e,e,e,e,e,e,e,e,e,e,e,e,e,e,e,e,e,e,e,e,e,e,e,e,e,e,e,e,e,e,e,e,e,e,e,e,e,e,e,e,e,e,e,e,e,e,e,e,e,e,e,e,e,1.48,3.83,6.69,10.71,18.55,28.39,34.24,38.23,43.23,50.36,56.41,63.13,70.59,76.73,83.16,90.34,97.69,104.14,109.07,112.83,116.13,119.01,120.56,119.64,118.14,116.74,115.67,115.79,116.49,117.80,119.93,122.34,124.89,127.28,129.64,132.58,135.32,137.32,139.00,141.25,145.01,148.39,151.49,154.69,158.42,162.36,166.54,170.80,174.70,178.51,182.21,185.46,187.96,190.25,192.49,194.69,196.70,198.29,200.34,202.69,205.17,207.53,209.28,210.30,211.03,211.74,212.53,213.24,214.14,215.28,216.60,218.16,220.35,223.09,226.13,228.47,230.72,233.21,236.26,240.35,244.55,249.64,255.17,260.25,265.57,268.88,270.73,271.56,271.75,272.32,273.50,275.25,277.40,279.61,281.88,284.24,286.71,289.14,291.41,293.80,296.37,298.84,300.80,302.47,304.08,305.92,307.73,309.56,311.12,312.12,312.75,314.21,315.60,316.83,318.59,320.73,323.32,326.16,328.97,330.96,332.54,333.91,335.21,336.72,338.47,340.69,343.23,345.70,347.53,345.33,341.21,337.01,333.29,329.55,326.35,323.72,321.26,319.12,317.51,316.07,314.45,313.08,311.59,311.04,312.03,314.20,316.61,319.64,323.57,328.59,333.00,336.77,340.52,344.73,349.38,353.31,357.02,360.46,363.00,364.90,364.97,363.30,359.97,355.70,351.47,347.48,343.71,339.59,333.74,326.17,317.35,308.07,300.17,294.44,289.79,285.10,279.07
e,e,e,e,e,e,e,e,e,e,e,e,e,e,e,e,e,e,e,e,e,e,e,e,e,e,e,e,e,e,e,e,e,e,e,e,e,e,e,e,e,e,e,e,e,e,e,e,e,e,e,e,e,e,e,e,e,e,e,e,e,e,e,e,e,e,e,e,e,e,e,e,e,e,e,e,e,e,e,1.32,3.25,5.99,9.65,15.63,24.74,31.38,36.20,41.11,48.52,54.88,61.45,68.36,74.39,81.20,89.03,97.07,104.13,109.53,114.09,118.37,122.28,124.88,124.27,122.49,120.42,118.54,117.95,117.99,118.72,120.47,122.86,125.13,127.25,129.43,132.06,134.66,136.83,138.82,141.16,144.50,147.46,150.59,154.40,158.71,163.29,167.82,172.10,175.88,179.62,183.50,187.04,189.78,192.11,194.40,196.56,198.44,199.79,201.59,203.94,206.53,208.87,210.22,211.03,211.69,212.34,213.01,213.92,215.05,216.35,217.80,219.69,222.49,225.76,228.95,231.69,234.34,237.37,241.08,245.63,250.49,255.39,260.13,264.45,268.38,270.55,271.76,272.55,273.09,273.62,274.60,276.10,277.97,280.08,282.29,284.58,286.97,289.33,291.47,293.55,295.69,298.05,300.24,302.03,303.49,304.79,306.32,307.88,309.17,310.01,310.50,311.67,313.33,315.37,317.77,320.27,323.10,326.17,329.18,331.34,333.10,334.70,336.23,337.81,339.32,341.35,343.67,345.63,347.13,345.39,341.94,338.07,334.25,330.07,326.46,323.57,320.92,318.80,317.03,315.39,313.82,312.51,311.13,310.38,310.90,312.98,315.43,318.19,321.68,326.53,331.11,334.71,338.01,341.73,346.23,350.50,354.57,358.34,361.39,363.08,363.23,362.16,359.77,355.66,351.38,347.40,343.75,339.86,334.16,327.26,319.65,311.72,304.53,298.67,293.73,289.16,283.78
e,e,e,e,e,e,e,e,e,e,e,e,e,e,e,e,e,e,e,e,e,e,e,e,e,e,e,e,e,e,e,e,e,e,e,e,e,e,e,e,e,e,e,e,e,e,e,e,e,e,e,e,e,e,e,e,e,e,e,e,e,e,e,e,e,e,e,e,e,e,e,e,e,e,e,e,e,e,e,1.39,2.67,5.07,8.52,13.23,22.09,29.67,35.38,40.13,47.04,53.39,59.52,65.53,71.28,78.56,87.19,96.01,103.55,109.33,114.60,119.73,124.58,128.32,128.59,127.01,124.57,122.01,120.74,120.39,120.81,122.19,124.41,126.37,128.34,130.49,132.85,135.35,137.69,139.90,142.22,145.09,147.88,151.27,155.62,160.19,165.02,169.50,173.44,176.90,180.54,184.68,188.57,191.48,193.91,196.26,198.56,200.60,201.91,203.28,205.38,207.87,209.95,210.85,211.59,212.35,213.11,213.82,214.81,216.05,217.43,218.88,221.24,224.66,228.38,231.74,234.93,238.01,241.49,245.61,250.38,255.70,260.27,264.15,267.70,270.10,271.47,272.46,273.40,274.24,274.90,275.82,277.08,278.57,280.52,282.67,284.88,287.08,289.24,291.03,292.67,294.43,296.71,299.03,300.93,302.28,303.09,304.44,305.83,307.04,307.94,308.52,309.58,311.60,314.40,317.26,320.03,323.04,326.21,329.25,331.42,333.29,335.10,336.91,338.70,340.18,341.93,343.78,345.08,346.06,345.12,342.71,339.19,335.18,330.62,326.69,323.56,320.66,318.45,316.47,314.61,312.98,311.55,310.35,309.60,309.76,311.61,314.13,316.78,319.90,324.33,329.08,332.75,335.85,339.11,343.16,347.71,352.13,356.20,359.86,361.58,362.04,361.54,359.74,355.85,351.57,347.60,344.07,340.43,335.16,329.22,322.97,316.45,309.95,303.76,298.23,293.53,288.68
e,e,e,e,e,e,e,e,e,e,e,e,e,e,e,e,e,e,e,e,e,e,e,e,e,e,e,e,e,e,e,e,e,e,e,e,e,e,e,e,e,e,e,e,e,e,e,e,e,e,e,e,e,e,e,e,e,e,e,e,e,e,e,e,e,e,e,e,e,e,e,e,e,e,e,e,e,e,e,e,2.21,3.98,7.14,11.13,21.10,29.34,35.14,39.56,45.43,51.10,56.50,61.54,66.27,73.97,83.70,93.64,101.82,108.04,114.16,120.07,125.41,129.76,131.28,130.91,129.21,126.53,124.78,124.19,124.53,125.66,127.24,128.99,130.94,133.10,135.30,137.72,139.97,142.10,144.31,146.78,149.72,153.37,157.82,162.38,166.87,170.77,174.09,177.20,180.93,185.75,190.16,192.88,195.42,197.91,200.68,203.40,204.76,205.32,206.59,208.46,210.17,211.08,211.98,212.97,213.98,214.91,215.51,216.47,217.84,219.40,222.44,226.37,230.43,234.06,237.52,241.17,245.03,249.05,253.19,257.89,262.21,266.04,269.33,270.90,272.03,273.08,274.07,274.88,275.93,277.07,278.19,279.33,280.88,282.81,284.91,286.97,288.83,289.88,291.02,292.65,294.65,296.70,298.73,300.34,301.03,302.35,303.66,304.88,306.00,307.09,308.58,310.79,313.66,316.81,319.75,322.81,325.93,328.86,331.16,333.15,335.05,336.97,338.92,340.62,341.94,342.98,343.96,344.83,344.95,343.58,340.24,335.93,331.08,327.02,323.86,320.79,318.22,316.04,314.09,312.28,310.55,309.53,308.92,308.85,310.19,312.65,315.41,318.37,322.06,327.00,331.03,334.35,337.46,340.92,345.43,349.99,354.30,358.47,360.90,362.00,361.85,360.03,356.57,352.46,348.55,345.07,341.59,337.23,332.70,327.95,322.31,316.19,309.69,303.34,297.69,293.05
e,e,e,e,e,e,e,e,e,e,e,e,e,e,e,e,e,e,e,e,e,e,e,e,e,e,e,e,e,e,e,e,e,e,e,e,e,e,e,e,e,e,e,e,e,e,e,e,e,e,e,e,e,e,e,e,e,e,e,e,e,e,e,e,e,e,e,e,e,e,e,e,e,e,e,e,e,e,e,e,2.05,3.66,6.53,9.95,18.00,26.24,32.56,36.37,40.63,45.18,49.95,54.94,60.36,68.31,78.80,89.83,98.89,106.16,112.79,119.05,124.78,129.60,132.46,133.53,133.00,130.88,129.12,128.49,128.76,129.75,131.24,132.93,134.77,136.70,138.63,140.71,142.81,144.91,147.08,149.60,152.88,156.55,160.31,163.82,167.68,171.29,174.53,177.77,182.00,187.00,191.37,194.05,196.66,199.69,203.18,206.50,207.89,208.23,208.71,209.63,210.94,212.05,213.07,214.09,215.13,216.15,216.54,217.05,217.95,219.36,221.94,225.98,230.48,234.55,238.52,242.47,246.41,250.41,254.65,259.10,263.30,267.05,269.94,271.22,272.12,272.85,273.39,274.09,275.27,276.94,278.69,279.76,281.18,282.95,284.88,286.75,288.28,288.98,289.59,290.46,291.58,293.14,295.29,297.38,298.45,300.16,301.73,303.18,304.68,306.30,308.05,310.24,312.97,316.17,319.08,321.99,324.98,327.95,330.51,332.55,334.38,336.18,338.12,339.83,341.01,341.81,342.60,343.33,344.12,343.57,340.65,336.55,331.38,327.11,324.02,321.06,318.40,316.01,313.78,311.68,309.90,308.78,308.18,308.25,309.39,311.36,313.97,316.99,320.38,325.13,329.52,333.28,336.48,339.74,344.03,348.52,352.93,357.30,360.25,361.99,362.32,360.65,357.84,354.06,350.22,346.75,343.45,339.90,336.13,332.11,327.52,322.07,315.95,309.38,302.62,296.59
e,e,e,e,e,e,e,e,e,e,e,e,e,e,e,e,e,e,e,e,e,e,e,e,e,e,e,e,e,e,e,e,e,e,e,e,e,e,e,e,e,e,e,e,e,e,e,e,e,e,e,e,e,e,e,e,e,e,e,e,e,e,e,e,e,e,e,e,e,e,e,e,e,e,e,e,e,e,e,e,2.00,3.44,6.03,8.95,14.56,22.02,28.44,31.86,34.81,38.92,43.81,49.29,55.57,63.84,74.57,85.81,95.19,103.59,110.68,117.17,123.26,128.44,132.42,135.16,136.39,135.35,134.06,133.52,133.68,134.43,135.74,137.25,138.84,140.46,142.11,143.95,146.01,148.23,150.57,153.24,156.55,159.90,162.88,165.46,168.74,172.19,175.57,179.00,183.61,188.39,192.41,195.10,197.76,201.49,205.59,209.14,210.45,210.75,210.81,211.10,212.02,213.17,214.26,215.32,216.38,217.42,217.76,218.00,218.47,219.57,221.55,225.33,229.88,234.17,238.29,242.35,246.49,250.84,255.41,259.75,263.78,267.38,270.03,271.13,271.78,272.14,272.31,272.87,274.29,276.56,278.97,280.10,281.44,283.08,284.86,286.51,287.51,287.95,288.20,288.47,288.90,290.03,291.98,294.20,295.91,298.12,300.07,301.86,303.66,305.65,307.58,309.72,312.25,315.31,318.11,320.73,323.44,326.42,329.19,331.40,333.26,334.94,336.72,338.35,339.51,340.32,341.05,341.73,342.91,343.03,340.78,336.82,331.44,327.00,323.88,320.96,318.34,315.85,313.41,311.11,309.38,308.12,307.49,307.73,308.80,310.29,312.74,315.86,319.21,323.63,328.21,332.32,335.70,339.05,343.20,347.62,352.06,356.48,360.01,362.53,363.54,362.21,359.67,356.11,352.38,348.89,345.77,342.86,339.63,336.07,332.22,327.17,321.48,314.97,307.38,299.75
e,e,e,e,e,e,e,e,e,e,e,e,e,e,e,e,e,e,e,e,e,e,e,e,e,e,e,e,e,e,e,e,e,e,e,e,e,e,e,e,e,e,e,e,e,e,e,e,e,e,e,e,e,e,e,e,e,e,e,e,e,e,e,e,e,e,e,e,e,e,e,e,e,e,e,e,e,e,e,e,1.77,3.07,5.40,7.85,11.66,17.32,22.84,26.50,29.05,34.18,40.39,46.81,53.38,62.21,72.34,82.28,90.85,100.18,107.72,114.42,120.75,126.26,130.93,135.56,139.33,139.95,139.72,139.46,139.41,139.71,140.40,141.45,142.65,143.94,145.42,147.33,149.59,152.15,154.97,157.76,160.48,163.04,165.47,167.90,170.85,174.25,177.84,181.34,185.88,189.99,193.38,196.08,198.82,203.25,207.62,210.74,211.85,212.13,212.36,212.78,213.40,214.20,215.28,216.47,217.64,218.67,219.19,219.54,219.92,220.64,222.39,225.47,229.28,233.25,236.80,240.74,245.41,250.67,255.59,259.87,263.59,266.91,269.64,270.54,270.88,271.05,271.19,271.64,273.57,276.38,279.14,280.46,281.68,283.24,284.90,286.19,286.42,286.57,286.77,287.03,287.46,288.39,289.64,291.33,293.80,296.41,298.81,300.97,302.91,304.91,306.95,309.11,311.46,314.13,316.76,318.96,321.20,323.97,326.77,329.40,331.57,333.24,334.73,336.22,337.45,338.44,339.28,340.13,341.41,342.03,340.68,336.43,331.07,326.62,323.29,320.16,317.64,315.25,312.83,310.52,308.92,307.58,306.89,307.17,308.29,309.57,311.91,315.14,318.66,322.73,327.16,331.35,335.00,338.75,343.00,347.44,351.89,356.28,360.49,364.01,366.01,365.28,362.32,358.72,355.04,351.55,348.59,346.02,343.23,340.05,336.25,330.88,325.33,319.03,311.23,302.55
e,e,e,e,e,e,e,e,e,e,e,e,e,e,e,e,e,e,e,e,e,e,e,e,e,e,e,e,e,e,e,e,e,e,e,e,e,e,e,e,e,e,e,e,e,e,e,e,e,e,e,e,e,e,e,e,e,e,e,e,e,e,e,e,e,e,e,e,e,e,e,e,e,e,e,e,e,e,e,e,2.00,3.20,5.31,7.29,9.68,13.80,18.62,22.98,26.30,31.86,38.45,45.33,52.41,61.34,70.81,79.81,87.90,97.58,105.03,111.36,117.44,123.53,129.49,135.51,140.68,142.82,143.25,143.19,143.13,143.25,143.66,144.55,145.71,147.07,148.73,150.87,153.30,156.00,158.97,161.95,164.34,166.46,168.54,170.82,173.74,177.20,180.82,184.13,188.12,191.56,194.51,197.30,200.28,204.75,208.85,211.65,213.11,213.62,214.04,214.53,215.09,215.71,216.47,217.44,218.66,220.01,220.98,221.59,222.12,223.13,224.83,227.41,230.45,233.56,236.69,240.47,245.14,250.50,255.60,259.81,263.22,266.10,268.46,269.26,269.67,269.90,270.02,270.38,272.60,275.90,279.18,280.76,282.07,283.54,284.76,285.18,285.12,285.21,285.37,285.62,286.12,287.07,288.34,290.05,292.47,295.09,297.66,300.05,302.19,304.21,306.28,308.35,310.51,312.96,315.21,317.17,319.05,321.16,323.64,326.52,329.07,331.01,332.61,334.17,335.41,336.44,337.57,338.74,340.22,341.05,339.87,335.20,330.32,326.21,322.84,319.61,316.93,314.48,312.12,309.94,308.35,307.02,306.27,306.45,307.73,309.10,311.45,314.70,318.36,322.27,326.57,330.88,334.94,339.11,343.56,348.02,352.36,356.56,360.98,365.21,368.13,368.16,365.87,362.10,358.09,354.53,351.79,349.29,346.52,343.32,339.31,333.10,327.14,320.58,312.51,304.52
e,e,e,e,e,e,e,e,e,e,e,e,e,e,e,e,e,e,e,e,e,e,e,e,e,e,e,e,e,e,e,e,e,e,e,e,e,e,e,e,e,e,e,e,e,e,e,e,e,e,e,e,e,e,e,e,e,e,e,e,e,e,e,e,e,e,e,e,e,e,e,e,e,e,e,e,e,e,e,e,2.08,3.16,5.04,6.74,8.39,11.39,15.60,20.66,25.49,31.23,37.45,44.09,51.59,60.36,69.15,77.39,85.13,94.64,102.14,108.36,114.30,121.19,128.05,135.03,141.27,144.62,146.08,146.41,146.36,146.36,146.59,147.62,148.99,150.55,152.42,154.68,157.22,160.03,163.13,165.89,167.95,169.73,171.57,173.72,176.59,180.04,183.70,187.00,190.38,193.32,196.05,198.88,202.04,206.28,209.96,212.49,214.31,215.03,215.44,215.88,216.42,216.98,217.54,218.30,219.42,220.94,222.30,223.37,224.36,225.75,227.41,229.64,232.11,234.54,237.35,241.17,245.74,250.80,255.76,259.83,262.94,265.33,267.04,267.77,268.25,268.56,268.79,269.53,272.20,275.92,279.48,281.05,282.37,283.50,284.13,283.98,283.82,283.87,284.00,284.24,284.87,285.97,287.42,289.25,291.62,294.16,296.72,299.20,301.49,303.51,305.55,307.56,309.55,311.63,313.54,315.31,316.94,318.52,320.63,323.47,326.25,328.58,330.45,332.19,333.55,334.74,336.18,337.65,339.25,340.13,338.92,333.78,329.38,325.70,322.40,319.17,316.35,313.78,311.40,309.35,307.74,306.35,305.61,305.95,307.41,308.91,311.32,314.61,318.36,322.23,326.39,330.77,335.30,339.86,344.46,348.88,353.06,357.07,361.46,366.00,369.42,370.02,368.75,365.42,361.38,357.48,354.67,352.03,349.11,345.76,341.58,335.12,328.67,321.60,313.39,306.25
e,e,e,e,e,e,e,e,e,e,e,e,e,e,e,e,e,e,e,e,e,e,e,e,e,e,e,e,e,e,e,e,e,e,e,e,e,e,e,e,e,e,e,e,e,e,e,e,e,e,e,e,e,e,e,e,e,e,e,e,e,e,e,e,e,e,e,e,e,e,e,e,e,e,e,e,e,e,e,e,1.88,2.81,4.48,6.17,7.84,10.21,13.88,19.46,26.23,31.95,37.16,42.80,50.43,58.90,67.03,74.64,82.13,90.98,98.86,105.59,111.81,119.72,126.68,134.06,141.16,145.36,148.48,149.61,149.73,149.72,149.93,151.37,153.11,154.86,156.83,159.05,161.55,164.40,167.49,169.53,171.15,172.69,174.36,176.47,179.18,182.55,186.29,189.86,192.74,195.45,198.16,200.96,204.16,207.97,211.20,213.51,215.55,216.30,216.51,216.69,217.18,217.69,218.28,218.96,219.83,221.20,222.81,224.49,226.19,227.86,229.46,231.50,233.74,235.98,238.68,242.83,247.35,251.78,256.18,259.94,262.79,264.68,265.55,266.19,266.65,267.04,267.63,269.31,272.69,276.65,280.06,281.26,282.38,282.87,282.91,282.74,282.59,282.56,282.63,282.91,283.69,285.04,286.66,288.62,291.19,293.63,296.04,298.47,300.83,302.79,304.79,306.78,308.64,310.13,311.76,313.34,314.80,316.22,318.09,320.60,323.37,326.09,328.33,330.36,332.09,333.65,335.31,336.96,338.49,339.20,337.80,332.30,328.26,324.99,321.86,318.72,315.89,313.17,310.69,308.69,307.08,305.50,304.93,305.81,307.44,309.03,311.54,314.93,318.71,322.63,326.69,331.13,336.07,340.92,345.51,349.78,353.77,357.68,361.87,366.27,369.64,370.48,370.25,368.28,364.74,360.24,356.89,353.88,350.68,347.12,342.93,337.30,330.52,322.90,314.88,308.23
e,e,e,e,e,e,e,e,e,e,e,e,e,e,e,e,e,e,e,e,e,e,e,e,e,e,e,e,e,e,e,e,e,e,e,e,e,e,e,e,e,e,e,e,e,e,e,e,e,e,e,e,e,e,e,e,e,e,e,e,e,e,e,e,e,e,e,e,e,e,e,e,e,e,e,e,e,e,e,0.78,1.96,3.19,4.76,6.35,7.87,9.75,13.04,18.73,26.06,31.78,36.44,41.25,48.45,56.86,64.57,71.61,78.80,87.35,95.63,103.17,110.42,119.28,125.86,132.56,139.45,144.85,149.59,152.53,154.07,154.81,155.95,157.47,159.21,161.05,162.90,165.14,167.20,169.09,170.95,172.48,173.95,175.45,177.12,179.31,182.40,185.95,189.56,192.74,195.45,198.13,200.87,203.75,206.95,210.09,212.80,215.08,217.25,217.94,218.00,217.94,217.94,217.75,218.18,218.91,219.77,221.09,222.79,224.64,226.52,228.32,230.08,232.20,234.52,236.99,240.37,245.03,249.42,253.03,256.55,259.79,262.11,263.49,264.06,264.63,265.14,266.02,267.56,269.59,273.07,276.76,279.76,281.04,281.68,281.83,281.71,281.46,281.30,281.23,281.25,281.52,282.44,283.79,285.80,288.29,290.94,293.37,295.73,298.11,300.41,302.25,304.16,306.07,307.76,308.90,310.01,311.17,312.38,313.78,315.84,318.43,321.18,323.94,326.63,329.24,331.57,333.56,335.11,336.66,337.65,337.47,335.23,330.33,326.76,323.72,320.71,317.67,314.89,312.11,309.61,307.75,306.09,304.46,304.16,305.61,307.43,309.24,311.94,315.41,319.13,323.12,327.52,332.28,337.29,341.95,346.10,350.03,353.87,357.66,361.71,365.91,369.28,370.54,370.72,369.87,367.18,362.60,358.33,354.72,351.08,347.26,343.35,339.07,332.62,325.35,318.64,312.75
e,e,e,e,e,e,e,e,e,e,e,e,e,e,e,e,e,e,e,e,e,e,e,e,e,e,e,e,e,e,e,e,e,e,e,e,e,e,e,e,e,e,e,e,e,e,e,e,e,e,e,e,e,e,e,e,e,e,e,e,e,e,e,e,e,e,e,e,e,e,e,e,e,e,e,e,e,e,e,0.90,2.05,3.52,5.01,6.47,7.87,9.45,12.47,18.05,25.00,30.77,35.30,39.60,46.11,54.25,61.77,68.66,75.84,84.30,93.21,101.68,109.70,118.63,124.91,130.99,137.49,143.81,149.81,154.14,157.11,159.18,161.42,163.47,165.24,166.78,168.36,170.24,171.88,173.19,174.29,175.51,176.84,178.39,180.31,182.79,186.22,189.78,193.05,195.76,198.50,201.38,204.25,207.01,209.81,212.44,214.84,216.99,218.88,219.37,219.25,218.90,218.39,217.64,217.93,218.72,219.65,220.95,222.63,224.44,226.26,228.06,229.84,232.18,234.85,237.79,241.89,246.84,251.00,253.94,256.74,259.30,261.09,262.14,262.64,263.20,264.06,265.48,267.56,269.67,272.86,275.98,278.47,280.00,280.50,280.52,280.29,279.86,279.49,279.33,279.35,279.71,280.78,282.39,284.83,287.75,290.61,293.09,295.48,297.85,300.11,301.90,303.69,305.27,306.53,307.45,308.25,309.15,310.19,311.49,313.63,316.48,319.47,322.42,325.46,328.56,331.50,334.05,335.88,337.38,337.21,335.67,332.77,328.37,324.71,321.57,318.69,315.86,313.26,310.73,308.47,306.74,305.04,303.55,303.55,305.33,307.23,309.16,311.94,315.50,319.43,323.81,328.52,333.38,338.17,342.48,346.27,349.97,353.70,357.45,361.31,365.26,368.61,370.35,370.80,370.56,368.43,363.97,359.04,354.91,351.01,347.21,343.71,340.36,334.47,328.00,322.77,318.31
e,e,e,e,e,e,e,e,e,e,e,e,e,e,e,e,e,e,e,e,e,e,e,e,e,e,e,e,e,e,e,e,e,e,e,e,e,e,e,e,e,e,e,e,e,e,e,e,e,e,e,e,e,e,e,e,e,e,e,e,e,e,e,e,e,e,e,e,e,e,e,e,e,e,e,e,e,e,e,1.20,2.28,3.65,5.02,6.36,7.75,9.19,12.05,17.36,23.33,29.11,33.84,37.99,43.74,51.37,58.88,66.07,73.50,82.10,91.81,101.12,109.41,117.53,123.68,129.41,135.45,142.22,149.01,154.07,158.09,161.82,165.24,168.27,170.27,171.34,172.63,173.86,175.24,176.64,177.80,178.93,180.10,181.73,184.08,186.98,190.60,193.96,196.80,199.20,202.05,205.16,208.11,210.55,212.64,214.98,217.20,219.02,220.23,220.42,220.03,219.34,218.44,217.46,217.70,218.54,219.59,220.91,222.48,224.12,225.78,227.47,229.12,231.70,234.85,238.33,242.94,247.93,251.78,254.22,256.51,258.36,259.72,260.69,261.31,261.98,263.40,265.28,267.33,269.34,271.90,274.22,276.16,277.90,278.62,278.69,278.35,277.72,277.04,276.77,276.88,277.45,278.72,280.92,283.71,286.86,290.07,292.66,295.11,297.52,299.79,301.66,303.24,304.28,304.94,305.70,306.48,307.36,308.32,309.48,311.51,314.69,318.16,321.53,324.79,328.26,331.72,334.94,337.49,338.97,337.31,334.25,330.88,326.56,322.28,318.75,315.97,313.39,311.08,309.04,307.22,305.58,303.89,302.76,303.07,304.91,306.77,308.69,311.40,315.00,319.45,324.46,329.37,334.05,338.45,342.40,346.04,349.63,353.29,357.04,360.69,364.32,367.59,369.79,370.55,370.43,368.40,364.04,358.94,354.54,350.69,347.25,344.20,341.15,336.06,330.68,326.80,324.37
e,e,e,e,e,e,e,e,e,e,e,e,e,e,e,e,e,e,e,e,e,e,e,e,e,e,e,e,e,e,e,e,e,e,e,e,e,e,e,e,e,e,e,e,e,e,e,e,e,e,e,e,e,e,e,e,e,e,e,e,e,e,e,e,e,e,e,e,e,e,e,e,e,e,e,e,e,0.50,0.73,1.62,2.54,3.65,4.91,6.28,7.67,9.08,11.83,16.95,22.51,27.70,32.38,36.87,42.27,49.60,57.11,64.43,72.00,81.35,91.42,100.75,108.77,116.35,122.36,127.51,132.72,139.24,146.33,151.85,156.44,161.03,166.13,169.90,172.46,174.15,175.65,177.03,178.58,180.28,181.94,183.24,184.53,186.14,188.35,191.46,195.29,198.72,201.56,204.14,206.86,209.29,211.51,213.60,215.55,217.65,219.33,220.42,221.15,220.86,220.15,219.25,218.21,217.11,217.50,218.54,219.66,221.06,222.60,224.20,225.81,227.41,229.03,231.61,234.78,238.25,242.72,247.76,251.45,253.35,254.97,256.62,257.92,259.00,260.17,261.23,262.84,264.75,266.67,268.38,270.08,271.62,272.99,274.17,274.83,275.01,274.89,274.54,274.00,273.87,274.15,275.00,276.81,279.38,282.35,285.62,289.09,291.81,294.24,296.69,299.14,300.97,302.19,302.90,303.34,303.96,304.75,305.64,306.70,308.09,309.98,313.29,317.11,320.88,324.31,328.32,332.16,335.71,338.84,339.86,337.92,334.29,329.77,325.04,320.46,316.62,313.57,310.96,308.79,306.98,305.33,303.66,302.06,301.55,302.29,304.14,306.00,307.87,310.28,313.67,318.74,324.08,329.06,333.65,337.85,341.74,345.32,348.83,352.38,355.98,359.48,362.85,365.91,368.27,369.58,369.47,367.03,362.25,357.70,353.76,350.45,347.52,344.61,341.66,337.82,333.74,330.56,330.04
e,e,e,e,e,e,e,e,e,e,e,e,e,e,e,e,e,e,e,e,e,e,e,e,e,e,e,e,e,e,e,e,e,e,e,e,e,e,e,e,e,e,e,e,e,e,e,e,e,e,e,e,e,e,e,e,e,e,e,e,e,e,e,e,e,e,e,e,e,e,e,e,e,e,e,e,e,0.84,1.07,2.15,3.04,3.96,5.01,6.26,7.58,8.95,11.70,16.79,22.14,26.95,31.59,36.34,41.66,48.70,56.05,63.36,71.05,80.80,90.55,99.34,106.91,114.08,120.49,125.54,129.92,135.31,141.81,147.62,152.84,158.03,163.92,168.75,172.18,174.70,177.87,180.17,182.36,184.58,186.58,188.01,189.39,191.15,193.55,196.55,200.30,203.72,206.55,208.96,211.31,213.26,215.02,216.76,218.31,219.91,221.11,221.65,221.54,220.75,219.78,218.76,217.72,216.91,217.54,218.71,219.89,221.33,222.89,224.47,226.06,227.63,229.22,231.67,234.69,238.09,242.40,246.78,249.96,251.67,253.06,254.67,256.19,257.67,259.26,260.52,262.06,263.64,265.04,266.31,267.52,268.66,269.67,270.45,270.93,271.11,271.08,270.88,270.55,270.69,271.38,272.76,275.06,277.82,280.91,284.24,287.68,290.50,292.94,295.36,297.82,299.68,300.86,301.49,301.79,302.23,303.00,304.07,305.40,307.06,308.97,312.26,316.20,320.33,324.30,328.63,332.58,336.13,339.19,340.04,337.92,333.92,328.78,323.35,318.79,314.86,311.52,308.98,306.83,305.00,303.31,301.68,300.43,300.42,301.45,303.25,305.11,306.96,309.11,312.31,317.79,323.27,328.11,332.45,336.47,340.31,343.96,347.56,351.12,354.58,357.94,361.03,363.76,365.92,367.22,366.90,364.50,360.30,356.70,353.15,350.17,347.60,344.92,342.07,339.16,336.42,334.65,335.70
e,e,e,e,e,e,e,e,e,e,e,e,e,e,e,e,e,e,e,e,e,e,e,e,e,e,e,e,e,e,e,e,e,e,e,e,e,e,e,e,e,e,e,e,e,e,e,e,e,e,e,e,e,e,e,e,e,e,e,e,e,e,e,e,e,e,e,e,e,e,e,e,e,e,e,e,e,1.40,1.67,2.77,3.75,4.58,5.36,6.36,7.55,8.86,11.64,16.83,22.11,26.83,31.48,36.36,41.75,48.47,55.55,62.73,70.39,80.00,88.97,96.95,104.03,110.85,117.88,123.24,127.08,130.92,136.17,142.03,147.92,153.61,159.60,165.62,169.98,173.25,178.71,182.40,185.72,188.77,191.00,192.68,194.23,196.31,199.13,201.92,205.33,208.57,211.29,213.27,215.18,216.90,218.49,219.88,220.84,221.78,222.44,222.46,221.35,220.02,218.84,217.80,216.87,216.70,217.64,218.94,220.23,221.68,223.27,224.85,226.42,228.04,229.63,231.90,234.71,237.98,242.00,245.29,247.76,249.57,251.18,252.86,254.75,256.75,258.54,259.70,260.94,261.99,262.69,263.49,264.52,265.53,266.37,266.96,267.25,267.31,267.19,266.95,266.79,267.29,268.55,270.60,273.32,276.20,279.40,282.75,285.91,288.78,291.25,293.57,295.84,297.76,299.15,299.91,300.18,300.44,301.29,302.68,304.40,306.29,308.35,311.50,315.41,319.86,324.56,328.98,332.86,336.08,338.31,338.99,336.74,332.66,327.44,321.40,317.07,313.24,309.75,307.41,305.22,303.19,301.35,299.87,299.06,299.43,300.60,302.32,304.19,306.08,308.11,311.17,316.78,322.21,326.71,330.70,334.55,338.34,342.11,345.87,349.56,352.93,356.17,358.98,361.32,363.03,363.85,363.28,361.39,358.51,355.96,352.71,349.85,347.48,345.13,342.48,340.15,338.67,338.71,340.83
e,e,e,e,e,e,e,e,e,e,e,e,e,e,e,e,e,e,e,e,e,e,e,e,e,e,e,e,e,e,e,e,e,e,e,e,e,e,e,e,e,e,e,e,e,e,e,e,e,e,e,e,e,e,e,e,e,e,e,e,e,e,e,e,e,e,e,e,e,e,e,e,e,e,e,e,0.90,1.36,2.25,3.39,4.50,5.37,6.06,6.77,7.82,8.97,11.65,16.93,22.38,27.35,32.13,37.00,42.43,48.67,55.50,62.51,69.57,78.19,86.52,94.01,100.65,107.18,113.92,119.61,123.96,127.24,131.03,136.37,142.55,148.88,155.33,161.78,166.52,170.03,175.61,180.49,185.56,190.14,192.98,195.71,198.14,200.59,203.35,206.55,209.44,212.13,214.60,216.63,218.46,219.93,221.13,222.13,222.94,223.37,222.96,221.72,220.31,218.21,216.78,215.90,215.22,215.88,217.26,218.92,220.59,222.03,223.66,225.26,226.83,228.47,230.27,232.57,235.21,238.02,241.00,243.69,245.99,247.95,249.91,251.97,254.12,256.21,257.86,258.50,259.13,259.78,260.35,260.95,261.72,262.50,263.20,263.67,263.85,263.71,263.37,262.97,262.94,263.74,265.41,267.99,271.12,274.31,277.73,281.10,283.92,286.63,289.02,291.15,293.07,294.94,296.50,297.50,298.01,298.40,299.83,301.68,303.67,305.71,307.84,310.78,314.68,319.45,324.38,328.91,332.69,335.16,335.37,334.54,332.80,329.62,324.60,319.14,314.84,311.27,308.29,306.07,303.85,301.67,299.83,298.70,297.81,298.44,299.79,301.45,303.41,305.52,307.69,310.73,316.00,320.97,325.09,328.81,332.52,336.30,340.04,343.82,347.62,351.18,354.24,356.84,358.91,360.18,360.65,360.35,359.16,357.09,354.84,352.10,349.56,347.35,345.28,343.00,341.25,340.51,341.28,343.37
e,e,e,e,e,e,e,e,e,e,e,e,e,e,e,e,e,e,e,e,e,e,e,e,e,e,e,e,e,e,e,e,e,e,e,e,e,e,e,e,e,e,e,e,e,e,e,e,e,e,e,e,e,e,e,e,e,e,e,e,e,e,e,e,e,e,e,e,e,e,e,e,e,e,e,0.50,1.18,1.85,2.96,4.05,5.17,6.15,6.92,7.47,8.27,9.28,11.91,17.19,22.57,27.64,32.47,37.31,42.72,48.73,55.12,61.57,67.93,75.20,82.77,89.92,96.47,103.11,109.18,114.66,119.48,123.37,126.70,131.70,137.88,144.54,151.64,158.32,163.40,167.23,172.21,177.68,183.50,188.87,192.81,196.33,199.64,202.87,206.09,209.37,212.12,214.71,217.14,219.08,220.72,222.05,223.17,224.01,224.17,223.63,222.39,220.54,218.47,216.00,214.39,213.58,213.41,214.72,216.59,218.57,220.43,221.82,223.30,224.95,226.72,228.53,230.49,232.78,235.24,237.75,240.46,242.95,245.15,247.16,249.28,251.86,253.81,255.12,256.06,256.45,257.04,257.64,258.07,258.61,259.22,259.71,260.01,260.01,259.43,258.72,258.07,257.75,258.36,260.07,262.57,265.66,269.01,272.50,276.06,279.47,282.36,284.94,287.08,288.90,290.49,292.08,293.71,294.87,295.68,296.98,298.96,301.10,303.24,305.37,307.53,310.31,314.13,319.05,324.21,328.89,332.12,333.56,332.66,330.65,328.37,325.31,321.02,316.45,312.57,309.45,306.94,304.76,302.53,300.38,298.56,297.41,296.71,297.57,299.05,300.78,302.96,305.31,307.61,310.62,315.71,320.46,324.31,327.75,331.20,334.87,338.52,342.24,346.03,349.68,352.58,354.94,356.86,358.20,358.69,358.58,357.68,355.92,353.92,351.60,349.36,347.37,345.72,343.94,342.56,342.28,343.64,345.71
e,e,e,e,e,e,e,e,e,e,e,e,e,e,e,e,e,e,e,e,e,e,e,e,e,e,e,e,e,e,e,e,e,e,e,e,e,e,e,e,e,e,e,e,e,e,e,e,e,e,e,e,e,e,e,e,e,e,e,e,e,e,e,e,e,e,e,e,e,e,e,e,e,e,e,0.65,1.49,2.61,3.75,4.79,5.86,6.92,7.83,8.35,8.91,9.87,12.54,17.71,22.64,27.61,32.39,37.09,42.27,48.19,54.08,59.80,65.53,71.59,78.37,85.17,91.73,98.47,103.96,109.04,114.08,118.97,122.63,127.75,133.97,140.79,148.51,155.42,160.91,165.16,169.45,175.02,180.84,186.47,191.57,195.67,199.71,203.77,207.68,210.88,213.76,216.53,219.05,220.86,222.27,223.55,224.72,225.42,224.62,223.02,221.19,219.07,216.22,213.66,211.97,211.22,211.64,213.41,215.64,217.82,219.67,221.08,222.43,224.16,226.22,228.24,230.31,232.51,234.83,237.31,240.26,242.73,244.87,246.86,249.02,252.03,253.35,253.37,253.50,253.97,254.87,255.58,255.86,256.35,256.86,257.04,256.82,256.15,254.64,253.32,252.47,252.38,253.71,256.57,260.00,263.58,267.06,270.81,274.46,277.90,281.00,283.48,285.31,286.81,288.13,289.40,291.01,292.28,293.53,295.99,298.47,300.79,303.00,305.16,307.32,309.99,313.71,318.62,323.89,328.61,331.06,331.29,329.67,326.85,323.63,320.32,316.94,313.38,310.26,307.71,305.58,303.43,301.23,299.20,297.40,296.06,295.76,296.82,298.40,300.24,302.66,305.22,307.64,310.70,315.73,320.41,324.12,327.37,330.60,334.07,337.58,341.18,344.89,348.54,351.33,353.50,355.40,357.06,357.82,357.84,356.96,355.22,353.46,351.50,349.53,347.78,346.54,345.21,344.02,343.98,345.77,347.83
e,e,e,e,e,e,e,e,e,e,e,e,e,e,e,e,e,e,e,e,e,e,e,e,e,e,e,e,e,e,e,e,e,e,e,e,e,e,e,e,e,e,e,e,e,e,e,e,e,e,e,e,e,e,e,e,e,e,e,e,e,e,e,e,e,e,e,e,e,e,e,e,e,e,0.44,1.23,2.20,3.31,4.52,5.65,6.74,7.71,8.58,9.34,9.96,11.16,14.00,18.82,22.50,27.04,31.60,35.84,40.10,45.80,51.40,56.71,62.10,68.10,74.22,80.40,86.56,92.56,98.40,103.58,108.32,113.21,117.84,124.16,131.26,138.31,146.14,153.53,159.66,164.46,168.78,173.88,179.40,185.11,190.74,195.37,199.61,203.85,208.00,211.44,214.49,217.44,220.13,221.93,223.32,224.67,225.67,225.69,224.01,222.15,219.88,217.05,213.94,211.34,209.84,209.45,210.22,212.10,214.23,216.22,217.96,219.59,221.34,223.28,225.38,227.50,229.60,231.63,234.00,237.04,240.10,242.47,244.59,246.72,248.91,251.67,251.77,250.47,250.73,251.76,252.88,253.56,253.73,254.12,254.40,254.31,253.72,252.44,250.91,249.67,249.02,249.28,250.48,253.76,257.73,261.70,265.43,269.40,273.09,276.43,279.44,281.72,283.38,284.76,286.06,287.31,288.68,290.23,292.20,295.14,298.08,300.58,302.79,304.96,307.12,309.67,313.30,318.08,322.81,327.23,328.94,327.85,324.63,321.27,318.24,315.29,312.32,309.84,307.78,305.87,303.97,301.93,299.88,297.97,296.21,294.84,294.99,296.31,297.96,299.75,302.14,304.86,307.59,310.87,315.80,320.38,324.15,327.61,331.06,334.22,337.49,340.94,344.53,348.06,350.94,353.32,355.38,357.12,358.30,358.50,357.62,355.80,354.25,352.66,350.91,349.26,348.17,346.84,345.58,345.46,347.14,348.98
e,e,e,e,e,e,e,e,e,e,e,e,e,e,e,e,e,e,e,e,e,e,e,e,e,e,e,e,e,e,e,e,e,e,e,e,e,e,e,e,e,e,e,e,e,e,e,e,e,e,e,e,e,e,e,e,e,e,e,e,e,e,e,e,e,e,e,e,e,e,e,e,0.10,0.41,0.97,1.93,2.97,4.07,5.23,6.39,7.54,8.67,9.83,11.09,11.90,12.96,15.27,19.23,22.34,26.32,30.24,33.88,37.87,42.98,48.17,53.31,58.73,64.68,70.75,76.89,82.92,88.27,93.65,98.62,103.41,108.84,114.68,122.09,129.99,137.43,145.10,152.87,159.41,164.39,168.67,173.66,179.05,184.65,190.28,195.12,199.57,203.87,207.96,211.53,214.69,217.72,220.49,222.49,224.19,225.69,226.47,225.78,223.64,221.52,218.83,215.45,212.12,209.85,208.54,208.22,209.23,210.79,212.64,214.55,216.42,218.44,220.50,222.58,224.65,226.65,228.44,230.57,233.28,236.64,239.88,242.28,244.41,246.58,248.75,251.04,250.80,249.18,248.81,249.89,250.97,251.58,251.68,251.90,251.93,251.56,250.77,249.62,248.35,247.25,246.82,247.59,248.90,251.67,255.39,259.62,263.70,267.76,271.38,274.56,277.38,279.60,281.24,282.59,283.82,285.01,286.60,288.52,290.90,294.15,297.39,300.16,302.54,304.71,306.90,309.34,312.76,317.20,321.40,324.98,325.45,323.06,319.06,315.74,313.23,311.02,308.84,306.98,305.31,303.65,301.92,300.13,298.27,296.49,294.75,293.41,294.16,295.85,297.69,299.55,301.94,304.79,307.78,311.32,316.26,320.73,324.71,328.42,331.88,334.90,337.97,341.34,344.95,348.48,351.43,353.87,355.99,357.86,359.42,359.85,359.20,357.69,356.27,354.65,352.99,351.31,349.51,348.06,347.04,346.98,348.25,349.75
e,e,e,e,e,e,e,e,e,e,e,e,e,e,e,e,e,e,e,e,e,e,e,e,e,e,e,e,e,e,e,e,e,e,e,e,e,e,e,e,e,e,e,e,e,e,e,e,e,e,e,e,e,e,e,e,e,e,e,e,e,e,e,e,e,e,e,e,e,e,e,e,0.26,0.63,1.67,2.68,3.74,4.83,5.95,7.09,8.29,9.63,11.12,12.64,13.67,14.64,16.37,19.28,22.07,25.50,28.79,31.99,36.12,40.66,45.38,50.37,55.88,61.82,68.03,74.34,80.40,85.31,90.06,94.77,99.82,106.05,113.48,121.64,129.83,137.58,145.02,152.93,159.65,164.68,168.91,174.00,179.39,184.85,190.27,195.13,199.69,203.94,207.82,211.44,214.64,217.65,220.43,222.66,224.81,226.59,227.20,225.85,223.49,221.12,218.10,214.35,210.86,208.98,207.72,207.25,208.31,209.45,211.08,213.01,215.15,217.51,219.79,221.89,223.79,225.47,227.00,229.28,232.34,236.02,239.56,242.06,244.21,246.34,248.42,250.19,250.07,248.63,247.46,248.25,249.09,249.52,249.55,249.61,249.37,248.74,247.88,247.13,246.18,245.32,245.22,246.48,248.00,249.99,253.13,257.45,261.90,265.94,269.41,272.41,275.02,277.22,278.89,280.25,281.44,282.67,284.64,286.98,289.67,293.11,296.49,299.50,302.12,304.31,306.56,308.91,312.04,316.01,319.67,322.18,321.32,317.83,313.69,310.77,308.85,307.33,305.90,304.41,302.76,301.01,299.32,297.99,296.46,294.80,293.12,291.95,293.25,295.27,297.36,299.46,301.97,304.95,308.16,311.94,316.95,321.40,325.64,329.53,332.86,335.83,338.85,342.26,345.98,349.53,352.53,354.99,357.16,359.26,361.18,361.82,361.47,360.35,358.91,357.03,355.28,353.43,350.87,349.27,348.54,348.58,349.39,350.55
e,e,e,e,e,e,e,e,e,e,e,e,e,e,e,e,e,e,e,e,e,e,e,e,e,e,e,e,e,e,e,e,e,e,e,e,e,e,e,e,e,e,e,e,e,e,e,e,e,e,e,e,e,e,e,e,e,e,e,e,e,e,e,e,e,e,e,e,e,e,e,0.00,0.56,1.40,2.36,3.36,4.42,5.56,6.74,7.84,8.95,10.39,11.81,12.45,13.65,15.32,17.22,19.23,21.56,24.55,27.77,31.32,35.87,40.39,44.66,49.12,54.48,60.63,66.76,73.00,79.17,84.17,88.93,93.81,99.22,106.21,116.13,124.15,131.22,138.79,146.11,153.64,160.18,165.29,169.59,174.91,180.46,185.93,191.16,195.95,200.24,204.14,207.76,211.31,214.50,217.38,219.97,222.31,224.91,227.21,227.93,226.03,223.57,221.10,218.02,214.26,210.71,208.83,207.30,206.35,207.00,208.03,209.79,211.97,214.37,216.76,219.08,220.93,222.28,223.44,225.17,227.45,230.61,234.89,239.01,241.65,243.75,245.75,247.56,248.98,249.05,247.97,246.59,246.95,247.25,247.24,247.05,247.08,246.51,245.71,244.94,244.44,243.58,243.33,243.94,245.44,246.97,248.61,251.26,255.30,260.04,263.90,267.11,269.93,272.43,274.48,276.11,277.50,278.87,280.58,282.80,285.53,288.69,292.08,295.32,298.42,301.20,303.50,305.80,308.13,310.94,314.29,317.33,318.80,316.99,313.09,309.57,307.32,305.79,304.43,303.00,301.69,299.89,297.62,295.58,295.21,294.34,292.87,291.33,290.69,292.25,294.29,296.63,299.32,302.28,305.40,308.75,312.68,317.74,322.55,327.00,330.84,333.90,336.86,340.24,343.98,347.84,351.31,354.39,356.95,359.35,361.93,364.10,364.92,364.75,363.70,361.79,359.60,357.36,355.07,352.72,351.06,350.35,350.34,350.94,351.88
e,e,e,e,e,e,e,e,e,e,e,e,e,e,e,e,e,e,e,e,e,e,e,e,e,e,e,e,e,e,e,e,e,e,e,e,1.40,1.00,0.50,e,e,e,e,e,e,e,e,e,e,e,e,e,e,e,e,e,e,e,e,e,e,e,e,e,e,e,e,e,e,e,0.07,0.49,1.19,2.11,3.03,3.96,4.94,5.97,7.06,8.18,9.34,10.38,11.05,11.08,11.96,13.93,16.38,18.81,21.16,24.25,27.58,31.23,36.00,40.61,44.89,49.39,54.85,60.83,66.55,72.67,79.20,84.49,89.80,95.38,101.52,109.07,118.98,126.61,133.10,140.09,147.15,154.41,161.08,166.73,171.34,176.75,182.04,187.13,192.20,196.86,200.93,204.60,208.00,211.24,214.16,216.90,219.46,221.88,224.76,227.52,228.46,226.30,223.79,221.27,218.34,214.96,211.66,209.42,207.63,206.19,205.55,206.63,208.59,210.88,213.28,215.51,217.53,219.05,220.13,221.24,223.10,225.63,228.86,232.94,237.54,240.71,242.98,244.74,246.29,247.43,247.50,246.70,245.59,245.46,245.30,245.00,244.67,244.57,243.78,242.81,242.00,241.58,241.30,241.69,242.71,244.25,245.75,247.29,249.36,252.43,256.91,261.18,264.62,267.40,269.79,271.69,273.34,274.98,276.75,278.84,281.48,284.55,287.89,291.26,294.47,297.36,299.95,302.27,304.63,306.98,309.55,312.18,314.09,314.46,312.36,308.92,306.14,303.97,302.38,300.92,299.25,297.03,294.85,293.03,291.97,292.18,292.07,291.03,289.71,289.39,291.46,293.93,296.56,299.45,302.61,305.81,309.32,313.41,318.43,323.45,328.06,331.93,334.94,337.98,341.69,345.72,349.72,353.12,356.29,359.07,361.75,364.59,366.91,367.97,368.05,367.08,364.76,362.14,359.42,356.71,354.28,352.96,352.41,352.40,352.87,353.50
e,e,e,e,e,e,e,e,e,e,e,e,e,e,e,e,e,e,e,e,e,e,e,e,e,e,e,e,e,e,e,e,e,e,e,e,1.40,1.00,0.50,e,e,e,e,e,e,e,e,e,e,e,e,e,e,e,e,e,e,e,e,e,e,e,e,e,e,e,e,e,e,e,0.30,1.07,1.96,2.83,3.73,4.60,5.50,6.41,7.35,8.42,9.49,10.07,10.08,9.80,10.22,12.03,14.75,17.86,20.62,23.98,27.49,31.28,36.21,40.94,45.33,50.01,55.72,61.59,67.04,73.11,79.92,85.42,91.39,97.79,104.69,112.55,121.29,128.38,134.62,141.12,148.00,155.10,162.08,168.47,173.51,178.87,183.76,188.38,193.19,197.69,201.52,204.97,208.18,211.10,213.77,216.38,218.95,221.43,224.34,227.28,228.42,226.37,223.92,221.46,218.81,215.92,213.00,210.37,208.29,206.36,204.43,205.33,207.34,209.64,211.93,213.94,215.54,216.72,217.70,219.00,221.06,223.90,227.16,230.81,235.55,239.33,241.92,243.51,244.87,245.77,245.80,245.17,244.39,243.92,243.45,242.97,242.51,242.16,241.08,239.93,239.07,238.76,239.12,240.08,241.43,242.97,244.46,245.99,247.61,249.74,253.48,258.13,261.97,264.87,267.17,269.00,270.84,272.88,275.20,277.72,280.70,283.94,287.27,290.56,293.66,296.32,298.73,301.09,303.50,305.91,308.24,310.15,310.82,310.06,307.83,304.95,302.58,300.27,298.41,296.81,295.04,292.37,290.12,288.89,288.72,289.18,289.55,288.85,287.95,288.37,291.02,293.96,296.88,299.84,303.00,306.21,309.87,314.12,319.10,324.31,329.03,332.96,336.08,339.26,343.22,347.47,351.60,355.02,358.31,361.35,364.30,367.25,369.45,370.68,370.92,369.90,367.35,364.41,361.27,358.22,355.89,354.95,354.57,354.58,354.98,355.36
e,e,e,e,e,e,e,e,e,e,e,e,e,e,e,e,e,e,e,e,e,e,e,e,e,e,e,e,e,e,e,e,e,e,e,e,e,e,e,e,e,e,e,e,e,e,e,e,e,e,e,e,e,e,e,e,e,e,e,e,e,e,e,e,e,e,e,e,0.12,0.30,1.01,1.89,2.77,3.62,4.49,5.39,6.26,7.12,7.96,8.71,9.31,9.66,9.74,9.64,9.71,10.57,12.58,15.92,19.59,23.25,26.99,31.14,36.28,41.13,45.51,50.27,56.39,62.65,68.43,74.63,81.32,86.71,93.10,100.15,107.60,115.24,122.06,128.48,134.83,141.39,148.41,155.53,162.97,170.25,175.79,180.89,185.39,189.59,193.89,198.22,201.73,204.89,207.95,210.77,213.38,215.94,218.50,221.02,223.47,225.93,227.15,225.91,223.70,221.55,219.31,216.87,214.35,211.56,209.15,206.78,204.24,204.27,205.90,208.03,210.12,211.89,213.08,214.03,215.09,216.83,219.35,222.35,225.56,228.95,233.01,237.24,240.35,242.05,243.36,244.14,244.09,243.49,242.78,242.45,242.00,241.44,240.78,239.92,238.36,237.00,236.21,236.16,236.88,238.31,240.01,241.61,243.16,244.70,246.31,248.11,250.41,254.87,259.10,262.39,264.69,266.66,268.99,271.68,274.68,277.85,280.86,283.91,287.00,289.98,292.73,295.32,297.85,300.35,302.81,305.27,307.35,308.57,308.23,306.36,303.82,301.01,298.21,295.67,293.53,291.82,290.55,289.29,287.98,286.87,286.25,286.51,286.50,285.81,285.78,288.01,291.26,294.46,297.59,300.67,303.61,306.68,310.40,314.81,319.81,325.24,330.01,334.04,337.45,340.91,344.95,349.24,353.44,357.15,360.59,363.89,367.08,369.92,371.45,372.62,372.74,371.34,368.94,366.05,362.65,359.48,357.93,357.13,356.75,356.77,357.18,357.50
e,e,e,e,e,e,e,e,e,e,e,e,e,e,e,e,e,e,e,e,e,e,e,e,e,e,e,e,e,e,e,e,e,e,e,e,e,e,e,e,e,e,e,e,e,e,e,e,e,e,e,e,e,e,e,e,e,e,e,e,e,e,e,e,e,e,e,0.00,0.37,0.84,1.69,2.56,3.45,4.33,5.17,5.93,6.66,7.38,8.06,8.59,8.96,9.22,9.39,9.47,9.45,9.87,11.26,14.12,18.03,21.98,25.98,30.32,35.50,40.37,45.13,50.36,56.76,63.62,69.90,76.19,82.59,88.04,93.84,100.76,108.30,115.07,120.99,127.04,133.73,141.21,148.39,155.77,163.74,171.62,177.23,181.90,185.96,189.80,193.77,197.78,201.17,204.25,207.23,210.13,212.76,215.42,218.16,220.74,222.92,224.99,226.23,225.74,223.86,221.83,219.68,217.34,214.93,212.31,209.68,206.86,203.84,202.79,203.90,205.53,206.97,208.93,210.27,211.39,212.80,215.21,218.18,221.38,224.52,227.48,230.54,234.28,237.67,240.15,241.70,242.46,242.41,241.96,241.63,241.34,240.91,240.17,238.96,237.25,235.35,233.94,233.31,233.67,234.89,236.61,238.48,240.24,241.85,243.44,245.10,246.87,248.89,252.37,256.23,259.79,262.54,264.96,267.74,270.95,274.53,278.17,281.27,284.17,287.01,289.72,292.32,294.91,297.49,300.01,302.38,304.81,306.30,306.40,305.69,303.37,300.46,297.36,294.23,291.81,290.10,288.90,288.07,287.34,286.28,285.16,284.21,283.75,283.43,283.62,284.91,287.96,291.53,295.12,298.46,301.50,304.42,307.40,311.16,315.62,320.54,326.14,330.89,334.90,338.55,342.40,346.50,350.85,355.27,359.25,362.89,366.36,369.63,372.35,373.83,374.83,374.64,372.88,370.44,367.74,364.87,362.31,360.92,359.75,358.95,358.61,358.72,358.77
e,e,e,e,e,e,e,e,e,e,e,e,e,e,e,e,e,e,e,e,e,e,e,e,e,e,e,e,e,e,e,e,e,e,e,e,e,e,e,e,e,e,e,e,e,e,e,e,e,e,e,e,e,e,e,e,e,e,e,e,e,e,e,e,e,e,e,0.21,0.65,1.51,2.36,3.14,3.97,4.80,5.57,6.23,6.83,7.42,7.94,8.30,8.55,8.78,9.01,9.22,9.23,9.47,10.33,12.40,16.31,20.57,24.84,29.30,34.43,39.22,44.36,50.18,56.96,64.34,71.24,77.72,83.81,89.29,94.49,100.78,107.74,113.79,119.55,125.64,132.65,140.75,148.15,155.87,164.21,172.35,177.72,182.01,185.72,189.25,192.89,196.55,199.91,203.02,205.98,208.94,211.71,214.53,217.47,220.34,222.37,224.07,225.28,225.40,223.89,222.03,219.95,217.64,215.16,212.64,209.65,206.24,202.87,201.14,201.64,202.62,203.41,205.45,207.23,208.96,211.04,214.02,217.28,220.51,223.50,226.08,228.35,231.27,234.48,237.48,239.36,240.28,240.38,240.15,240.08,239.70,239.28,238.44,236.81,234.51,232.56,231.29,230.87,231.54,233.11,234.98,236.91,238.81,240.51,242.22,244.00,245.92,248.05,250.72,254.04,257.60,260.76,263.66,266.91,270.56,274.54,278.50,281.60,284.35,286.99,289.54,292.11,294.70,297.29,299.81,302.07,304.34,305.14,304.17,303.08,300.46,297.25,293.93,290.84,288.69,287.44,286.68,286.17,285.62,284.69,283.59,282.38,281.13,280.73,281.93,284.44,287.91,291.73,295.76,299.37,302.31,305.16,308.00,311.74,316.24,321.10,326.87,331.60,335.62,339.46,343.71,347.90,352.39,357.05,361.21,365.06,368.69,372.04,374.77,376.38,377.11,376.65,374.83,372.37,369.97,367.84,366.08,364.76,363.16,361.91,361.13,360.78,360.30
e,e,e,e,e,e,e,e,e,e,e,e,e,e,e,e,e,e,e,e,e,e,e,e,e,e,e,e,e,e,e,e,e,e,e,e,e,e,e,e,e,e,e,e,e,e,0.00,0.45,2.17,e,e,e,e,e,e,e,e,e,e,e,e,e,e,e,e,e,e,0.81,1.26,2.15,2.97,3.60,4.22,4.88,5.53,6.21,6.79,7.27,7.64,7.91,8.14,8.37,8.60,8.82,8.97,9.23,9.66,10.83,14.62,19.14,23.71,28.30,33.30,37.86,43.22,49.58,56.97,64.60,72.21,79.11,85.01,90.40,95.52,100.74,106.21,112.04,118.40,125.09,132.24,139.96,147.67,155.72,164.12,171.93,176.77,180.86,184.41,187.69,190.95,194.30,197.66,200.89,203.91,206.82,209.93,212.95,216.05,219.55,221.56,222.97,224.06,224.58,223.51,221.95,220.06,217.80,215.05,212.33,208.65,204.47,200.96,199.43,199.27,199.51,199.98,201.69,204.13,207.00,210.11,213.31,216.58,219.54,222.20,224.60,226.63,228.66,231.03,233.65,235.79,237.05,237.52,237.55,237.41,236.77,236.40,235.67,234.09,231.94,230.38,229.49,229.32,230.09,231.64,233.48,235.41,237.32,239.15,241.09,243.14,245.32,247.69,250.29,253.17,256.29,259.57,262.84,266.56,270.55,274.63,278.72,281.65,284.23,286.79,289.33,291.93,294.52,297.10,299.66,301.87,303.71,303.89,302.18,300.31,297.35,294.01,290.84,288.36,286.55,285.39,284.67,284.25,283.72,283.02,282.04,280.63,278.81,278.78,280.78,283.99,287.70,291.73,296.30,300.21,303.03,305.63,308.23,311.88,316.43,321.38,327.27,332.05,336.12,340.15,344.68,349.11,353.82,358.66,362.85,366.86,370.70,374.26,377.20,378.93,379.26,378.74,377.42,375.19,373.18,371.72,370.66,369.58,367.78,366.19,365.00,364.08,362.76
e,e,e,e,e,e,e,e,e,e,e,e,e,e,e,e,e,e,e,e,e,e,e,e,e,e,e,e,e,e,e,e,e,e,e,e,e,e,e,e,e,e,e,e,e,e,0.00,0.45,2.17,e,e,e,e,e,e,e,e,e,e,e,e,e,e,e,e,e,0.71,1.08,1.57,2.30,3.01,3.61,4.25,4.89,5.51,6.12,6.61,6.98,7.27,7.50,7.70,7.91,8.13,8.38,8.66,8.99,9.38,10.24,13.10,17.64,22.52,27.34,32.32,36.98,42.42,48.81,56.25,64.48,72.58,79.83,85.94,91.56,96.74,101.68,106.52,111.52,117.58,124.47,131.50,138.49,146.59,155.08,163.07,169.78,174.16,177.86,181.32,184.64,187.80,190.94,194.20,197.61,201.09,204.23,207.52,210.77,214.08,217.62,220.19,221.71,222.72,223.41,222.97,221.74,219.88,217.35,214.14,210.92,206.60,202.07,199.14,197.72,197.41,197.63,198.37,200.13,202.95,206.22,209.59,212.76,215.70,218.36,220.75,222.85,224.81,226.54,228.34,230.21,231.69,232.50,232.80,232.83,232.81,232.79,232.86,232.49,231.41,230.19,229.22,228.62,228.57,229.50,231.00,232.81,234.71,236.53,238.31,240.39,242.72,245.21,247.71,250.35,253.12,256.01,259.13,262.70,266.61,270.65,274.75,278.78,281.66,284.19,286.65,289.00,291.57,294.24,296.91,299.44,301.53,302.75,302.51,300.61,297.78,294.27,291.09,288.43,286.25,284.42,283.29,282.65,282.28,281.80,281.26,279.97,277.94,276.19,277.58,280.36,283.71,287.41,291.58,296.35,300.36,303.11,305.62,308.13,311.71,316.33,321.54,327.38,332.13,336.23,340.35,345.06,349.80,354.63,359.38,363.60,367.69,371.64,375.44,378.70,379.97,380.19,379.97,379.38,378.21,376.61,375.31,374.38,373.48,371.81,370.04,368.38,366.86,365.28
