180.36,186.01,191.94,198.41,204.79,210.55,215.72,220.63,225.56,230.96,237.29,243.16,248.64,254.99,260.94,265.93,271.25,277.90,283.38,287.67,290.53,291.65,291.15,290.12,288.84,287.57,286.65,286.21,286.64,287.82,289.29,289.38,289.24,289.32,289.63,289.91,290.19,290.37,290.48,290.61,290.82,291.88,292.76,293.04,293.04,291.56,289.03,286.25,284.48,284.81,293.36,302.89,306.90,304.68,303.93,304.76,305.74,303.88,298.96,293.27,287.84,283.01,277.88,271.05,265.71,262.97,260.49,261.95,267.12,274.03,280.04,285.96,291.79,297.24,301.91,305.67,307.09,306.69,305.45,305.08,303.75,300.83,290.98,270.43,261.03,256.52,255.57,257.75,260.38,263.20,265.60,268.21,272.59,277.84,284.53,291.12,296.71,303.22,310.62,317.53,323.34,328.15,334.50,340.27,345.03,348.90,352.70,356.35,360.03,363.46,365.47,366.60,366.70,365.99,364.77,363.34,361.58,359.34,356.48,353.39,349.95,346.05,341.86,337.91,334.30,330.48,325.74,319.41,313.26,310.24,310.78,315.35,323.38,334.05,342.92,349.72,356.32,361.75,366.29,370.77,375.76,380.89,386.16,390.36,393.22,395.63,397.94,399.73,401.05,402.03,402.78,403.37,403.91,404.42,404.82,405.09,404.60,403.47,402.34,401.18,399.63,397.62,395.19,393.08,391.25,389.29,387.08,384.60,381.80,378.00,373.50,368.83,363.84,358.72,353.63,348.73,344.40,339.81,333.72,326.95,321.95,315.84,308.95,301.99,295.55,289.46,282.75,276.79,271.92,267.07,262.24,257.50,253.22,249.92,246.76,243.28,240.38,238.31,235.21,231.53,227.63,223.50,218.88,215.11,211.58,207.63,202.64,197.03,190.13,183.31,177.48,173.30,169.47,166.33,163.34,159.44,155.07,150.47,146.71,145.38,148.55,152.19,155.81,159.45,163.33,168.17,173.47,179.20,185.52,192.01,198.26,203.99,209.62,216.74,222.84,228.63,234.72,241.69,248.80,255.26,260.94,266.01,271.66,276.92,281.57,285.70,289.61,293.68,297.69,301.41,304.61,307.54,306.25,303.28,299.67,294.54
178.22,184.38,190.39,196.58,202.60,208.51,213.91,219.09,224.29,229.60,236.27,242.34,247.66,253.50,259.65,264.79,269.97,276.19,281.47,285.48,287.87,288.39,287.39,285.64,283.79,282.06,280.62,279.64,279.44,279.95,280.95,281.40,281.72,282.36,283.25,283.91,284.21,283.66,282.65,281.63,280.51,280.49,280.89,281.25,281.15,279.76,277.69,275.84,275.48,276.58,281.04,285.91,289.07,291.62,294.52,297.20,298.65,296.89,292.44,287.31,282.69,278.98,274.09,266.85,260.47,256.36,253.62,256.58,262.21,268.19,272.66,277.78,282.64,287.42,292.01,295.27,296.86,296.76,296.08,297.46,297.64,292.39,281.51,266.47,256.70,252.09,251.40,253.72,256.24,258.86,261.21,264.51,270.90,275.78,280.88,286.65,293.20,300.23,307.43,314.81,321.55,325.81,330.96,336.72,341.93,345.39,348.75,351.64,354.48,357.33,359.65,361.29,361.96,361.76,360.84,359.43,357.30,354.67,351.67,348.47,344.81,340.62,336.23,332.50,328.77,324.35,319.00,312.75,307.63,305.67,307.13,312.17,319.38,329.09,337.99,345.22,351.13,357.10,362.27,367.05,371.92,376.89,382.26,387.09,390.89,393.51,395.90,398.06,399.83,400.95,401.63,402.19,402.70,403.23,403.90,404.55,404.34,403.36,402.29,401.14,399.52,397.33,394.62,392.06,389.86,387.69,385.43,383.16,380.65,377.28,373.25,368.89,363.89,358.63,353.30,348.11,343.33,337.73,331.57,325.51,320.49,314.14,307.33,300.81,295.04,289.34,282.97,277.09,272.09,267.36,263.24,259.87,257.16,255.02,252.49,249.75,247.19,244.90,242.11,238.13,233.91,229.56,224.50,218.89,214.46,210.37,205.31,199.26,191.94,184.98,179.55,176.46,173.86,171.26,168.32,164.56,159.92,154.57,149.41,145.90,146.67,149.42,152.78,156.33,160.22,165.15,170.60,176.35,182.47,189.65,196.15,201.81,206.97,212.98,219.74,225.91,231.73,238.29,245.77,252.44,258.31,263.74,269.67,274.81,279.47,283.83,287.81,291.92,295.97,299.74,303.01,306.09,305.53,303.15,299.68,294.66
176.05,182.47,188.57,194.67,200.37,206.46,212.23,217.77,223.20,228.52,235.34,241.63,247.01,252.42,258.34,263.59,268.83,274.73,279.88,283.40,285.17,285.12,283.84,281.38,278.97,276.85,274.98,273.56,272.85,272.78,273.36,274.29,275.21,276.29,277.45,278.17,278.13,276.82,274.85,272.78,270.51,269.48,269.34,269.69,269.72,268.80,267.33,266.11,266.37,268.15,270.25,272.32,274.88,279.70,284.62,288.47,290.51,289.62,286.42,282.44,278.78,275.89,271.77,263.75,255.84,250.26,247.23,250.68,256.26,261.80,266.21,270.34,274.37,278.54,282.66,285.24,287.06,287.37,286.91,288.13,288.24,282.12,272.26,262.40,252.88,247.94,247.09,249.48,252.29,254.85,257.19,260.65,267.47,273.33,278.19,283.37,289.85,296.75,303.81,311.12,317.99,322.71,327.16,332.30,337.20,340.63,344.56,347.45,349.81,352.06,354.33,356.24,357.35,357.60,356.89,355.39,352.95,350.03,346.89,343.56,339.69,335.30,330.76,326.91,322.80,317.96,312.41,306.57,302.61,301.58,303.84,309.37,315.81,324.06,332.65,340.45,346.23,352.17,357.77,363.12,368.34,373.43,378.69,383.75,388.13,391.16,393.70,396.05,398.08,399.40,400.17,400.93,401.61,402.21,403.04,403.87,403.91,403.18,402.17,401.06,399.54,397.38,394.48,391.57,389.01,386.39,383.68,381.38,379.01,376.08,372.53,368.27,363.19,357.94,352.52,346.92,341.49,335.11,329.05,323.62,318.29,311.77,305.31,299.42,294.22,288.98,283.34,278.00,273.28,269.14,265.92,263.58,261.81,260.21,258.08,255.91,253.58,250.97,248.19,244.24,239.81,235.11,229.76,222.89,217.14,212.02,206.36,199.84,192.81,186.80,182.69,180.47,178.31,175.69,172.59,168.96,164.18,158.34,152.18,146.90,145.10,146.95,150.00,153.43,157.52,162.56,168.19,173.99,179.98,187.47,194.18,199.91,204.90,210.00,216.84,223.28,229.14,235.42,243.12,249.99,256.00,261.53,267.47,272.52,277.34,282.05,286.18,290.36,294.47,298.36,301.79,304.81,304.79,302.85,299.45,294.65
173.99,180.20,186.44,192.72,198.14,204.48,210.78,216.75,222.33,227.79,234.49,240.96,246.71,251.91,257.05,262.37,267.94,273.69,278.73,281.53,282.51,281.95,280.52,277.43,274.44,271.97,269.91,268.25,267.34,267.05,267.47,268.75,270.13,271.22,271.93,272.13,271.15,269.24,266.80,264.10,261.19,259.58,259.00,259.19,259.60,259.48,258.64,257.49,256.95,258.21,261.92,265.93,268.77,271.19,274.85,278.26,280.49,280.76,279.95,278.63,276.79,274.26,271.69,262.19,252.02,244.94,241.55,243.79,248.45,254.29,260.71,263.86,267.24,270.99,274.38,276.42,278.54,279.46,278.89,277.47,275.34,271.14,265.38,258.47,249.96,244.36,242.63,244.75,248.28,251.05,253.42,256.20,261.12,269.97,276.94,282.21,287.00,292.77,299.94,306.44,312.01,317.99,322.85,326.85,330.42,334.25,340.08,344.06,346.58,348.26,350.00,351.80,353.10,353.62,352.93,351.19,348.60,345.55,342.21,338.64,334.53,330.08,325.49,321.08,316.42,311.57,306.39,301.06,298.15,297.86,300.90,307.18,313.14,319.41,327.13,335.47,342.01,347.15,352.69,358.76,365.02,370.62,375.71,380.44,384.78,388.43,391.35,393.69,395.63,397.20,398.29,399.55,400.66,401.44,402.28,403.08,403.35,402.98,402.00,400.98,399.77,397.86,394.87,391.83,389.03,385.70,381.97,379.35,376.97,374.46,371.32,366.84,361.65,356.60,351.22,345.13,338.76,332.12,326.38,321.28,315.37,308.82,303.09,298.01,293.21,288.51,284.01,279.75,275.93,272.99,270.77,268.90,267.09,265.09,263.09,261.23,259.07,256.34,253.37,249.84,245.27,239.86,234.25,227.20,219.80,212.53,205.57,198.64,192.83,189.08,187.32,185.39,182.55,179.29,175.88,172.23,167.36,161.30,154.59,148.02,143.78,144.81,147.55,150.82,155.30,160.42,166.14,172.09,178.17,185.44,192.25,198.27,203.44,208.25,214.35,220.70,226.97,233.34,241.04,248.12,254.18,259.36,264.92,270.01,275.19,280.39,284.77,289.02,293.21,297.25,300.92,303.85,304.06,302.31,298.96,294.54
172.12,178.30,184.31,190.44,196.13,202.50,209.18,215.59,221.42,227.05,233.67,240.20,246.14,251.29,256.03,261.12,266.56,272.04,276.58,278.74,279.10,277.98,275.86,272.84,269.98,267.48,265.25,263.29,261.87,261.06,260.95,261.12,262.45,263.95,265.01,265.04,263.98,261.91,259.18,256.05,253.00,250.79,249.58,249.40,249.89,250.32,250.31,249.81,248.96,249.09,255.47,262.27,265.17,267.22,268.73,270.09,271.10,271.26,273.14,274.44,274.47,273.09,271.51,259.94,248.24,241.63,238.62,239.78,242.38,245.60,249.61,253.72,257.95,263.25,269.54,272.82,275.10,275.78,274.30,270.40,267.63,264.18,259.51,253.49,247.31,242.25,239.75,240.48,243.15,245.85,248.91,252.68,257.99,265.78,272.65,278.61,284.12,289.42,295.61,301.46,306.67,311.95,316.84,320.72,323.77,326.81,332.48,339.33,344.13,345.77,347.04,348.28,348.87,348.84,348.40,346.68,344.04,340.83,337.22,333.51,329.45,325.05,320.38,315.57,311.11,306.63,301.95,297.30,294.38,294.26,297.82,304.81,310.75,316.30,322.92,330.31,336.93,342.57,348.15,354.64,362.19,367.96,373.02,377.47,381.36,384.96,388.22,390.87,393.01,394.71,395.99,397.60,399.27,400.63,401.49,402.23,402.66,402.64,402.00,401.13,400.19,398.59,395.80,392.96,390.22,386.34,381.58,378.48,375.89,373.40,370.25,365.48,360.19,355.21,349.83,343.43,336.17,329.44,323.66,318.50,313.07,307.53,302.96,298.92,294.77,290.23,286.44,283.16,280.34,278.12,276.33,274.61,272.68,270.27,267.86,265.69,263.36,260.55,257.43,253.97,249.89,244.77,237.85,230.75,222.92,214.77,207.05,200.72,196.71,194.34,192.86,190.55,186.98,183.14,179.18,174.67,169.41,163.46,156.69,149.48,144.43,144.05,145.95,149.02,153.01,158.17,164.07,170.18,176.25,182.94,189.79,196.25,201.88,206.51,212.23,218.52,224.96,231.47,239.03,246.24,252.42,257.38,262.46,267.69,273.16,278.63,283.37,287.66,291.90,296.11,300.04,303.07,303.25,301.44,298.11,293.96
170.17,176.53,182.38,188.29,194.26,200.59,207.58,214.38,220.47,226.30,232.85,239.39,245.43,250.54,255.05,259.76,264.84,270.04,273.97,275.44,275.23,273.62,270.94,268.18,265.52,262.95,260.42,258.15,256.28,255.02,254.34,253.36,254.42,256.15,257.56,257.68,256.72,254.69,251.87,248.52,245.58,243.02,241.25,240.53,240.70,241.18,241.66,241.74,240.93,240.22,247.58,256.63,261.98,264.56,264.28,262.86,261.37,261.25,264.65,268.09,270.13,269.95,268.28,256.20,244.63,238.93,236.43,236.74,237.48,238.04,239.16,243.78,248.56,254.99,263.87,270.08,272.95,273.36,270.72,263.62,260.76,257.99,253.96,248.72,244.82,240.60,237.45,236.50,237.79,240.43,244.34,249.44,255.66,261.73,268.04,274.66,281.22,286.19,291.21,296.37,301.39,305.69,310.33,314.31,317.25,319.42,324.09,332.47,339.21,341.87,343.59,344.37,344.18,343.61,343.46,341.82,339.15,335.82,332.00,328.17,324.11,319.77,315.12,310.24,306.13,302.02,297.78,293.66,290.38,290.55,294.72,302.20,308.31,313.69,319.39,325.53,331.76,337.99,343.71,350.47,359.01,365.12,370.36,374.65,378.08,381.40,384.81,387.73,390.12,392.04,393.59,395.51,397.62,399.55,400.60,401.37,401.90,402.15,401.95,401.27,400.54,399.20,396.67,394.10,391.52,387.42,382.12,378.63,375.78,373.10,369.74,364.64,359.25,354.32,349.02,342.51,334.53,327.52,321.56,316.44,311.90,307.73,304.42,301.39,297.90,293.59,290.11,287.44,285.40,283.60,281.97,280.27,278.25,275.60,272.81,270.13,267.34,264.26,260.93,257.36,253.77,249.24,241.57,234.14,226.20,217.87,209.93,204.59,202.10,200.48,198.62,195.74,191.50,187.01,182.33,176.97,171.18,165.29,158.59,151.13,145.66,143.68,144.62,147.49,150.83,155.86,161.89,168.20,174.28,180.46,187.18,193.87,199.92,204.67,210.15,216.39,223.03,229.74,237.14,244.28,250.46,255.35,260.02,265.39,271.13,276.87,282.01,286.34,290.57,294.96,299.31,302.44,302.48,300.51,297.20,293.27
167.83,174.90,181.09,186.86,192.69,198.92,206.09,213.14,219.43,225.49,232.02,238.46,244.43,249.53,253.96,258.07,262.53,267.50,270.76,271.40,270.56,268.76,266.45,263.86,260.99,257.92,254.77,252.15,250.35,249.02,247.94,247.06,247.60,248.65,249.72,250.34,249.40,247.61,245.14,242.03,239.58,237.44,235.53,233.91,232.72,231.96,231.68,231.66,231.56,231.48,233.51,242.38,257.84,261.96,261.81,256.77,250.02,250.24,251.27,255.37,259.80,260.36,255.63,248.48,241.55,236.38,234.15,234.20,234.70,235.10,235.64,237.67,240.81,245.28,252.58,265.46,270.34,271.10,267.29,254.56,251.89,250.66,248.49,245.51,242.59,239.05,235.55,232.97,232.70,235.53,240.26,246.20,252.96,258.81,265.10,271.79,278.21,282.80,286.94,291.26,295.73,299.85,303.76,307.63,310.95,313.17,316.00,320.23,325.87,332.40,337.46,338.41,338.05,337.71,337.77,336.17,333.40,330.05,326.37,322.37,317.93,313.51,309.26,305.13,301.25,297.24,293.06,288.83,285.03,286.42,291.62,299.02,305.43,311.27,316.82,322.09,327.05,332.99,339.03,345.94,354.27,361.59,367.53,372.03,375.29,378.23,381.18,383.96,386.58,389.06,391.30,393.47,395.60,397.65,399.48,400.46,401.02,401.37,401.55,401.17,400.54,399.26,396.88,394.50,392.12,388.68,384.34,380.96,377.81,374.71,370.90,365.36,359.83,355.08,350.14,343.97,335.71,327.73,321.45,316.96,313.71,311.08,308.97,306.70,303.63,300.13,296.13,292.95,290.91,289.01,287.20,285.43,283.49,281.11,278.53,275.23,271.46,267.47,263.72,259.75,256.06,252.21,246.47,237.71,229.61,222.16,215.12,211.12,208.75,206.68,204.26,200.85,196.20,190.70,185.00,179.61,173.04,166.76,160.19,153.05,147.00,143.34,143.29,146.07,149.00,153.41,159.41,166.00,172.25,178.44,184.55,190.69,196.78,202.48,207.88,214.13,221.15,228.26,235.56,242.05,247.82,252.94,257.59,263.02,269.03,275.21,280.79,285.11,289.23,293.86,299.09,302.12,301.89,299.74,296.43,292.72
165.50,172.65,179.36,185.60,191.45,197.70,204.95,212.09,218.47,224.69,231.29,237.62,243.38,248.31,252.70,256.40,260.02,263.87,266.50,266.86,265.94,264.25,262.12,259.34,256.21,252.94,249.74,247.08,245.20,243.68,242.39,241.77,242.30,243.13,243.85,244.18,243.27,241.70,239.64,237.07,234.83,232.27,229.33,226.19,223.56,221.69,220.70,220.38,220.46,220.86,221.51,227.64,240.17,243.94,244.73,242.14,238.32,239.15,240.29,244.56,249.38,250.47,246.33,241.18,235.60,230.88,230.95,231.92,232.50,232.30,231.05,229.68,231.39,235.01,240.64,251.59,256.14,257.36,255.16,246.50,244.91,244.18,242.97,241.65,239.74,237.08,233.89,230.75,229.42,231.74,236.48,242.78,249.98,255.91,261.72,267.96,274.42,279.07,282.88,286.63,290.44,293.95,297.14,300.54,303.73,306.06,308.35,311.31,316.02,322.45,327.79,330.48,331.63,332.03,331.99,330.41,327.59,324.00,319.89,315.72,311.46,307.35,303.49,299.80,296.08,292.14,287.93,283.51,279.48,282.00,288.10,295.46,302.22,308.34,314.40,320.12,324.60,329.55,335.07,341.61,349.39,356.72,363.34,368.65,372.50,375.34,378.00,380.56,383.13,385.83,388.50,391.00,393.31,395.44,397.60,399.16,400.17,400.76,401.06,400.89,400.39,399.29,397.29,395.01,392.74,390.02,386.78,383.56,380.37,376.93,372.74,367.20,361.77,357.13,352.53,347.13,339.99,332.09,325.44,320.57,317.40,315.08,313.17,311.13,308.46,305.33,301.50,298.23,295.93,293.83,291.78,289.97,288.20,286.06,283.41,280.01,275.96,271.37,266.79,262.32,258.31,254.56,249.92,241.69,234.02,227.25,221.17,217.37,214.83,212.38,209.39,205.41,200.38,193.74,186.74,181.17,174.51,168.26,161.90,155.01,148.53,143.67,142.40,144.30,146.90,150.76,156.49,163.12,169.66,175.96,181.85,187.60,193.36,199.22,204.78,211.27,218.64,226.21,233.36,239.63,245.21,250.23,254.85,260.16,266.62,273.67,279.53,283.96,288.15,293.11,298.93,301.72,301.31,299.07,295.73,292.15
163.33,170.17,177.36,184.37,190.43,196.81,204.10,211.25,217.61,223.94,230.59,236.81,242.31,246.98,251.32,254.68,257.42,259.83,261.81,262.19,261.50,260.03,257.96,254.85,251.48,248.18,245.18,242.57,240.48,238.74,237.43,237.14,237.90,238.72,239.16,238.87,237.96,236.59,234.87,232.82,230.49,227.16,222.99,218.35,214.37,211.46,209.75,208.95,208.88,209.61,210.90,213.40,217.19,219.75,221.73,224.14,226.75,228.36,230.64,234.74,238.89,240.47,238.70,233.97,228.08,223.63,225.77,227.45,227.90,226.88,223.83,220.03,221.08,224.78,229.16,234.45,237.66,239.33,239.78,239.15,238.81,238.02,237.27,237.19,236.36,234.71,232.20,229.18,227.25,228.85,233.12,239.30,246.67,252.89,258.06,263.53,269.91,275.06,278.88,282.23,285.35,288.13,290.65,293.38,296.11,298.48,300.89,304.28,308.45,313.05,317.31,322.12,325.30,326.55,326.24,324.70,321.80,317.90,313.32,309.05,305.18,301.50,297.91,294.34,290.73,286.78,282.44,277.84,274.06,277.60,284.41,291.75,298.75,305.02,311.76,318.45,323.28,327.10,331.66,337.50,344.60,351.29,358.31,364.54,369.32,372.38,375.00,377.35,379.70,382.34,385.25,388.13,390.72,392.96,395.21,397.41,399.04,400.00,400.37,400.34,399.93,399.10,397.63,395.57,393.41,391.34,389.14,386.17,383.08,379.45,375.05,369.77,364.64,360.08,355.75,351.25,345.88,338.82,332.01,326.34,322.32,319.53,317.26,315.09,312.69,309.68,306.35,303.23,300.57,298.26,295.99,294.14,292.50,290.51,287.68,284.39,280.43,275.53,270.12,265.13,260.71,256.74,252.63,245.98,239.06,232.74,227.49,223.35,220.51,217.70,214.19,209.59,204.08,196.36,188.12,182.26,175.91,169.92,163.78,157.09,150.32,144.46,141.77,142.34,144.54,148.00,153.26,159.70,166.60,173.12,179.06,184.60,189.94,195.53,201.31,208.12,215.80,223.73,230.75,237.00,242.54,247.35,251.91,257.09,264.12,272.22,278.30,282.90,287.28,292.51,298.70,301.22,300.75,298.50,295.11,291.62
161.85,168.14,175.27,182.81,189.67,196.31,203.76,210.90,217.08,223.35,229.76,235.82,241.24,245.67,249.71,252.71,254.95,256.69,257.94,258.31,257.78,256.37,254.31,251.13,247.68,244.31,241.18,238.25,235.84,234.03,233.04,233.04,233.74,234.49,234.88,234.47,233.53,232.13,230.31,227.91,224.80,221.27,217.32,212.93,208.33,204.34,201.62,200.07,199.63,200.36,201.29,202.78,205.16,207.55,209.80,213.01,216.78,219.20,220.90,224.22,228.14,230.50,229.78,225.83,220.68,215.82,213.23,211.38,209.77,208.18,206.73,207.42,211.09,216.24,221.67,226.50,229.98,231.81,232.28,232.40,231.86,231.07,230.77,231.58,232.20,231.51,229.69,227.20,225.54,227.30,231.03,236.06,242.39,249.20,254.32,258.80,263.98,270.53,274.61,277.57,280.22,282.86,284.95,287.04,289.11,291.02,293.19,297.33,302.33,307.49,312.51,317.05,320.09,321.43,320.98,319.50,316.31,312.38,308.50,304.67,300.68,296.86,293.09,288.85,285.19,281.01,276.26,271.66,269.73,274.07,281.00,288.21,294.96,301.20,307.54,314.31,321.31,325.25,328.98,333.93,340.55,346.70,352.90,358.88,364.22,368.29,371.57,374.07,376.12,378.22,381.30,384.42,387.34,389.99,392.35,394.51,396.45,398.06,398.97,398.93,398.46,397.86,397.16,396.11,394.28,392.36,390.48,388.08,385.12,381.82,377.90,372.94,368.37,363.91,359.62,355.51,351.31,345.93,340.19,334.28,328.27,324.59,321.82,319.25,316.56,313.56,310.52,307.53,304.74,302.45,300.23,298.18,296.20,294.01,291.16,287.63,283.60,279.04,273.82,268.71,264.00,259.72,255.65,250.69,244.45,238.08,232.93,228.94,225.72,222.52,218.69,213.40,206.86,198.66,190.23,183.91,177.97,172.29,166.28,159.63,152.94,145.63,141.29,140.50,141.73,145.19,149.77,155.53,162.82,169.74,175.98,181.74,187.19,192.69,198.23,205.13,213.04,220.73,227.84,233.93,239.42,244.44,248.76,254.25,262.04,270.95,277.26,282.16,286.63,291.80,297.92,300.47,300.21,298.12,294.75,291.26
160.53,166.45,173.29,181.03,188.84,195.84,203.47,210.67,216.72,222.85,229.09,234.89,239.96,244.05,247.74,250.47,252.44,253.77,254.51,254.82,254.38,252.94,250.41,247.06,243.63,240.33,237.13,233.78,230.96,229.00,228.19,228.33,228.96,229.59,229.88,229.34,228.34,226.85,224.90,222.33,219.04,215.56,211.75,207.49,203.01,198.87,195.64,193.38,192.15,191.95,191.86,192.24,193.55,195.44,199.16,203.36,207.40,210.79,212.21,214.64,217.72,219.98,220.27,217.65,213.76,209.21,203.87,199.53,196.14,193.74,193.21,196.56,201.62,207.52,213.75,218.96,222.84,225.14,226.06,226.29,225.69,224.95,224.79,225.82,227.31,227.48,226.41,224.56,223.52,225.33,228.62,232.90,238.50,245.30,250.28,254.15,258.32,264.77,269.17,272.32,274.90,277.31,278.97,280.59,282.33,284.28,286.73,291.18,296.49,302.00,307.56,312.07,315.13,316.60,316.12,314.67,311.56,307.84,304.28,300.50,296.15,291.72,287.33,282.75,278.86,274.55,269.82,265.78,265.69,270.81,277.81,284.77,291.13,297.31,303.41,310.17,318.63,323.30,326.90,331.25,337.13,342.67,347.97,353.26,358.44,362.89,366.38,369.14,371.51,373.87,376.78,380.02,383.29,386.34,388.89,391.12,393.31,395.33,396.55,396.63,396.30,396.00,395.94,395.76,394.75,393.25,391.48,389.55,386.88,383.92,380.50,376.20,372.06,367.96,363.88,359.87,356.02,351.69,346.80,341.24,335.05,331.39,328.05,324.65,321.37,318.21,315.13,312.00,308.89,306.19,303.88,301.72,299.54,297.17,294.13,290.39,286.26,281.79,276.75,271.71,267.00,262.61,258.46,254.40,248.98,243.03,237.79,233.66,230.01,226.37,222.18,216.44,209.32,201.12,192.87,186.06,180.14,174.62,168.80,162.35,155.74,148.18,142.46,139.60,139.81,142.51,146.40,151.70,159.06,166.43,172.99,179.05,184.79,190.43,195.98,202.75,210.41,217.84,225.00,231.15,236.67,241.73,246.24,252.16,260.32,269.55,276.33,281.57,286.07,291.00,296.75,299.43,299.40,297.50,294.25,290.85
159.28,165.11,171.52,179.10,187.90,195.31,203.17,210.50,216.56,222.44,228.64,234.03,238.41,242.05,245.34,247.90,249.78,250.90,251.40,251.53,251.05,249.44,245.99,242.36,239.03,235.93,232.71,228.88,225.64,223.47,222.63,222.72,223.32,223.84,223.93,223.20,222.11,220.48,218.44,216.04,213.34,210.11,206.17,201.76,198.12,194.84,191.75,188.86,186.40,184.31,182.60,181.38,180.94,181.75,188.06,193.89,197.90,202.29,204.09,205.93,207.80,209.01,210.28,209.47,207.28,203.90,199.07,194.20,189.74,186.32,185.40,188.23,192.79,198.41,204.82,210.53,214.73,217.91,220.10,220.88,220.63,220.02,219.66,220.18,221.74,222.64,222.39,221.21,221.00,222.61,225.60,229.75,235.22,241.28,245.91,249.59,253.19,257.73,262.40,266.34,269.27,271.25,272.51,273.88,275.73,278.40,281.75,286.00,290.79,295.99,301.53,306.66,310.29,312.08,311.72,310.28,307.72,304.39,300.43,296.00,291.10,285.75,280.37,276.01,271.79,267.50,263.36,260.49,261.95,267.79,274.87,281.48,287.38,293.47,299.60,306.46,315.18,321.07,325.33,329.44,334.28,339.14,343.65,348.00,352.25,356.24,359.31,362.37,365.70,369.15,371.50,374.79,378.45,381.86,384.74,387.27,389.66,391.75,393.01,393.42,393.49,393.61,393.98,394.34,394.61,393.92,392.21,390.56,388.38,385.68,382.64,379.36,375.56,372.07,368.43,364.32,360.10,355.88,351.34,346.63,342.43,339.83,335.97,331.44,327.37,323.82,320.33,316.77,313.13,309.55,306.92,304.69,302.51,300.03,296.60,292.73,288.48,283.75,278.70,273.92,269.47,265.23,260.93,256.78,252.28,247.30,241.93,237.29,233.13,228.99,224.38,218.43,211.36,203.66,195.85,188.67,182.32,176.74,171.21,165.17,158.60,152.20,145.53,139.94,139.07,140.09,143.28,148.42,155.53,163.38,170.29,176.65,182.77,188.78,194.72,201.12,208.00,215.26,222.38,228.86,234.52,239.42,244.61,250.96,258.96,267.91,275.47,281.07,285.60,290.15,295.18,298.06,298.29,296.60,293.54,290.35
158.22,164.29,170.65,177.97,186.76,194.69,202.89,210.43,216.62,222.44,228.20,233.06,236.87,239.86,242.67,244.73,246.13,246.91,247.12,246.58,245.21,242.88,239.57,236.24,232.93,229.37,225.24,221.53,218.59,216.66,215.97,216.03,216.80,217.33,217.33,216.82,215.53,213.75,211.69,209.41,206.85,203.98,200.74,197.27,194.15,191.02,187.81,184.54,181.20,177.59,174.63,172.33,170.70,170.00,173.93,178.15,181.50,185.21,187.94,193.15,198.53,200.58,200.48,200.40,199.46,196.56,190.94,186.36,182.07,178.50,177.52,180.38,184.88,190.51,197.08,202.88,207.37,211.07,214.10,216.12,216.63,216.31,215.88,216.00,217.12,218.40,218.78,218.13,218.00,219.39,222.06,226.09,231.94,237.66,241.41,244.45,247.98,251.90,256.00,259.60,262.42,264.32,265.59,267.28,269.69,272.96,276.73,281.16,285.68,290.13,295.03,300.89,305.49,308.09,308.30,307.41,305.19,301.40,295.66,288.92,283.56,278.62,273.92,270.25,266.39,262.50,258.98,257.13,259.75,265.50,272.28,278.99,284.94,290.16,295.92,302.84,311.07,317.61,322.59,326.89,331.10,335.34,339.42,343.41,347.25,350.75,353.53,356.33,359.22,361.91,363.98,367.57,371.79,375.89,379.59,382.66,384.97,386.80,388.64,390.02,390.91,391.51,391.99,392.49,393.12,393.25,392.58,391.13,389.38,386.78,383.79,381.19,378.49,375.40,372.19,368.99,365.56,360.95,356.04,351.30,347.22,344.72,341.48,337.69,333.87,329.57,325.56,321.74,317.95,314.07,310.39,307.46,305.00,302.32,299.02,294.92,290.36,285.50,280.45,275.84,271.49,267.17,262.63,258.07,253.53,248.80,243.70,238.87,234.21,229.49,224.32,218.06,211.19,204.02,197.01,190.67,184.11,178.27,172.95,167.64,161.13,154.90,148.40,142.41,139.52,138.90,140.74,145.41,153.46,161.87,169.17,175.61,181.64,188.22,194.23,200.40,206.95,213.91,220.81,227.50,233.61,238.97,244.44,250.45,257.65,265.89,274.01,280.21,285.05,289.34,293.47,296.40,297.20,295.92,292.89,289.76
157.32,163.59,169.98,177.06,185.56,194.03,202.62,210.36,216.66,222.38,227.65,231.98,235.27,237.62,239.77,241.12,241.88,242.22,241.97,240.66,238.48,235.61,232.62,229.56,226.25,222.33,217.56,214.09,211.52,209.87,209.28,209.24,209.96,210.38,210.29,209.95,208.58,206.82,204.91,202.84,200.47,197.98,195.44,192.85,190.06,186.90,183.38,179.60,175.62,171.13,167.45,164.48,162.09,160.31,161.22,163.18,165.43,167.85,170.79,177.84,185.31,188.02,187.07,187.43,187.43,185.28,179.89,176.33,173.09,170.29,169.76,172.61,176.85,182.06,188.17,194.11,199.37,203.58,206.81,209.31,210.12,210.32,210.53,211.25,213.06,214.84,215.64,215.25,214.87,216.06,218.50,222.35,228.34,234.11,237.33,239.83,243.21,246.78,250.18,253.25,255.84,257.72,259.08,261.06,263.96,267.81,271.76,276.26,280.53,284.28,288.33,294.03,299.53,303.64,305.11,305.13,303.33,298.68,290.41,281.89,276.33,271.93,267.99,264.83,261.25,257.64,254.79,254.28,258.12,263.67,269.97,276.61,282.64,287.09,292.39,299.16,307.01,313.96,319.49,324.00,327.85,331.52,335.11,338.75,342.34,345.51,348.14,350.60,352.85,354.69,356.64,360.29,364.73,369.32,373.75,377.43,379.86,381.56,383.83,385.95,387.57,388.71,389.46,390.29,391.25,392.11,392.43,391.36,390.04,387.65,384.82,382.67,380.90,378.28,375.56,373.20,370.60,366.04,360.96,356.03,351.63,348.81,346.08,343.10,339.68,334.99,330.57,326.48,322.58,318.61,314.07,310.20,307.03,304.05,300.86,296.58,291.77,286.85,281.81,277.30,272.95,268.51,263.72,258.64,253.72,248.91,244.03,238.93,233.87,228.69,223.02,216.07,209.42,202.96,196.94,191.69,185.22,179.26,174.12,169.38,163.08,156.86,150.74,144.97,140.45,138.38,138.89,143.05,152.03,161.10,168.72,175.12,180.96,187.98,193.91,199.89,206.29,213.03,219.81,226.71,233.23,239.02,244.56,250.19,256.67,264.23,272.46,279.03,284.22,288.50,292.04,294.97,296.19,295.25,292.27,289.13
156.67,162.86,169.26,176.22,184.34,193.38,202.31,210.21,216.52,221.89,226.81,230.72,233.54,235.43,236.41,236.76,236.79,236.49,235.34,233.37,231.05,228.50,225.56,222.35,219.07,215.50,211.38,208.00,205.52,203.94,203.25,202.88,202.88,202.80,202.50,201.98,200.89,199.62,198.24,196.69,194.81,192.73,190.41,187.83,185.08,181.89,177.69,172.94,168.66,164.80,161.45,158.52,156.13,154.64,154.13,154.24,154.75,155.40,156.30,158.69,161.44,163.09,164.17,164.96,165.41,165.14,163.49,162.28,161.52,161.36,162.37,164.71,167.89,171.37,175.44,181.96,189.21,194.16,196.23,196.76,196.46,197.62,200.23,204.06,209.78,212.68,213.42,212.74,211.73,212.80,215.23,218.80,223.91,230.47,234.38,236.91,239.62,242.72,245.69,248.40,250.74,252.58,253.92,255.73,258.66,263.12,266.98,271.00,274.92,278.43,281.42,284.64,290.52,297.65,301.87,303.44,302.37,296.33,284.52,276.70,271.51,267.13,263.10,259.69,255.66,251.86,249.73,251.44,256.93,262.53,268.13,274.00,279.89,284.37,289.16,295.29,303.46,310.63,316.22,320.76,324.62,327.85,330.56,333.52,336.91,340.16,342.93,345.19,347.17,349.15,351.26,354.14,357.80,362.14,366.76,371.14,374.34,376.50,378.39,380.25,382.07,383.83,385.57,387.45,389.30,390.63,391.19,391.02,390.15,388.39,386.17,384.11,382.36,380.52,378.45,376.11,373.66,370.57,366.34,361.34,356.72,353.15,349.88,346.68,343.39,339.49,334.99,330.53,326.38,322.44,317.99,312.98,308.18,304.67,301.24,296.99,292.24,287.25,282.29,277.72,273.30,268.78,263.75,258.08,252.53,247.27,242.13,236.45,231.15,225.95,219.95,211.48,204.96,199.58,194.88,190.57,184.82,179.27,174.23,169.45,163.75,157.71,151.81,146.36,141.79,138.79,138.47,142.17,151.30,161.28,168.98,175.15,180.84,187.84,193.49,199.36,205.80,212.61,219.61,226.75,233.40,239.12,244.48,250.10,256.53,263.75,271.04,277.24,282.72,287.55,291.42,294.30,295.39,294.48,291.67,288.47
156.03,162.18,168.68,175.69,183.69,192.84,201.64,209.41,215.77,220.99,225.40,228.72,230.94,232.15,232.31,231.79,231.07,230.38,229.05,226.94,224.67,222.34,219.58,216.57,213.14,209.31,205.33,202.43,200.01,198.09,196.84,196.14,195.77,195.50,195.21,194.75,194.08,193.17,192.08,190.78,189.03,187.02,184.72,181.96,178.53,175.13,171.17,166.89,162.91,159.18,155.91,153.10,150.87,149.18,147.94,146.86,146.06,146.07,146.30,147.10,148.23,149.44,150.85,151.81,152.56,153.11,153.06,152.78,153.00,154.05,156.16,158.44,161.02,163.48,166.00,170.34,175.65,179.69,181.79,182.41,182.90,187.27,193.88,200.50,209.40,213.47,214.28,213.04,210.66,210.04,211.87,215.34,219.22,224.48,229.94,234.15,236.40,238.89,241.50,244.07,246.31,247.68,248.82,250.58,253.49,257.93,262.05,265.66,269.01,272.13,274.81,277.32,282.11,289.09,296.42,300.67,299.06,291.38,278.99,272.06,267.07,262.62,258.43,254.64,250.53,246.97,245.46,248.45,256.12,262.31,267.15,271.57,276.83,281.35,285.90,291.42,299.19,306.62,312.36,317.05,321.16,324.28,326.66,329.05,331.62,334.02,336.18,338.36,340.64,343.10,345.58,348.51,351.92,355.88,360.14,364.15,367.85,371.06,373.34,375.28,377.33,379.50,381.76,384.12,386.35,388.06,389.08,389.51,389.38,388.73,387.50,385.63,383.98,382.43,380.69,378.64,376.43,373.84,370.43,366.25,361.76,357.48,353.56,350.00,346.73,342.92,338.45,333.92,329.59,325.40,320.76,314.94,309.05,304.91,300.96,296.14,291.12,286.39,281.67,277.34,273.02,268.47,263.35,257.26,251.03,245.06,239.45,233.45,228.06,221.98,214.62,206.68,200.82,196.03,191.75,187.58,182.65,177.87,173.25,168.53,163.15,157.14,151.46,146.43,142.13,138.61,138.11,142.00,151.46,161.74,169.35,175.22,180.48,187.06,192.62,198.12,204.33,211.95,219.25,226.48,233.07,238.61,243.93,249.66,255.97,262.88,270.11,276.09,281.69,286.87,291.01,293.78,294.70,293.73,291.00,287.75
155.28,161.47,168.07,175.19,183.26,192.31,200.71,208.20,214.60,219.71,223.56,226.21,227.72,228.12,227.65,226.44,225.12,224.14,222.93,220.97,218.81,216.57,213.81,211.00,207.47,203.43,199.59,197.27,194.81,192.40,190.51,189.55,189.02,188.72,188.51,188.17,187.81,187.07,186.03,184.74,182.95,180.86,178.49,175.55,171.47,167.94,164.62,161.29,157.78,153.96,150.69,148.09,146.05,143.88,142.12,140.21,138.50,138.28,138.40,138.93,139.77,140.79,141.74,142.67,143.62,144.50,145.05,145.14,145.73,147.27,150.02,152.41,154.79,156.88,158.41,159.83,161.89,164.48,167.08,168.75,170.85,178.79,189.32,198.34,210.15,215.60,216.54,214.40,210.53,207.69,208.40,211.56,214.43,217.91,224.62,230.62,232.89,235.01,237.34,239.85,242.06,242.88,243.86,245.74,248.65,252.75,257.13,260.39,263.12,265.70,268.16,270.63,274.01,279.50,288.54,294.69,292.45,284.22,273.58,267.75,262.88,258.31,253.97,249.82,245.80,242.72,241.83,245.59,255.66,262.42,266.41,269.32,273.66,278.15,282.61,287.69,294.74,302.35,308.26,313.10,317.44,320.59,322.96,324.95,326.68,328.04,329.40,331.46,334.09,336.96,339.83,343.05,346.46,350.02,353.84,357.27,361.22,365.34,368.18,370.42,372.79,375.34,377.94,380.51,382.91,384.93,386.39,387.25,387.89,388.40,388.30,386.90,385.65,384.19,382.58,380.88,378.94,376.46,373.73,370.60,366.43,361.61,357.04,353.08,349.75,345.77,341.31,336.76,332.21,327.52,322.46,316.01,309.35,304.55,299.97,294.46,289.16,284.82,280.44,276.46,272.33,267.77,262.54,256.18,249.35,242.66,236.46,230.27,224.62,217.39,208.66,202.05,196.95,192.40,188.03,183.75,179.66,175.72,171.49,166.64,161.35,155.47,150.12,145.59,141.70,138.16,138.09,142.59,152.30,162.46,169.81,175.28,180.02,186.06,191.70,196.93,202.85,211.13,218.54,225.78,232.28,237.66,243.00,248.98,255.21,261.86,269.47,275.33,280.95,286.33,290.72,293.35,294.03,292.98,290.31,286.95
154.16,160.52,167.06,174.16,182.66,191.50,199.40,206.50,212.74,217.58,220.98,222.96,223.60,222.96,221.94,220.62,219.26,218.12,216.93,215.20,213.18,210.68,206.91,203.50,200.47,197.64,194.91,192.84,190.03,187.25,185.33,184.42,183.96,183.68,183.41,182.92,182.21,180.98,179.41,177.67,175.78,173.60,171.22,168.53,165.29,162.37,159.51,156.49,153.01,148.98,146.07,143.90,141.81,138.91,136.11,133.72,131.91,130.98,130.75,130.74,131.01,131.67,132.07,132.68,133.61,134.81,135.83,136.59,137.85,139.67,141.84,144.14,147.26,150.34,152.45,153.11,153.94,155.90,158.83,161.60,165.12,173.78,184.78,195.04,210.09,217.76,218.79,214.94,210.54,206.07,204.61,206.19,209.60,213.43,218.44,223.45,227.39,230.53,232.69,235.00,237.26,238.03,239.43,241.81,244.92,248.55,252.52,255.53,257.84,259.58,260.73,262.63,266.04,270.45,274.43,276.99,276.10,272.71,267.94,263.78,259.01,254.34,249.99,245.70,241.81,239.51,239.43,243.53,255.92,262.17,265.07,267.56,270.66,274.70,279.30,284.51,290.91,298.26,304.20,308.99,313.02,316.14,318.78,321.05,322.91,324.22,325.49,327.07,329.05,331.53,334.26,337.40,340.73,344.21,348.17,352.21,355.88,359.05,361.80,364.56,367.67,370.89,373.92,376.71,379.34,381.46,382.93,383.96,384.95,385.98,386.78,386.98,387.08,385.94,384.30,382.65,380.87,378.75,376.24,373.29,369.63,364.84,359.92,355.58,352.11,348.17,343.38,338.46,333.48,327.65,321.69,314.72,307.70,302.35,297.15,291.70,286.72,282.64,278.74,275.08,271.09,266.46,260.83,254.45,247.60,240.58,233.68,227.31,220.43,212.59,204.47,198.50,193.64,188.75,183.95,180.00,176.56,173.05,168.45,162.42,156.87,151.82,147.34,143.41,139.97,137.69,139.36,145.03,154.32,163.84,170.44,175.30,179.64,185.33,191.40,197.29,203.30,210.11,216.70,223.80,230.45,235.94,241.28,247.93,254.37,260.86,269.16,274.99,280.53,286.02,290.59,293.03,293.27,292.11,289.69,285.94
153.25,159.74,166.27,173.26,181.69,190.52,198.10,204.78,210.65,215.16,218.22,219.73,219.76,218.46,217.01,215.53,214.03,212.49,211.18,209.32,207.05,204.23,200.42,197.14,194.55,192.31,189.97,187.70,184.75,182.03,180.32,179.47,178.96,178.53,177.95,176.84,175.64,174.17,172.50,170.69,168.93,166.91,164.75,162.46,160.01,157.66,155.02,151.88,148.01,143.78,140.89,138.66,136.37,133.54,130.72,128.35,126.49,124.89,123.98,123.26,122.84,122.93,123.02,123.51,124.48,125.90,127.43,129.01,130.91,132.96,134.88,137.29,140.62,144.04,146.59,147.32,147.90,149.43,152.09,155.54,159.97,168.38,179.23,191.06,207.14,216.25,217.96,213.65,208.89,203.54,200.19,199.99,203.89,208.50,213.13,217.78,222.36,225.93,227.97,229.91,231.85,232.80,235.08,238.09,241.45,244.94,248.41,251.04,252.96,254.13,254.59,256.06,259.24,262.88,264.35,265.25,265.50,265.03,263.37,259.78,255.12,250.57,246.41,242.28,238.63,236.84,237.22,241.06,251.76,259.15,263.37,265.58,267.78,272.00,276.66,281.48,287.25,294.27,300.18,304.87,308.51,311.43,313.81,316.05,318.14,319.76,321.46,323.03,324.65,326.72,329.40,332.49,335.69,338.95,342.58,346.98,350.67,353.53,356.27,359.19,362.40,365.83,369.35,372.78,375.72,377.95,379.50,380.84,382.17,383.49,384.75,385.82,386.73,386.46,385.50,384.14,382.47,380.60,378.30,375.47,372.00,367.38,362.26,357.55,353.83,349.92,344.91,339.59,333.97,327.14,320.16,312.81,305.73,300.00,294.50,288.85,283.75,279.70,276.06,272.48,268.51,263.94,258.53,252.47,245.79,238.69,231.38,224.47,217.10,209.14,201.27,195.60,190.61,185.50,180.65,176.99,173.79,169.63,164.31,158.15,152.85,148.46,144.54,140.95,137.97,137.79,141.62,148.25,156.61,165.53,171.66,176.31,180.57,185.80,192.25,198.64,204.66,210.47,216.32,222.99,229.44,234.89,240.05,246.71,253.34,260.18,269.01,274.81,280.29,285.80,290.45,292.68,292.64,291.39,288.98,284.78
152.66,159.19,165.76,172.56,180.40,189.41,196.87,203.14,208.47,212.56,215.37,216.62,216.34,214.76,212.90,211.14,209.30,207.22,205.63,203.35,200.52,197.40,194.52,192.05,189.75,187.38,184.63,181.80,179.00,176.75,175.44,174.63,173.95,173.21,172.10,170.06,168.34,166.91,165.55,164.09,162.66,161.03,159.26,157.40,155.49,153.52,150.84,147.28,142.76,138.34,135.14,132.46,129.90,127.90,125.97,124.04,122.04,119.91,118.06,116.55,115.43,114.84,114.78,115.38,116.46,118.03,120.12,122.61,125.09,127.39,129.46,132.11,135.03,138.01,140.65,141.99,143.03,144.26,146.23,149.98,154.86,162.41,172.85,186.48,201.56,211.15,214.02,210.53,205.50,199.93,195.23,193.37,197.50,202.94,208.62,213.75,217.81,221.12,223.05,224.50,225.85,227.28,230.74,234.44,238.07,241.74,244.73,246.91,248.46,249.38,249.85,251.08,253.65,256.81,258.91,260.50,261.42,261.40,259.75,255.69,251.20,247.00,243.18,239.44,236.10,234.53,235.00,238.07,243.64,253.35,260.74,262.90,264.86,269.97,274.69,278.65,283.81,290.45,296.25,300.78,303.99,306.52,308.12,309.90,312.13,314.30,316.93,319.03,320.71,322.53,325.22,328.26,331.29,334.22,337.10,341.44,345.46,348.75,351.66,354.39,357.13,360.28,364.25,368.58,371.91,374.38,376.22,378.00,379.67,381.13,382.42,383.59,384.67,385.69,386.05,385.30,383.76,382.05,379.95,377.27,373.65,369.26,364.04,358.98,354.93,350.96,345.92,340.21,333.77,326.11,318.15,310.58,303.69,297.76,292.19,285.96,280.28,276.02,272.36,268.61,264.56,260.21,255.58,250.11,243.76,236.80,229.39,221.74,214.78,207.08,198.94,193.28,187.83,182.70,178.20,174.69,171.23,165.56,159.38,154.13,149.57,145.59,141.87,138.44,136.14,138.68,144.70,151.93,158.98,167.47,173.50,178.32,182.79,187.46,194.23,200.88,206.85,212.37,217.67,223.67,229.59,234.75,239.58,245.59,252.28,259.85,269.02,274.75,280.17,285.68,290.28,292.30,292.15,290.78,288.14,283.50
152.55,159.08,165.50,172.00,179.34,188.25,195.75,201.83,206.64,210.31,212.64,213.59,213.22,211.55,208.62,205.98,203.74,201.75,200.03,197.67,194.85,191.81,189.04,186.70,184.43,181.96,178.98,175.93,173.62,172.03,171.10,170.39,169.69,168.76,167.40,165.42,163.52,161.97,160.54,159.07,157.87,156.36,154.65,152.78,150.72,148.33,145.34,141.71,137.37,132.90,129.89,127.60,125.44,123.67,121.57,119.38,117.16,114.87,112.43,110.67,109.54,108.85,108.33,108.63,109.81,111.85,114.38,117.48,120.61,123.40,125.44,127.72,130.07,132.34,134.37,135.97,136.97,138.28,140.71,145.26,150.69,157.87,167.75,181.56,196.70,206.06,209.00,205.98,200.92,195.35,190.75,188.93,192.70,197.56,202.83,207.78,211.85,214.99,216.57,217.72,219.29,222.37,226.42,230.55,234.45,237.95,240.90,242.97,244.33,245.09,245.63,246.87,249.08,251.88,254.37,256.10,257.05,256.93,255.07,251.26,247.47,243.75,240.03,236.43,232.96,231.42,232.03,234.91,239.27,246.34,252.56,256.38,260.66,267.11,272.56,276.81,281.61,287.61,292.85,296.92,299.65,301.46,302.27,303.16,304.75,307.49,311.32,314.46,316.88,319.08,321.18,323.56,326.37,329.52,332.52,336.24,340.00,343.51,346.69,349.67,352.47,355.46,359.04,362.85,366.81,370.33,373.08,375.00,376.77,378.40,379.94,381.46,382.76,384.06,385.05,385.35,384.72,383.17,381.20,378.69,374.89,370.45,365.08,359.74,355.34,351.19,346.20,340.24,333.01,324.21,316.28,308.91,302.07,295.92,289.57,282.69,276.49,271.77,267.74,263.57,259.50,255.50,251.17,245.98,240.18,233.63,226.21,219.30,213.04,205.63,197.31,191.52,185.54,180.42,176.26,172.60,167.75,161.59,155.59,150.74,146.51,142.71,139.23,136.72,137.11,141.62,147.88,154.37,160.78,169.55,175.87,180.69,184.92,189.59,196.91,204.04,210.25,215.77,220.93,226.48,231.87,236.62,241.12,246.48,252.57,259.89,269.24,274.89,280.18,285.59,290.12,291.84,291.48,289.79,286.77,282.21
152.54,159.15,165.44,171.63,178.43,186.87,194.38,200.43,204.81,208.07,209.78,210.16,209.41,207.53,204.02,200.88,198.41,196.43,194.43,191.93,189.13,186.18,183.42,180.99,178.65,176.19,173.40,170.58,168.84,167.79,167.10,166.45,165.72,164.62,163.14,161.51,159.68,158.04,156.51,154.93,153.68,152.09,150.27,148.25,145.93,143.13,139.90,136.28,132.22,127.83,124.90,122.77,120.80,118.89,116.38,113.83,111.46,109.19,106.82,105.26,104.36,103.74,102.95,102.91,103.91,105.91,108.31,111.59,115.27,118.67,120.93,123.09,125.16,126.94,128.36,129.88,130.72,132.25,135.35,140.74,146.95,154.01,163.19,176.30,191.15,200.19,203.34,201.07,196.19,191.03,186.91,185.19,188.06,192.42,197.17,201.69,205.52,208.35,209.72,210.95,213.20,217.77,222.27,226.47,230.25,233.44,236.23,238.22,239.67,240.67,241.39,242.86,244.96,247.50,250.13,251.87,252.73,252.44,250.51,247.19,243.82,240.13,236.21,232.88,229.52,228.17,228.97,231.77,235.70,240.42,245.36,250.50,256.71,264.23,270.47,275.22,279.75,284.96,289.55,293.13,295.43,296.68,296.99,297.23,298.28,301.52,306.19,310.33,313.60,316.09,317.70,319.45,321.79,324.75,327.50,330.49,333.96,337.75,341.32,344.73,347.76,350.75,353.97,357.27,361.51,365.69,369.14,371.56,373.69,375.54,377.29,379.15,380.79,382.27,383.66,384.80,385.15,383.98,382.18,379.74,375.79,371.19,365.72,360.24,355.57,351.23,346.18,339.88,331.93,322.39,314.71,307.53,300.63,294.29,287.13,279.99,273.62,268.44,263.89,259.06,254.54,250.36,246.12,241.22,236.06,230.03,222.74,216.87,211.31,204.22,195.91,189.87,183.59,178.49,174.38,170.13,163.94,157.69,152.17,147.66,143.63,139.99,136.99,135.74,138.81,144.66,150.68,156.69,163.53,171.86,178.05,182.76,186.88,191.99,199.91,207.58,214.13,219.56,224.53,229.72,234.72,239.16,243.41,248.15,253.64,260.54,269.75,275.19,280.18,285.37,289.84,291.21,290.51,288.46,285.16,280.80
152.56,159.40,165.71,171.58,177.72,185.03,192.46,198.63,202.76,205.71,206.56,205.84,204.04,201.63,198.83,196.29,193.94,191.53,188.88,185.95,182.90,179.89,177.32,174.66,172.15,169.91,168.06,166.29,165.15,164.31,163.57,162.87,161.98,160.70,159.24,158.13,156.70,155.19,153.60,151.89,150.07,148.10,145.99,143.69,141.19,138.39,135.21,131.63,127.60,123.51,120.23,117.43,114.84,112.34,109.36,106.57,104.21,102.23,101.12,100.44,99.92,99.44,98.96,98.69,98.90,99.68,100.81,103.52,107.50,111.72,114.73,117.59,120.08,121.94,123.05,123.94,124.66,126.51,130.19,136.22,143.67,150.91,159.16,170.50,183.82,192.71,196.83,196.08,191.66,187.70,184.18,181.90,183.03,187.72,192.41,196.24,199.05,201.31,202.78,204.86,208.32,213.49,218.46,222.11,224.96,227.68,229.86,231.72,233.72,235.76,236.89,238.93,241.29,243.71,246.09,247.83,248.64,248.37,246.70,244.00,240.24,235.60,230.95,228.34,225.75,224.97,226.06,228.73,232.06,237.32,242.78,247.78,253.87,261.70,268.51,273.74,278.02,282.26,286.18,289.36,291.36,292.54,292.95,293.24,294.34,297.93,302.59,307.38,311.40,313.72,315.31,316.75,318.23,319.74,321.16,323.40,326.84,331.10,335.25,339.29,342.71,345.90,349.27,352.70,356.43,360.03,363.49,367.27,370.38,372.58,374.37,376.39,378.64,380.56,382.17,383.51,384.62,384.27,382.80,380.23,376.15,371.29,365.84,360.47,355.75,351.26,345.88,338.99,330.46,321.16,313.69,306.48,299.41,292.91,285.24,278.62,272.78,267.32,262.06,256.21,250.28,244.80,240.37,236.01,231.59,226.16,219.23,214.35,209.30,202.64,194.66,188.22,182.13,177.06,172.41,166.80,159.86,153.89,148.99,144.93,140.98,137.59,135.55,135.96,140.71,146.95,152.63,159.35,168.53,174.56,179.59,184.06,188.51,194.78,203.26,211.48,218.41,223.40,227.99,232.89,237.74,242.16,246.31,250.54,255.67,262.31,270.73,275.71,280.11,284.83,289.32,290.26,289.01,286.59,283.28,279.18
153.35,160.04,166.05,171.60,177.29,183.92,190.93,197.06,201.28,203.55,203.63,202.31,200.14,197.65,195.02,192.26,189.42,186.49,183.40,180.23,177.09,174.18,171.82,169.38,167.10,165.14,163.65,162.33,161.32,160.43,159.55,158.80,157.94,156.83,155.68,154.95,153.82,152.12,149.98,147.60,145.77,143.76,141.48,138.91,136.22,133.45,129.77,125.27,120.46,116.02,112.30,109.25,106.88,105.04,103.07,101.25,99.67,98.25,97.41,96.92,96.63,96.41,96.02,95.76,95.77,96.03,96.34,98.20,101.11,104.27,106.83,109.80,112.69,115.09,116.66,117.58,118.64,121.30,125.86,131.75,138.93,146.69,155.10,164.93,177.12,186.25,191.07,191.07,187.75,184.32,180.11,176.66,177.77,182.77,188.56,193.28,196.00,197.85,198.97,200.10,202.14,206.58,212.49,216.59,219.17,221.62,225.05,227.29,229.16,231.07,232.47,234.73,237.25,239.76,242.11,243.84,244.74,244.62,242.94,239.29,235.16,231.00,227.26,224.73,222.03,221.46,222.90,225.70,228.74,233.74,239.53,245.37,251.27,259.81,266.89,271.80,275.77,279.48,282.72,285.27,286.85,287.69,287.91,288.52,290.38,294.55,299.07,303.81,308.15,311.13,312.93,314.23,315.32,316.31,317.36,318.79,321.06,324.13,327.81,332.35,336.53,340.40,344.15,347.92,351.87,355.53,358.84,362.34,365.57,368.42,371.03,373.61,376.16,378.44,380.44,382.14,383.58,384.19,383.18,380.52,376.54,371.55,366.06,360.70,355.92,351.30,345.56,338.24,329.50,320.76,313.39,306.09,298.79,291.97,284.57,278.24,272.47,266.73,260.67,254.65,248.45,242.35,237.15,232.30,227.68,222.58,216.62,211.85,206.79,200.66,193.58,187.09,181.01,175.69,170.41,163.93,157.11,151.50,146.94,143.09,139.17,135.64,134.74,137.07,142.24,148.51,154.15,161.12,170.92,176.23,180.85,185.24,190.05,197.50,206.10,214.28,221.18,226.00,230.74,235.69,240.50,244.86,249.01,253.11,258.47,265.09,271.61,275.88,279.86,284.05,287.89,288.99,287.49,284.93,281.81,277.67
154.40,160.78,166.34,171.53,177.00,183.15,189.64,195.58,199.91,201.42,200.86,199.17,196.88,194.44,191.67,188.39,184.91,181.50,178.04,174.76,171.72,169.01,166.78,164.63,162.65,160.91,159.52,158.33,157.27,156.24,155.25,154.50,153.75,152.92,152.09,151.52,150.40,148.35,145.60,142.62,140.88,138.95,136.63,133.95,131.14,128.17,123.62,117.90,112.33,107.82,104.13,101.27,99.45,98.53,97.79,97.09,96.33,95.43,94.51,93.94,93.75,93.81,93.47,93.30,93.31,93.34,93.10,94.08,95.63,97.35,99.15,101.89,104.95,107.74,109.80,110.93,112.47,116.02,121.46,127.19,133.82,142.07,150.96,159.78,170.99,180.07,185.19,185.72,183.60,180.35,175.27,170.78,172.09,177.32,184.12,190.23,194.06,195.68,196.37,196.19,196.19,199.32,205.74,210.44,213.15,215.43,220.35,223.47,225.39,226.83,228.37,230.61,233.09,235.58,237.95,239.66,240.54,240.41,238.60,234.10,229.94,226.70,224.16,221.45,218.35,217.76,219.50,222.58,225.62,230.17,236.22,243.14,248.94,258.25,265.41,269.70,273.32,276.57,279.11,280.94,281.99,282.36,282.41,283.51,286.39,291.18,295.59,300.05,304.42,308.11,310.22,311.51,312.45,313.27,314.24,314.96,315.96,317.62,320.66,325.45,330.29,334.80,338.98,343.06,347.41,351.38,354.69,357.54,360.60,363.95,367.40,370.65,373.52,376.15,378.56,380.68,382.37,383.88,383.38,380.76,376.97,371.93,366.41,361.01,356.07,351.33,345.31,337.72,328.98,320.88,313.51,306.17,298.78,291.61,284.55,278.31,272.41,266.38,259.78,253.87,247.80,241.46,235.47,229.92,224.78,219.78,214.71,209.74,204.51,198.84,192.67,186.24,180.12,174.50,168.65,161.50,155.00,149.75,145.42,141.64,137.69,134.17,134.36,138.31,143.46,149.62,155.35,162.44,172.20,177.41,181.94,186.38,191.61,199.94,208.44,216.35,223.07,227.86,232.92,238.03,242.87,247.23,251.41,255.52,261.18,267.79,272.35,275.92,279.54,283.19,286.26,287.67,286.08,283.54,280.65,276.31
155.32,161.41,166.35,171.12,176.87,182.64,188.68,194.22,198.16,199.10,198.28,196.46,194.08,191.53,188.17,184.35,180.52,176.90,172.98,169.96,167.43,165.09,162.72,160.44,158.45,156.72,155.18,153.75,152.54,151.50,150.65,150.07,149.48,148.79,147.99,146.93,144.82,142.15,139.34,136.72,134.72,132.81,130.80,128.59,125.92,121.81,115.78,109.06,104.01,101.39,99.52,97.99,96.84,96.04,95.39,94.69,93.87,92.97,92.00,91.26,90.92,91.04,90.99,90.91,90.84,90.71,90.38,90.76,91.74,93.12,94.74,96.71,98.98,101.05,102.55,103.73,105.71,109.70,115.64,122.29,129.27,137.51,146.56,155.91,166.23,173.50,177.76,179.02,177.69,174.16,169.31,165.08,165.13,170.38,176.21,183.36,191.59,193.51,194.11,193.67,192.92,194.39,198.95,203.53,206.93,209.13,213.98,219.16,222.66,224.00,225.40,227.18,228.93,230.78,233.09,234.64,234.91,234.03,231.99,229.14,226.28,223.66,221.13,218.11,214.78,213.84,215.43,219.07,222.80,227.33,233.55,241.19,247.33,257.07,263.99,267.56,270.83,273.36,275.08,276.11,276.42,276.21,276.54,278.46,282.31,287.55,292.13,296.38,300.37,303.84,306.29,307.82,308.86,309.59,310.18,310.70,311.59,313.27,316.54,320.78,325.27,329.76,334.15,338.28,342.59,346.98,351.10,354.16,357.03,359.96,363.20,367.04,370.79,373.77,376.43,379.01,381.25,383.22,383.19,381.02,377.49,372.61,367.14,361.56,356.19,351.34,345.36,337.91,329.45,321.77,314.12,307.11,300.32,292.89,285.31,278.77,272.55,266.21,260.15,254.30,248.28,242.12,236.16,230.50,224.94,219.48,214.18,209.05,203.77,198.18,192.14,185.71,179.59,173.91,167.80,160.16,153.49,148.48,144.34,140.45,136.33,133.89,134.77,138.72,144.02,150.06,155.98,163.31,172.95,178.19,182.78,187.57,193.27,201.47,209.56,217.12,223.70,228.63,233.89,239.10,244.10,248.77,252.98,257.05,262.50,268.70,272.74,275.97,279.15,282.32,285.09,286.60,285.22,282.88,280.06,275.32
155.76,161.80,166.34,170.74,176.77,182.63,188.37,193.41,196.69,196.74,195.63,193.78,191.33,188.29,184.48,180.35,176.27,172.44,168.57,165.77,163.44,161.19,158.77,156.48,154.46,152.69,151.08,149.52,148.28,147.27,146.44,145.85,145.19,144.31,143.05,141.18,138.43,135.68,133.22,131.12,129.12,127.25,125.28,122.94,119.71,114.03,107.96,102.62,99.04,97.47,96.40,95.44,94.59,93.83,93.19,92.48,91.67,90.79,89.93,89.21,88.85,88.98,88.97,88.86,88.73,88.56,88.24,88.34,88.97,90.02,91.28,92.56,94.09,95.59,96.88,98.14,100.04,103.43,108.68,115.82,123.57,132.52,142.05,151.39,160.59,166.93,170.86,172.45,171.54,168.00,163.45,159.58,159.10,163.34,167.61,173.78,182.77,187.18,189.95,190.13,188.68,189.73,192.96,196.85,200.27,202.59,206.16,210.50,214.38,217.06,218.48,220.02,222.36,225.25,227.82,229.31,229.68,228.94,227.11,225.21,223.01,220.72,218.19,214.85,211.57,210.41,211.63,215.25,219.63,224.42,230.58,238.15,244.67,254.65,261.78,265.27,267.52,268.96,269.92,270.29,269.85,269.17,270.64,274.02,278.86,284.04,288.51,292.56,296.30,299.57,301.93,303.50,304.58,305.24,305.43,305.72,306.83,309.14,313.04,317.15,321.44,325.84,330.20,334.25,338.42,342.68,346.82,350.36,353.48,356.30,359.31,363.17,367.44,371.11,374.30,377.18,379.98,382.33,382.82,381.28,378.08,373.57,368.29,362.54,356.61,351.58,345.68,338.38,330.07,322.63,315.17,308.44,302.01,294.84,287.04,280.14,273.59,267.13,261.58,255.70,249.48,243.17,237.30,231.86,226.01,220.06,214.55,209.31,203.69,197.84,191.80,185.46,179.37,173.50,167.16,159.41,152.54,147.67,143.72,139.78,135.37,133.49,134.70,138.62,144.28,150.42,156.87,164.44,173.31,178.61,183.53,188.74,194.73,202.45,210.26,217.55,223.91,228.90,234.22,239.50,244.67,249.58,253.78,257.81,262.98,268.72,272.57,275.60,278.47,281.29,283.85,285.69,284.52,282.32,279.53,274.49
155.71,161.93,166.41,170.65,176.88,183.09,188.58,192.98,195.39,194.42,192.98,191.13,188.58,184.78,180.57,176.32,172.15,168.19,164.72,162.05,159.66,157.28,154.89,152.70,150.69,148.85,147.21,145.63,144.44,143.44,142.53,141.70,140.78,139.42,137.44,134.72,131.77,129.38,127.50,125.88,124.06,122.18,119.98,117.13,113.00,105.94,101.03,98.58,96.88,95.51,94.30,93.24,92.38,91.67,91.03,90.37,89.66,88.90,88.22,87.67,87.40,87.48,87.32,87.11,86.94,86.81,86.54,86.61,87.04,87.72,88.50,89.29,90.24,91.39,92.71,94.03,95.44,97.72,101.69,108.64,117.00,126.86,137.04,146.13,154.19,160.37,164.41,165.94,165.09,161.79,157.59,154.13,153.81,156.42,158.96,162.80,169.54,177.44,183.65,185.18,183.48,185.19,187.72,190.57,193.45,195.98,197.61,199.09,202.29,206.96,208.64,210.20,213.97,218.96,222.07,223.75,224.86,225.03,223.76,222.10,220.00,217.82,215.36,211.78,208.71,207.42,208.17,211.34,216.13,221.25,227.13,233.99,240.83,250.66,258.19,262.11,263.03,263.38,263.80,263.75,262.70,261.76,264.80,269.90,275.63,280.45,284.67,288.57,292.20,295.30,297.25,298.68,299.75,300.30,300.17,300.31,301.92,305.19,309.94,314.28,318.58,322.86,327.00,330.90,334.89,338.62,342.15,346.17,349.80,352.81,355.69,359.19,363.60,368.18,372.12,375.21,378.55,381.23,382.34,381.58,378.74,374.76,369.83,364.00,357.50,352.17,346.33,339.17,330.96,323.52,316.56,310.05,303.78,297.31,289.61,282.34,275.47,269.08,263.92,257.96,251.38,244.65,238.64,233.58,227.56,221.21,215.56,210.29,204.12,197.79,191.66,185.46,179.39,173.28,166.71,159.18,152.13,147.29,143.47,139.51,134.75,132.89,134.13,138.14,144.28,150.72,157.87,165.62,173.35,178.75,184.12,189.75,195.85,202.94,210.62,217.72,223.83,228.77,234.00,239.30,244.60,249.67,253.82,257.86,262.71,267.99,271.90,274.83,277.52,280.11,282.54,284.85,283.90,281.80,279.02,273.84
154.93,161.48,166.91,172.16,178.37,184.29,188.94,192.22,193.64,192.49,190.85,188.64,185.62,181.40,176.11,171.79,168.19,164.64,161.22,158.46,155.97,153.53,151.13,149.17,147.31,145.42,143.54,141.83,140.49,139.34,138.22,136.87,135.44,133.76,131.76,129.43,126.97,124.83,122.97,121.22,119.16,116.49,113.97,111.60,108.30,103.30,99.51,97.13,95.22,93.66,92.26,91.17,90.49,89.83,89.17,88.54,87.94,87.35,86.66,86.13,85.86,85.83,85.63,85.39,85.19,85.02,84.87,84.96,85.27,85.77,86.48,87.30,88.23,89.19,90.10,90.98,91.93,95.17,100.45,105.12,110.88,119.00,129.03,139.82,147.86,153.69,157.33,158.43,157.16,154.19,150.72,147.97,147.86,150.12,152.60,155.96,161.21,167.41,173.10,176.59,178.26,180.79,183.27,185.60,187.90,190.15,191.68,193.07,195.38,198.70,201.22,203.29,206.69,211.13,214.97,217.88,220.12,221.17,220.47,219.07,217.16,215.07,212.67,209.41,206.31,204.77,205.26,208.33,212.48,217.06,222.22,228.21,234.98,242.86,249.45,253.71,254.96,256.03,257.10,257.54,256.90,256.72,259.50,264.33,270.21,275.46,280.25,284.32,287.74,290.48,292.28,293.64,294.51,294.83,294.88,295.89,298.39,302.30,307.24,311.84,316.11,320.25,324.30,328.03,331.88,335.44,338.70,342.31,345.75,348.88,352.03,355.74,359.96,364.88,369.50,373.27,376.80,379.86,381.86,382.15,379.63,376.05,371.79,366.51,359.94,353.92,347.85,340.97,333.14,325.10,317.96,311.63,305.87,300.18,292.83,285.36,278.35,272.18,267.09,261.19,254.70,247.60,239.85,234.58,228.71,222.35,216.48,211.48,205.02,198.31,191.95,185.68,179.57,173.47,166.97,159.57,152.65,147.56,143.42,139.31,134.34,131.95,133.24,137.76,143.91,150.65,157.88,165.51,173.10,178.55,184.00,189.72,195.83,202.69,210.38,217.55,223.61,228.17,232.99,238.14,243.37,248.36,252.73,256.92,261.47,266.29,270.61,273.56,276.20,278.80,281.30,283.63,283.12,281.27,278.48,273.73
153.73,160.66,167.13,173.49,179.70,185.16,189.04,191.39,191.93,190.62,188.66,186.07,182.60,177.69,171.97,167.79,164.59,161.37,157.99,155.06,152.41,149.91,147.51,145.78,143.96,141.86,139.58,137.74,136.25,134.97,133.72,132.13,130.50,128.73,126.81,124.83,122.90,121.00,119.05,116.89,114.61,111.75,109.32,107.51,105.22,102.34,99.48,96.78,94.20,92.08,90.54,89.52,88.96,88.33,87.63,86.98,86.40,85.84,85.13,84.59,84.28,84.15,83.93,83.78,83.64,83.52,83.45,83.50,83.64,83.97,84.68,85.60,86.60,87.47,88.10,88.67,89.31,92.61,97.78,100.60,105.32,111.80,120.48,131.62,140.28,146.09,149.52,150.49,149.26,146.70,143.86,141.79,142.17,144.74,147.58,150.87,155.07,159.48,164.16,168.84,173.13,176.26,178.70,180.74,182.69,184.69,186.33,187.93,189.61,191.65,194.73,197.27,200.18,203.77,208.01,211.97,215.24,217.14,217.06,216.06,214.43,212.36,209.82,206.75,203.58,201.73,202.06,205.36,208.98,213.12,217.63,222.72,229.10,235.23,241.16,245.99,247.69,249.33,250.79,251.56,251.45,252.07,254.63,258.88,264.36,269.78,274.83,279.15,282.66,285.16,286.69,287.81,288.57,289.08,289.97,292.03,295.34,299.63,304.48,309.27,313.60,317.66,321.64,325.26,328.97,332.44,335.60,338.89,342.15,345.34,348.62,352.30,356.30,361.50,366.75,371.21,374.89,378.35,381.12,382.36,380.49,377.43,373.70,368.92,362.61,356.14,349.67,343.01,335.81,327.52,319.80,313.42,308.09,302.99,296.40,288.77,281.48,275.41,270.24,264.40,257.90,250.50,241.95,235.95,229.97,223.62,217.41,212.63,206.08,199.11,192.48,186.13,179.97,173.87,167.47,160.30,153.57,148.20,143.65,139.21,133.78,131.02,132.34,137.15,143.30,150.33,157.43,164.80,172.47,178.16,183.68,189.39,195.40,201.91,209.57,216.89,223.00,227.15,231.46,236.44,241.57,246.43,251.03,255.33,259.61,264.08,268.77,272.01,274.75,277.44,280.18,282.45,282.28,280.64,277.86,273.73
152.08,159.41,166.73,173.98,180.28,185.21,188.67,190.53,190.44,188.72,186.15,183.30,179.55,173.36,168.61,164.87,161.55,158.32,155.10,151.93,149.03,146.47,144.11,142.48,140.50,137.93,135.03,133.14,131.57,130.20,129.02,127.79,126.54,125.01,123.14,121.08,119.48,117.84,115.73,112.98,110.68,108.83,107.24,105.77,104.19,102.41,100.14,97.35,94.06,90.92,89.29,88.51,87.94,87.27,86.52,85.78,85.04,84.31,83.61,83.08,82.72,82.50,82.28,82.34,82.48,82.54,82.47,82.36,82.27,82.37,83.03,84.01,85.03,85.94,86.66,87.28,87.85,89.05,90.89,93.26,100.50,106.41,112.06,120.63,130.55,136.93,140.61,142.12,141.88,139.85,137.35,135.76,137.17,140.70,144.13,147.41,151.03,155.23,159.31,163.69,168.12,171.40,173.64,175.63,177.62,179.57,181.12,182.52,184.04,186.03,189.04,191.83,194.60,197.72,201.70,206.06,210.06,212.78,213.41,213.00,211.81,209.66,206.64,203.37,200.13,197.94,198.14,202.12,205.78,209.90,214.03,218.24,223.84,229.16,235.35,241.10,242.93,244.29,245.31,245.91,246.17,247.34,250.29,254.13,258.53,263.44,267.92,272.53,276.70,279.19,280.15,280.79,281.63,283.06,285.71,288.83,292.64,297.01,301.49,306.37,310.84,314.97,318.88,322.54,326.05,329.40,332.66,336.09,339.43,342.58,345.62,348.74,352.58,358.12,363.93,368.94,372.86,376.69,379.92,381.85,381.22,378.94,375.39,370.83,365.18,358.79,351.74,345.13,338.86,331.13,322.38,315.59,310.48,305.56,300.31,292.56,284.73,278.52,273.07,267.28,260.44,252.84,245.56,238.18,231.58,225.10,218.38,213.67,207.26,200.22,193.31,186.89,180.68,174.48,168.11,161.40,154.90,149.29,144.30,139.31,132.91,130.20,131.53,136.11,142.41,149.71,156.52,163.49,171.29,177.54,183.23,188.87,194.61,200.46,207.97,215.48,221.75,225.55,229.32,234.14,239.18,243.85,248.69,252.98,257.06,261.31,266.23,270.14,273.17,276.05,279.23,281.48,281.42,279.84,277.14,273.69
150.66,158.22,165.92,173.71,180.42,184.78,187.75,188.87,187.81,186.31,183.69,180.03,175.25,169.27,164.84,161.41,158.34,155.22,151.96,148.53,145.43,142.79,140.22,137.89,135.51,133.02,130.59,128.78,127.25,125.92,124.81,123.80,122.89,121.59,119.91,118.16,116.70,115.19,113.20,110.54,108.55,107.00,105.58,104.16,102.74,101.01,98.22,94.83,91.90,89.60,88.30,87.53,86.90,86.24,85.47,84.67,83.90,83.19,82.95,82.97,83.04,83.03,82.98,83.15,83.31,83.34,83.20,83.05,82.81,82.59,82.63,82.84,83.50,84.38,85.25,85.85,86.46,87.22,88.21,89.87,94.40,100.44,106.71,112.45,118.99,125.30,130.22,132.99,133.62,132.38,130.56,129.72,132.13,136.15,140.31,144.09,147.43,151.04,154.62,158.43,162.30,165.42,167.82,169.82,171.63,173.31,174.80,176.18,177.96,180.38,183.08,185.90,188.90,192.12,195.65,199.60,203.40,206.41,207.98,208.15,207.22,205.41,202.74,199.19,195.67,193.18,193.00,196.68,201.43,206.11,210.50,214.78,219.65,224.56,229.74,234.32,236.39,238.37,239.82,240.65,241.04,242.42,245.39,249.23,253.57,258.05,261.74,267.46,273.19,275.17,275.98,276.40,277.04,278.56,281.99,285.73,289.90,294.32,298.48,302.72,307.07,311.38,315.46,319.35,322.94,326.29,329.51,332.90,336.30,339.83,343.23,346.18,349.72,355.12,361.06,366.44,370.76,374.83,378.51,381.20,381.50,380.03,376.97,372.89,367.96,361.85,354.57,347.69,341.46,334.50,326.26,318.92,312.88,307.92,303.04,296.31,288.98,282.09,275.91,269.98,262.74,254.57,247.55,240.42,233.57,226.62,219.57,214.75,208.83,201.81,194.31,187.88,181.57,175.32,169.10,162.91,156.63,150.60,145.04,139.64,132.90,129.88,130.45,134.21,140.81,148.59,155.33,161.97,169.68,176.32,182.11,187.61,193.00,198.40,205.13,212.34,218.93,223.50,227.28,231.66,236.30,240.89,245.75,250.38,254.70,258.98,263.79,267.86,271.42,274.90,278.45,280.75,280.60,278.93,276.27,273.10
149.23,157.04,164.96,173.10,180.33,184.20,186.66,187.06,185.13,183.81,181.02,176.42,170.63,165.22,161.06,157.90,155.09,152.08,148.75,145.10,141.79,138.99,136.16,133.21,130.57,128.33,126.49,124.77,123.36,122.19,121.25,120.47,119.85,118.80,117.32,115.87,114.42,112.94,111.11,108.78,107.13,105.62,104.12,102.60,100.95,98.76,95.37,91.68,89.48,88.33,87.39,86.55,85.86,85.22,84.42,83.66,83.02,82.58,82.93,83.54,84.07,84.29,84.45,84.66,84.76,84.69,84.48,84.28,83.93,83.42,82.83,82.24,82.40,83.05,83.84,84.43,85.13,85.96,86.92,87.95,89.10,94.71,101.82,105.93,108.16,113.38,118.89,122.66,124.19,124.06,123.55,124.02,127.34,131.55,136.24,140.55,143.93,146.99,150.09,153.25,156.37,159.22,161.73,163.71,165.30,166.71,168.17,169.67,171.85,174.78,177.32,180.20,183.43,186.77,189.88,193.20,196.45,199.48,201.83,202.53,201.79,200.33,198.13,194.61,191.02,188.43,187.94,191.12,196.80,202.00,206.75,211.30,215.65,220.36,224.47,227.64,229.84,232.34,234.31,235.56,236.28,237.81,240.64,244.41,248.78,252.99,256.09,262.40,269.01,270.69,271.55,271.82,272.45,274.37,278.26,282.50,286.99,291.48,295.42,298.95,303.00,307.33,311.59,315.69,319.46,322.92,326.17,329.51,333.04,337.02,340.91,344.01,347.34,352.47,358.32,363.90,368.58,372.82,376.93,380.31,381.41,380.77,378.41,374.96,370.60,364.85,357.57,350.46,344.09,337.84,330.44,322.61,315.46,310.30,305.41,299.87,293.29,285.76,278.84,272.63,265.00,256.31,249.12,242.59,235.64,228.22,220.94,215.89,210.40,203.41,195.38,188.96,182.56,176.25,170.18,164.38,158.33,151.93,145.82,140.06,133.22,129.69,129.38,132.31,139.05,147.14,153.89,160.28,167.77,174.82,180.81,186.15,191.07,196.00,201.78,208.52,215.39,220.95,225.05,229.13,233.44,238.00,242.83,247.84,252.52,256.91,261.52,265.63,269.69,273.71,277.38,279.91,279.68,277.95,275.41,272.44
147.57,155.81,163.87,172.12,179.91,183.64,185.55,185.57,183.56,181.58,177.57,172.22,166.31,161.08,157.64,154.78,151.94,148.90,145.64,141.87,138.26,135.07,132.09,129.61,127.45,125.41,123.34,121.59,120.54,119.86,119.33,118.93,118.59,117.78,116.44,114.82,113.15,111.50,109.72,107.76,106.17,104.55,102.91,101.07,98.47,95.21,92.13,89.70,88.36,87.37,86.45,85.59,84.84,84.16,83.39,82.85,82.75,83.37,84.19,84.95,85.52,85.79,85.96,86.16,86.17,85.91,85.77,85.44,84.94,84.36,83.74,83.12,82.73,82.48,82.43,83.03,83.89,84.85,85.85,86.91,87.97,90.41,95.25,102.02,101.83,103.17,105.87,109.01,111.67,113.57,116.14,119.55,123.40,127.34,131.69,136.15,140.27,143.33,145.98,148.48,150.95,153.44,155.56,157.28,158.78,160.22,161.64,163.54,166.15,169.43,172.62,175.78,178.88,181.88,184.78,187.53,190.19,192.79,195.08,196.12,195.63,194.07,191.84,189.49,186.78,184.70,184.44,187.52,192.41,197.41,202.16,206.67,211.17,215.99,220.17,223.31,225.14,226.90,228.76,230.66,232.57,234.53,237.04,240.05,243.66,248.02,251.52,255.70,259.93,262.55,263.72,263.76,265.35,269.60,273.92,278.67,283.50,288.14,292.18,295.55,298.94,302.66,306.86,310.96,314.88,318.70,322.40,325.84,329.76,334.00,338.23,342.08,345.68,350.60,356.12,361.52,366.16,370.58,374.95,378.74,380.53,380.74,379.52,376.86,372.48,367.14,360.27,353.43,347.26,341.32,334.28,326.26,318.56,312.96,307.80,302.76,296.72,289.24,282.06,275.32,267.46,258.70,250.93,244.53,237.57,230.03,222.67,217.15,211.55,204.56,196.52,190.13,183.70,177.30,171.11,165.34,159.56,153.05,146.62,140.59,133.74,129.47,128.60,131.28,137.57,145.16,151.93,158.28,165.25,173.08,179.59,184.78,188.94,193.10,197.99,204.19,211.03,217.15,222.09,226.62,231.14,235.81,240.57,245.75,250.70,255.27,259.73,264.00,268.26,272.11,275.14,278.38,278.38,276.83,274.70,272.09
146.41,154.88,162.88,171.00,178.90,182.86,184.44,184.13,181.97,179.00,174.46,168.79,162.82,158.06,154.77,151.98,149.29,146.44,143.08,139.00,135.05,131.69,128.90,126.60,124.63,122.82,121.10,119.75,118.93,118.39,117.98,117.68,117.41,116.80,115.67,114.01,112.29,110.57,108.81,107.01,105.33,103.64,101.84,99.52,95.81,92.42,90.02,88.47,87.48,86.51,85.55,84.65,83.84,83.15,82.94,83.04,83.51,84.58,85.62,86.40,86.93,87.23,87.45,87.61,87.52,87.17,86.92,86.45,85.88,85.27,84.64,83.97,83.27,82.60,82.11,82.22,83.05,84.08,85.13,86.21,87.28,88.39,91.44,97.39,97.25,97.71,99.33,101.82,104.66,107.38,110.86,115.00,119.14,123.20,127.39,131.76,136.07,139.22,141.85,144.17,146.29,148.41,150.20,151.83,153.46,155.18,156.84,158.89,161.53,164.81,168.29,171.56,174.50,177.21,179.87,182.34,184.62,186.82,188.86,190.06,189.81,188.71,187.14,185.42,183.19,181.38,181.20,184.20,188.82,193.71,198.25,202.37,206.72,211.34,215.42,218.56,220.38,221.91,223.70,225.92,228.59,231.08,233.61,236.25,239.19,242.82,246.19,249.50,252.69,255.40,256.92,257.80,260.11,264.70,269.38,274.59,279.70,284.42,288.50,292.09,295.17,298.30,301.96,305.64,309.59,313.65,317.77,321.97,326.42,330.94,335.43,339.81,343.95,348.83,354.07,359.24,363.93,368.56,373.05,377.05,379.71,380.51,380.07,378.09,373.93,368.90,362.52,356.21,350.47,344.74,337.97,330.13,322.29,315.98,310.34,305.26,299.55,292.50,285.00,277.77,269.85,261.36,253.48,247.03,240.02,232.31,224.59,218.48,212.54,205.50,197.59,191.32,185.08,178.77,172.50,166.49,160.77,154.12,147.43,141.19,134.31,129.46,128.13,130.56,136.24,143.35,150.06,156.26,162.65,170.93,177.97,183.20,186.85,190.46,194.83,200.52,207.17,213.92,219.57,224.45,229.01,233.57,238.49,243.79,248.92,253.72,258.30,262.86,267.40,271.26,273.83,276.87,277.06,275.77,273.85,271.56
145.59,154.14,161.96,169.76,177.37,181.81,183.36,182.83,180.33,176.27,171.64,165.99,160.04,155.88,152.33,149.50,147.03,144.44,140.84,136.34,132.12,128.75,126.30,124.02,122.09,120.58,119.56,118.83,118.13,117.50,116.99,116.59,116.25,115.77,114.91,113.32,111.69,109.95,108.15,106.36,104.54,102.80,100.72,97.73,93.14,90.33,88.74,87.71,86.71,85.72,84.72,83.77,82.95,82.44,83.05,83.98,84.94,86.02,87.09,87.92,88.50,88.89,89.24,89.29,88.98,88.39,87.91,87.32,86.69,86.07,85.41,84.67,83.88,83.14,82.51,81.89,82.50,83.53,84.61,85.70,86.78,87.87,89.66,92.64,93.92,95.44,97.21,99.17,101.55,104.20,107.14,110.53,114.68,119.00,123.21,127.41,131.52,134.77,137.67,140.09,142.07,143.88,145.48,147.18,149.07,151.18,153.23,155.28,157.71,160.74,164.12,167.32,170.12,172.62,175.05,177.43,179.48,181.34,183.05,184.29,184.35,184.06,183.51,182.08,180.08,178.36,178.14,181.01,185.62,190.53,194.85,198.45,202.39,206.50,210.29,213.42,215.49,217.22,218.99,221.23,224.21,227.26,230.05,232.63,235.07,237.50,240.37,243.62,246.72,248.99,250.91,253.23,256.13,259.86,264.75,270.32,275.61,280.31,284.38,288.31,291.35,294.02,296.93,299.99,303.77,307.88,312.38,317.87,323.06,327.95,332.67,337.35,342.04,346.99,352.02,356.99,361.79,366.63,371.15,375.25,378.72,379.99,380.13,378.73,374.97,370.26,364.52,358.87,353.63,348.12,341.63,334.24,326.55,319.41,313.10,307.56,301.99,295.57,287.71,280.11,272.20,264.05,256.48,249.94,242.83,234.95,226.76,220.03,213.59,206.39,198.68,192.54,186.62,180.54,174.25,167.83,161.98,155.17,148.31,141.93,134.99,129.64,127.88,129.95,134.93,141.60,148.22,154.25,160.07,168.42,175.90,181.36,184.80,188.07,192.11,197.36,203.80,211.19,217.39,222.50,226.98,231.30,236.51,241.93,247.21,252.28,257.16,262.06,266.92,270.90,273.15,275.43,275.78,274.78,272.93,270.93
144.80,153.35,161.02,168.38,175.01,179.98,182.60,182.23,178.60,174.17,169.11,163.63,158.26,154.02,150.42,147.56,145.05,142.33,138.31,133.55,129.43,126.38,123.83,121.75,120.31,119.38,118.72,118.14,117.45,116.75,116.13,115.59,115.16,114.77,114.12,112.61,111.00,109.16,107.24,105.41,103.61,101.81,98.91,94.76,91.02,89.08,87.89,86.92,85.96,85.00,84.02,83.13,82.69,83.27,84.26,85.33,86.39,87.47,88.50,89.81,91.14,92.13,92.82,92.63,91.31,89.31,88.56,87.86,87.14,86.41,85.65,84.88,84.18,83.52,82.84,82.10,82.23,82.97,84.06,85.19,86.28,87.36,88.66,90.37,91.78,93.51,95.34,97.16,99.16,101.36,103.98,107.01,110.43,114.25,118.69,123.10,126.92,130.19,133.17,135.61,137.55,139.42,141.28,143.27,145.39,147.59,149.78,151.94,154.29,156.89,159.57,162.41,165.14,167.72,170.13,172.37,174.27,175.98,177.53,178.71,179.42,179.77,179.65,178.74,177.21,175.72,175.41,177.76,181.56,186.81,191.65,195.23,198.52,201.60,204.82,207.97,210.41,212.58,214.33,216.21,218.83,222.21,225.21,227.91,230.33,232.33,234.75,237.42,240.06,242.41,244.85,248.04,251.77,255.88,260.28,265.81,270.97,275.39,279.35,283.03,286.16,288.98,291.71,294.48,297.46,301.00,305.82,313.08,319.80,325.53,330.56,335.21,339.50,344.32,349.42,354.51,359.42,364.41,369.08,373.19,376.38,378.56,379.49,378.57,375.19,371.46,366.70,361.62,356.54,351.47,345.61,338.87,331.51,323.92,316.60,310.20,304.38,298.36,290.30,282.73,274.49,266.01,259.34,252.95,245.80,237.94,229.81,222.71,215.53,207.85,200.11,193.93,188.21,182.44,176.26,169.35,163.20,156.41,149.64,143.23,136.04,130.18,127.71,128.96,133.21,139.43,146.09,152.27,157.85,165.33,172.79,178.79,182.88,186.03,189.45,194.56,201.30,208.87,215.30,220.49,224.92,229.17,234.49,240.17,245.79,251.23,256.47,261.50,266.45,270.40,272.37,274.15,274.60,273.83,272.14,270.44
144.09,152.65,160.30,167.44,173.43,178.64,181.99,181.73,177.20,172.51,167.16,161.82,156.86,152.52,148.98,146.08,143.44,140.43,135.59,130.84,127.01,124.21,121.75,120.07,119.08,118.49,117.99,117.46,116.81,116.09,115.38,114.72,114.16,113.75,113.22,111.88,110.24,108.29,106.26,104.35,102.49,100.08,96.43,92.01,89.47,88.17,87.18,86.21,85.28,84.34,83.36,82.74,82.95,84.30,85.54,86.66,87.80,89.22,91.02,93.01,94.81,96.00,96.77,96.35,93.93,90.18,89.01,88.19,87.42,86.64,85.84,85.11,84.49,83.86,83.16,82.43,82.10,82.50,83.53,84.66,85.75,86.84,87.93,89.02,90.23,91.82,93.58,95.39,97.22,99.00,101.15,103.67,106.44,109.77,113.98,118.27,121.95,125.13,128.15,130.76,132.96,135.11,137.19,139.39,141.68,143.99,146.26,148.51,150.77,153.01,155.09,157.53,160.06,162.54,164.83,166.87,168.69,170.37,171.90,173.15,174.39,175.28,175.60,175.23,174.25,172.91,172.43,174.43,177.69,182.68,187.63,191.53,194.66,197.12,199.74,202.52,204.92,207.12,208.94,210.78,213.21,216.64,219.90,222.88,225.47,227.38,229.50,231.68,233.93,236.40,239.20,242.73,246.92,251.62,256.07,261.37,266.21,270.31,274.04,277.28,280.35,283.35,286.28,289.16,291.96,295.50,300.74,308.83,316.44,322.87,328.34,333.12,337.27,341.96,346.96,352.00,356.91,361.91,366.57,370.59,373.65,376.34,377.75,377.54,375.36,372.45,368.83,364.46,359.50,354.64,349.08,342.83,335.99,328.45,320.33,313.01,306.71,300.88,293.05,285.43,276.95,268.33,262.05,255.80,248.73,240.96,232.88,225.49,217.81,209.77,201.87,195.47,189.82,184.27,178.26,171.29,164.81,158.00,151.34,144.97,137.59,130.99,127.58,127.87,131.38,137.12,143.66,149.94,155.51,162.07,169.52,176.02,180.66,183.93,187.00,191.97,198.79,206.42,213.04,218.37,222.89,227.19,232.54,238.51,244.47,250.18,255.66,260.79,265.72,269.63,271.56,273.01,273.51,272.94,271.44,269.81
143.47,152.09,159.89,167.15,173.16,178.18,181.56,181.22,176.34,171.36,165.97,160.70,155.81,151.44,148.09,145.15,142.30,138.84,132.73,128.31,124.93,122.20,120.23,119.17,118.46,117.85,117.25,116.70,116.18,115.55,114.74,113.98,113.30,112.75,112.18,111.11,109.36,107.35,105.27,103.21,101.13,97.36,93.23,89.92,88.59,87.55,86.58,85.64,84.70,83.72,82.80,82.67,83.81,85.24,86.67,87.92,89.25,91.51,95.04,97.83,99.55,100.30,100.74,100.15,96.69,91.07,89.25,88.32,87.55,86.80,86.10,85.50,84.86,84.18,83.48,82.78,82.10,82.16,83.02,84.10,85.19,86.31,87.41,88.40,89.28,90.42,91.93,93.79,95.71,97.22,98.68,100.40,102.79,105.78,109.08,112.70,116.49,119.46,122.53,125.52,128.32,130.94,133.08,135.34,137.76,140.25,142.58,144.85,147.01,149.02,150.81,152.88,155.00,157.07,159.06,160.86,162.66,164.42,166.06,167.60,169.05,170.35,171.28,171.38,170.96,169.64,168.92,170.91,174.18,178.08,182.43,186.96,190.63,193.20,195.30,197.18,198.94,200.62,202.63,204.92,207.51,210.66,214.22,217.65,220.57,222.66,224.71,226.66,228.72,231.25,234.22,237.44,241.51,246.73,252.08,257.05,261.41,265.24,268.63,271.29,274.03,277.12,280.61,284.12,287.76,292.20,297.99,305.53,312.95,319.75,325.83,331.04,335.61,340.20,344.83,349.50,354.22,359.07,363.45,367.27,370.65,373.20,374.64,375.44,375.52,373.17,370.77,367.33,362.56,357.55,351.76,345.76,339.59,332.73,324.21,315.98,308.95,303.07,296.03,288.16,279.67,271.30,264.59,258.41,251.56,243.93,235.77,228.13,220.37,212.20,203.98,197.19,191.45,185.95,180.19,173.75,166.99,160.07,153.49,147.23,139.74,132.16,127.51,126.71,129.53,134.71,140.84,147.05,152.91,158.70,166.27,173.10,177.96,181.63,184.84,189.60,196.09,203.66,210.48,216.06,220.85,225.38,230.70,237.00,243.24,249.08,254.59,259.80,264.60,268.47,270.71,272.03,272.49,272.07,270.74,268.88
142.94,151.61,159.62,167.07,173.21,178.33,181.79,181.41,176.30,170.96,165.39,160.10,155.25,150.78,147.42,144.46,141.27,137.06,130.89,126.53,123.23,120.72,119.43,118.63,117.98,117.34,116.65,116.02,115.45,114.87,114.20,113.43,112.69,112.01,111.33,110.34,108.48,106.38,104.27,102.05,99.13,94.67,90.94,88.94,87.91,86.95,86.00,85.07,84.10,83.14,82.83,83.36,84.73,86.19,87.66,89.64,92.40,95.92,98.56,100.45,101.75,102.50,103.15,102.30,98.41,92.28,89.57,88.48,87.77,87.09,86.48,85.86,85.19,84.50,83.80,83.10,82.34,82.07,82.48,83.58,84.67,85.77,86.84,87.78,88.57,89.51,90.78,92.39,93.98,95.29,96.55,97.93,99.70,101.77,104.30,107.45,111.25,114.81,117.81,120.53,123.13,125.80,128.26,130.81,133.43,136.00,138.45,140.92,143.24,145.22,146.80,148.48,150.23,152.14,154.42,156.31,157.92,159.37,160.73,162.00,163.39,164.62,165.45,165.52,164.86,163.59,163.01,165.08,169.47,173.68,177.61,181.44,185.14,188.47,190.93,192.68,194.34,196.00,198.13,200.39,202.60,205.28,208.63,212.05,215.12,217.43,219.65,222.08,224.64,227.20,230.09,233.18,236.85,241.34,246.32,251.95,256.93,261.02,264.44,266.71,268.94,271.63,275.25,280.16,284.68,289.56,295.50,303.03,310.59,317.39,323.40,328.68,333.40,338.02,342.57,347.03,351.43,355.88,359.92,363.56,367.02,369.73,371.58,372.87,373.57,372.82,371.44,368.86,364.90,360.27,354.51,348.43,342.32,335.90,327.69,319.03,311.32,305.12,299.03,290.91,282.55,274.55,266.83,260.54,253.88,246.37,238.12,230.57,222.71,214.28,205.77,198.84,193.06,187.37,181.54,175.61,169.50,162.54,155.86,149.85,142.50,134.25,128.03,125.49,127.96,132.13,137.53,143.59,149.85,155.84,162.87,169.54,174.99,179.04,182.73,187.64,193.76,200.47,207.35,213.39,218.63,223.47,229.22,235.87,242.38,248.32,253.59,258.59,263.04,266.74,269.23,270.35,270.58,270.08,268.76,266.61
142.44,151.22,159.45,167.09,173.36,178.63,182.13,181.75,176.56,170.98,165.16,159.78,154.91,150.37,146.95,143.94,140.39,135.43,129.53,125.13,121.83,119.62,118.89,118.19,117.53,116.87,116.13,115.43,114.77,114.18,113.63,112.91,112.15,111.38,110.57,109.51,107.58,105.42,103.25,100.83,96.90,92.30,89.27,88.32,87.32,86.37,85.44,84.49,83.52,82.74,83.14,84.25,85.67,87.14,88.78,91.74,96.05,100.41,101.85,102.63,103.38,104.09,105.01,104.11,100.30,94.18,90.06,88.69,88.05,87.45,86.88,86.20,85.50,84.80,84.11,83.42,82.66,82.09,82.05,83.08,84.15,85.24,86.28,87.16,87.96,88.79,89.84,91.11,92.31,93.48,94.67,95.88,97.10,98.33,100.16,102.75,106.17,110.12,113.22,115.74,118.01,120.44,123.00,125.73,128.52,131.24,133.88,136.59,139.10,141.18,142.70,144.17,145.69,147.49,149.92,151.95,153.44,154.63,155.72,156.62,157.88,159.03,159.73,159.68,158.73,157.55,157.20,159.27,164.26,168.67,172.31,175.61,179.37,183.53,186.55,188.46,190.24,192.09,194.31,196.46,198.25,200.41,203.23,206.25,209.18,211.74,214.30,217.32,220.52,223.41,226.29,229.34,232.58,236.15,240.45,246.39,251.99,256.63,260.24,262.47,264.45,266.86,270.48,276.42,281.83,287.11,293.04,300.68,308.37,315.09,320.97,326.30,331.02,335.63,340.15,344.47,348.53,352.52,356.19,359.62,363.05,365.96,368.21,369.82,370.80,371.66,371.27,369.55,366.49,362.35,357.00,350.90,344.64,338.48,330.63,321.80,313.57,307.03,301.67,293.57,285.36,277.54,269.00,262.46,255.83,248.38,240.11,232.68,224.76,216.20,207.56,200.53,194.62,188.68,182.69,177.11,171.76,164.98,158.27,152.39,145.38,136.82,129.28,124.91,126.49,129.57,134.20,139.94,146.41,152.97,159.44,165.87,171.91,176.37,180.54,185.76,191.73,197.59,204.39,210.87,216.58,221.70,227.88,234.84,241.61,247.67,252.68,257.30,261.34,264.78,267.26,267.91,267.73,267.04,265.75,263.60
142.03,151.06,159.50,167.24,173.60,178.88,182.28,181.95,177.06,171.57,165.50,159.84,154.82,150.40,146.97,143.78,139.87,134.46,128.76,124.17,120.98,119.25,118.52,117.78,117.07,116.39,115.74,115.05,114.32,113.60,112.91,112.31,111.63,110.88,109.97,108.53,106.64,104.47,102.20,99.48,94.44,90.83,88.76,87.81,86.81,85.83,84.87,83.93,83.04,82.93,83.81,85.15,86.61,88.10,90.46,94.58,99.75,103.31,104.86,105.37,105.46,105.57,106.55,106.33,103.61,97.96,91.02,89.05,88.45,87.88,87.27,86.53,85.81,85.12,84.42,83.73,82.98,82.28,81.95,82.59,83.59,84.70,85.74,86.55,87.38,88.23,89.10,90.03,91.02,92.15,93.29,94.41,95.53,96.69,97.99,99.47,101.38,104.44,108.20,111.37,113.59,115.24,117.02,119.37,122.20,125.34,128.33,131.24,133.94,136.28,138.13,139.88,141.59,143.24,144.91,146.90,148.64,150.10,151.26,151.95,153.16,154.55,155.62,155.66,154.94,154.00,153.80,155.61,158.57,161.61,165.20,169.62,174.04,178.64,182.07,184.38,186.46,188.69,191.03,193.20,194.94,196.62,198.35,200.14,202.19,205.07,208.25,211.60,215.30,219.46,222.84,225.87,228.85,232.03,235.76,240.03,245.33,250.93,254.96,258.09,260.80,263.65,267.28,272.39,278.67,284.65,290.47,298.09,305.62,312.36,318.44,324.06,328.55,332.96,337.36,341.61,345.43,348.99,352.25,355.35,358.58,361.58,363.88,365.71,367.33,368.93,369.59,368.81,366.36,362.65,358.62,352.97,346.45,340.25,332.31,323.57,315.35,308.56,303.23,295.91,287.82,279.51,271.15,264.14,257.13,249.60,241.51,233.94,226.14,217.93,209.62,202.38,196.11,189.89,183.70,178.01,173.02,166.98,160.55,154.34,148.04,140.07,132.26,126.36,125.08,127.28,131.26,136.23,142.19,149.58,156.04,162.40,168.74,173.69,178.05,183.77,190.33,196.07,202.41,209.12,215.23,220.44,226.68,233.84,240.80,246.97,251.93,255.99,259.63,262.64,264.28,263.74,262.72,261.69,260.69,259.47
142.55,151.23,159.63,167.55,173.95,179.16,182.32,182.01,177.54,172.17,166.11,160.32,155.10,150.52,147.03,143.79,139.71,133.98,128.36,123.64,120.48,119.01,118.26,117.51,116.75,116.01,115.32,114.63,113.90,113.16,112.44,111.80,111.11,110.25,109.09,107.51,105.74,103.65,101.15,97.80,92.50,89.67,88.22,87.27,86.27,85.27,84.29,83.41,82.88,83.43,84.62,86.04,87.53,89.18,92.84,97.71,102.78,106.32,107.66,107.85,107.55,107.27,108.11,108.32,106.28,101.13,93.81,90.28,88.86,88.27,87.61,86.88,86.15,85.44,84.74,84.05,83.29,82.55,82.03,82.15,83.06,84.15,85.15,85.96,86.78,87.59,88.41,89.22,90.09,91.12,92.20,93.27,94.36,95.52,96.62,97.70,98.94,100.93,103.81,106.87,109.45,110.73,111.81,113.38,115.60,118.57,122.05,125.09,127.89,130.52,132.76,134.86,136.76,138.40,139.74,141.44,143.04,144.47,145.72,146.88,148.37,150.00,151.38,151.79,151.44,150.75,150.65,152.22,154.38,156.85,160.04,164.12,168.45,172.65,176.30,179.53,182.75,185.20,187.44,189.50,191.28,192.89,194.12,195.25,196.67,199.15,202.37,205.78,209.47,213.68,217.60,221.61,225.18,228.05,231.07,234.16,238.79,244.41,248.96,253.03,256.63,260.23,264.27,268.91,275.18,281.52,287.72,295.04,302.35,309.10,315.49,321.60,326.05,330.03,334.01,338.03,341.66,344.82,347.64,350.30,353.07,355.94,358.47,360.79,363.04,365.04,366.30,366.51,365.34,362.57,359.29,353.83,347.20,341.09,333.35,324.99,317.01,310.13,304.47,297.52,289.59,281.21,273.16,265.94,258.26,250.33,242.66,235.17,227.49,219.71,211.97,204.59,197.72,191.14,184.78,178.88,174.02,168.64,162.67,156.29,149.90,142.60,134.94,128.21,125.05,125.40,128.40,132.87,138.35,145.70,152.33,158.91,165.57,171.19,175.81,181.52,188.22,194.71,200.88,207.74,214.22,219.68,225.71,232.71,239.45,245.39,250.32,254.19,257.52,260.08,261.08,260.09,258.39,256.96,256.05,255.23
143.65,151.72,159.94,168.00,174.39,179.49,182.34,181.99,177.95,172.71,166.83,161.05,155.61,150.72,147.12,143.89,139.75,133.82,128.17,123.38,120.22,118.82,118.05,117.28,116.47,115.66,114.91,114.21,113.51,112.81,112.09,111.35,110.61,109.55,108.11,106.47,104.83,102.88,100.11,95.94,90.97,88.77,87.66,86.70,85.70,84.69,83.70,82.96,83.01,84.13,85.50,86.93,88.48,90.53,95.59,100.90,105.40,109.05,110.03,109.97,109.52,109.05,109.61,110.03,108.45,103.97,97.56,92.14,89.42,88.63,87.94,87.24,86.49,85.75,85.05,84.36,83.61,82.88,82.22,81.84,82.58,83.58,84.54,85.37,86.16,86.94,87.74,88.56,89.36,90.26,91.26,92.33,93.42,94.57,95.67,96.76,97.82,98.81,100.22,102.66,105.55,106.79,107.37,108.17,109.57,112.04,115.77,118.77,121.52,124.33,126.85,129.21,131.31,133.09,134.44,135.82,137.15,138.44,139.82,141.69,143.62,145.50,147.15,148.07,148.13,147.72,147.69,149.07,151.11,153.43,156.03,159.09,162.90,166.40,170.09,174.21,178.66,181.31,183.44,185.42,187.28,189.01,190.10,190.97,192.00,193.77,196.67,199.98,203.44,207.13,211.42,216.59,221.05,223.93,226.44,228.84,232.66,237.74,242.82,247.74,252.25,256.71,261.38,265.85,271.59,278.04,284.84,291.70,298.73,305.49,312.13,318.71,323.38,326.95,330.40,334.10,337.54,340.35,342.73,344.89,347.11,349.69,352.48,355.35,358.16,360.47,362.17,363.35,363.64,362.04,359.11,353.82,347.34,341.35,333.97,326.09,318.48,311.59,305.49,298.69,290.95,282.71,274.99,267.75,259.33,250.84,243.61,236.32,228.79,221.43,214.32,207.02,199.61,192.58,185.97,179.83,174.89,170.01,164.56,158.22,151.36,144.60,137.32,130.28,125.95,124.11,125.75,129.63,134.87,141.91,148.73,155.57,162.51,168.79,173.75,179.19,185.74,193.38,199.56,206.54,213.33,219.04,224.75,231.39,237.76,243.37,248.19,251.99,255.01,257.05,257.52,256.47,254.29,252.44,251.49,250.72
145.08,152.84,160.90,168.76,174.91,179.97,182.51,181.95,178.01,172.89,167.45,161.84,156.20,150.95,147.25,144.01,139.90,133.97,128.06,123.32,120.21,118.71,117.73,116.89,116.08,115.30,114.58,113.88,113.19,112.47,111.73,111.00,110.14,108.86,107.19,105.47,103.79,102.00,99.05,94.12,90.12,88.27,87.15,86.08,85.08,84.07,83.15,82.77,83.68,84.99,86.41,87.85,89.60,92.89,98.27,103.63,107.84,110.09,110.95,111.05,110.83,110.58,110.74,110.97,110.06,106.97,101.04,94.76,90.74,88.94,88.25,87.55,86.81,86.06,85.37,84.67,83.96,83.22,82.50,81.94,82.22,82.99,83.91,84.75,85.53,86.30,87.09,87.88,88.66,89.47,90.38,91.39,92.47,93.63,94.73,95.81,96.85,97.73,98.80,100.30,102.13,103.78,104.67,105.72,107.14,109.01,111.39,113.73,116.00,118.23,120.40,122.51,124.74,127.02,128.97,130.56,132.03,133.48,135.07,137.08,139.20,141.41,143.47,144.68,145.07,144.97,145.12,146.41,148.32,150.22,152.34,154.98,158.26,161.85,165.26,168.66,172.55,175.68,178.31,180.63,182.66,184.27,185.33,186.31,187.48,189.01,191.39,194.52,198.06,201.72,205.53,209.95,214.53,218.81,222.22,224.98,228.24,232.49,237.97,243.26,248.31,253.35,258.51,263.39,268.49,274.67,281.78,288.21,294.88,301.46,307.96,314.38,319.98,323.79,327.01,330.34,333.50,336.04,338.12,339.92,341.77,343.94,346.56,349.50,352.62,355.61,358.24,360.14,360.96,360.29,357.32,352.77,347.29,341.17,334.14,326.60,319.22,312.45,306.25,299.62,292.07,283.94,276.32,269.24,260.49,251.52,244.13,237.15,229.95,222.74,215.82,209.50,202.44,194.93,187.56,181.17,175.75,170.84,165.76,159.92,152.94,146.01,139.03,132.46,127.72,124.69,123.94,126.08,132.06,139.83,146.44,153.04,160.06,166.48,171.86,177.13,183.42,191.81,198.20,205.26,212.05,217.65,223.30,229.55,235.84,241.53,245.75,249.18,251.51,252.76,252.75,251.53,249.38,247.37,246.01,245.12
146.56,154.34,162.26,169.92,176.41,180.89,182.69,181.77,178.01,173.00,167.87,162.49,156.82,151.20,147.38,144.08,139.92,133.96,128.00,123.32,120.23,118.65,117.55,116.60,115.72,114.89,114.18,113.48,112.79,112.06,111.30,110.59,109.42,107.89,106.14,104.41,102.70,100.76,97.48,92.28,89.38,87.84,86.66,85.51,84.48,83.47,82.89,83.09,84.50,85.90,87.34,89.06,91.53,95.60,100.91,105.90,109.54,110.76,111.56,111.92,112.03,112.00,111.80,111.64,111.00,109.00,104.13,97.88,92.60,89.29,88.59,87.88,87.14,86.41,85.71,84.99,84.30,83.57,82.83,82.16,81.96,82.44,83.28,84.10,84.90,85.68,86.45,87.22,87.99,88.77,89.60,90.52,91.57,92.69,93.79,94.87,95.92,96.81,97.78,98.73,99.79,101.39,102.54,103.85,105.36,106.89,108.31,109.93,111.57,113.12,114.72,116.51,118.72,121.15,123.30,125.10,126.83,128.60,130.50,132.62,134.89,137.33,139.69,141.22,141.84,142.01,142.38,143.58,145.29,146.98,148.82,151.06,153.84,157.30,160.52,163.47,166.70,169.96,172.75,175.11,177.06,178.69,180.04,181.45,183.06,184.84,186.95,189.77,193.04,196.41,199.94,203.81,208.19,212.84,216.60,220.25,224.00,228.23,233.59,239.05,244.43,249.83,255.32,260.36,265.22,271.32,278.61,284.98,290.99,297.22,303.63,309.86,315.52,319.75,323.27,326.45,329.21,331.48,333.43,335.16,336.85,338.87,341.38,344.28,347.57,351.15,354.52,356.91,358.03,358.15,355.38,351.38,346.59,340.62,333.90,326.72,319.63,313.02,306.86,300.38,293.00,285.00,277.41,270.21,261.20,251.97,244.52,237.85,231.04,224.05,217.25,211.66,205.17,197.76,190.02,182.95,177.03,171.85,166.81,161.30,154.44,147.38,140.52,134.17,128.85,125.05,122.61,123.32,129.57,138.46,145.19,151.56,158.41,164.72,170.30,175.50,181.57,190.08,196.67,203.58,210.16,215.66,221.11,227.22,233.50,239.24,243.25,246.34,248.10,248.71,248.14,246.49,244.27,242.12,240.35,239.01
148.11,156.23,164.04,171.57,178.89,182.25,182.85,181.44,178.01,173.11,168.06,162.92,157.43,151.44,147.45,144.05,139.75,133.64,127.95,123.38,120.28,118.66,117.54,116.48,115.44,114.47,113.70,112.98,112.28,111.56,110.79,110.01,108.38,106.57,104.87,103.22,101.47,99.01,95.29,90.50,88.69,87.42,86.19,85.00,83.93,82.95,83.00,83.99,85.44,86.84,88.35,90.70,94.43,98.66,103.53,107.68,110.39,111.27,112.05,112.71,113.18,113.27,112.80,112.11,111.27,109.87,106.75,101.45,95.05,89.83,88.98,88.21,87.49,86.78,86.08,85.32,84.61,83.91,83.18,82.44,81.82,81.97,82.64,83.43,84.26,85.05,85.81,86.59,87.36,88.13,88.92,89.75,90.70,91.77,92.84,93.93,94.98,95.92,96.90,97.80,98.63,99.64,100.85,102.27,103.78,105.27,106.44,107.44,108.37,109.29,110.25,111.72,113.67,115.78,117.57,119.52,121.58,123.75,126.02,128.31,130.71,133.23,135.70,137.61,138.35,138.79,139.39,140.48,141.95,143.68,145.45,147.30,149.64,152.63,155.78,158.83,161.58,164.50,166.96,168.94,170.57,172.41,174.33,176.41,178.70,181.16,183.37,185.79,188.40,191.15,194.68,198.57,202.48,206.15,209.47,214.34,219.65,224.79,229.57,235.05,240.55,246.11,251.69,256.54,261.61,267.89,275.29,282.02,287.11,292.80,299.17,305.27,309.99,314.67,318.90,322.14,324.42,326.44,328.43,330.41,332.24,334.51,337.07,339.92,343.22,347.19,350.99,353.65,354.99,355.71,353.48,349.77,345.21,339.71,333.26,326.47,319.75,313.34,307.32,300.99,293.77,285.91,278.35,270.68,261.41,252.15,244.84,238.48,232.13,225.44,218.78,213.44,207.66,201.02,193.45,185.23,178.82,173.19,167.84,162.36,155.86,148.77,141.86,135.31,129.12,124.82,121.71,121.60,127.40,137.59,144.87,151.15,157.60,163.59,169.11,174.34,180.25,188.18,194.91,201.41,207.57,213.07,218.13,224.35,230.66,236.31,240.67,243.54,244.95,245.10,243.84,241.48,239.01,236.70,234.57,232.47
150.25,158.61,166.69,174.03,180.18,183.01,182.99,181.23,178.00,173.17,168.16,163.08,157.66,151.55,147.20,143.59,139.01,132.49,127.46,123.29,120.34,118.70,117.55,116.46,115.38,114.33,113.40,112.48,111.72,111.02,110.17,108.83,106.96,105.02,103.21,101.50,99.07,96.03,92.66,89.50,88.10,86.88,85.67,84.48,83.41,83.03,83.64,84.93,86.39,87.83,90.13,93.49,97.95,102.58,106.64,109.47,111.03,111.78,112.55,113.30,113.87,113.97,113.41,112.58,111.71,110.70,108.89,104.72,98.51,92.34,89.61,88.56,87.86,87.15,86.40,85.63,84.92,84.20,83.46,82.70,82.03,81.81,82.10,82.84,83.64,84.39,85.14,85.91,86.68,87.45,88.23,89.02,89.88,90.85,91.91,93.00,94.09,94.99,95.94,96.83,97.66,98.56,99.63,100.87,102.20,103.49,104.53,105.55,106.55,107.54,108.57,109.56,110.75,112.15,113.76,115.95,118.30,120.46,122.35,124.62,127.06,129.46,131.76,133.82,134.76,135.51,136.40,137.54,138.97,140.59,142.43,144.53,146.90,149.57,152.38,155.18,157.74,160.11,162.23,164.13,165.91,167.71,169.56,171.55,173.81,176.61,179.28,181.89,184.44,186.98,190.16,193.75,197.44,201.02,204.41,209.01,214.45,220.19,225.57,231.06,236.58,242.09,247.43,252.21,257.20,263.66,271.46,278.38,283.54,288.54,294.06,300.19,304.82,308.75,312.21,315.11,317.40,319.23,321.21,323.60,326.57,329.94,333.09,336.11,339.34,343.10,347.03,350.20,352.22,353.07,351.63,348.52,344.24,338.88,332.56,326.00,319.58,313.44,307.55,301.49,294.59,287.10,279.84,271.40,261.80,252.67,245.60,239.39,233.50,227.20,220.68,215.44,210.31,204.44,197.24,188.33,181.19,175.05,169.42,163.87,157.37,150.19,143.12,136.28,129.57,124.08,120.72,120.53,125.54,135.87,143.85,150.51,156.76,162.54,167.95,173.15,178.85,186.07,192.70,198.75,204.43,209.81,214.85,221.21,227.24,232.41,237.03,240.59,242.05,241.44,238.86,235.98,233.39,230.91,228.38,225.81
152.83,161.25,169.45,176.46,181.05,183.55,183.09,181.08,177.98,173.15,168.13,163.09,157.72,151.60,146.90,142.94,137.98,131.17,126.87,123.13,120.30,118.59,117.40,116.32,115.26,114.19,113.12,112.04,111.19,110.40,109.37,107.51,105.53,103.54,101.48,99.14,96.02,92.88,90.28,88.69,87.48,86.28,85.08,83.96,83.05,83.35,84.41,85.83,87.32,88.97,92.41,97.03,102.06,106.41,109.33,110.93,111.63,112.32,113.07,113.83,114.42,114.53,113.91,113.06,112.22,111.44,110.52,107.63,102.14,95.47,90.55,88.99,88.21,87.47,86.70,85.93,85.21,84.47,83.72,82.98,82.34,81.85,81.75,82.32,83.06,83.77,84.49,85.25,86.02,86.78,87.55,88.32,89.11,89.99,90.98,92.08,93.18,94.07,94.97,95.86,96.74,97.67,98.59,99.63,100.77,101.90,102.89,104.05,105.25,106.42,107.59,108.20,108.76,109.56,110.95,113.14,115.69,117.85,119.32,121.39,123.66,125.87,128.02,130.20,131.35,132.35,133.47,134.74,136.19,137.73,139.62,141.96,144.37,146.84,149.35,151.87,154.31,156.25,158.09,159.96,161.87,163.67,165.41,167.20,169.29,172.13,175.14,177.98,180.61,183.14,186.05,189.36,192.84,196.37,199.91,204.11,209.31,215.25,221.27,226.93,232.52,237.94,242.96,247.74,252.65,259.21,267.31,274.47,279.88,284.37,289.03,294.80,299.35,302.52,305.11,307.52,309.87,311.76,313.90,316.76,320.83,325.30,329.12,332.47,335.75,339.24,343.12,346.73,349.44,350.45,349.75,347.22,343.25,338.05,331.84,325.50,319.36,313.50,307.73,301.95,295.47,288.43,281.47,272.31,262.50,253.62,246.87,240.60,234.99,229.08,222.83,217.53,212.84,207.59,200.89,191.97,184.01,177.29,171.29,165.51,158.90,151.86,144.66,137.37,130.13,123.46,119.88,119.65,123.75,133.74,142.26,149.36,155.57,161.36,166.63,171.76,177.25,183.78,190.28,195.92,201.13,206.27,211.46,217.97,223.76,228.40,232.78,236.46,237.70,236.55,233.34,230.22,227.50,224.75,221.81,219.00
156.18,164.25,171.95,178.32,181.66,183.89,183.17,180.99,177.94,172.94,167.88,162.88,157.62,151.56,146.68,142.06,136.57,129.95,126.31,122.86,120.00,118.09,116.85,115.84,114.85,113.83,112.80,111.73,110.74,109.63,108.15,106.26,104.31,102.37,99.83,95.50,92.09,90.08,88.88,87.86,86.73,85.56,84.39,83.38,83.03,83.87,85.19,86.65,88.23,90.50,95.50,101.74,107.26,109.44,110.68,111.56,112.25,112.95,113.66,114.37,114.94,115.08,114.38,113.57,112.78,112.00,111.13,109.80,105.57,98.91,92.17,89.59,88.49,87.73,86.95,86.18,85.42,84.68,83.99,83.34,82.72,82.17,81.83,81.93,82.57,83.27,83.97,84.69,85.45,86.18,86.92,87.70,88.47,89.27,90.13,91.13,92.25,93.18,94.05,94.94,95.86,96.78,97.71,98.67,99.69,100.85,101.97,103.17,104.37,105.52,106.61,107.20,107.78,108.52,109.48,110.99,113.52,115.93,117.38,118.89,120.57,122.53,124.78,127.10,128.44,129.49,130.67,132.20,133.73,135.31,137.12,139.24,141.46,143.93,146.41,148.81,151.12,153.00,154.79,156.52,158.24,160.32,162.17,164.04,166.09,168.44,171.19,173.95,176.66,179.42,182.49,185.73,188.88,191.97,195.56,199.93,204.86,210.25,216.20,222.37,228.28,233.67,238.42,243.25,248.26,254.71,262.67,270.33,275.76,280.30,284.61,288.90,292.82,296.03,298.46,300.26,302.50,304.98,307.80,311.18,315.61,320.58,324.96,328.88,332.60,336.00,339.59,343.26,346.50,347.94,347.72,345.57,341.94,337.18,331.12,325.05,319.21,313.56,307.91,302.42,296.45,289.95,283.04,273.54,263.84,255.47,249.16,242.39,236.63,231.08,225.35,219.69,214.95,209.92,203.97,196.48,187.62,180.12,173.54,167.17,160.46,154.16,146.97,138.85,130.87,123.48,119.50,118.83,121.97,131.13,139.65,147.02,153.53,159.78,164.90,169.88,175.19,181.17,187.58,193.03,197.78,202.44,207.97,214.69,220.51,224.73,227.64,229.37,229.51,228.57,226.89,224.13,221.18,217.91,214.47,211.87
158.94,166.68,173.80,179.51,182.05,183.94,183.06,180.77,177.59,172.53,167.45,162.40,157.09,151.16,146.07,140.78,134.95,129.03,125.73,122.54,119.81,117.84,116.35,115.03,113.90,112.90,111.92,110.88,109.75,108.45,106.89,105.17,103.37,101.19,97.98,92.77,89.97,88.61,87.78,86.94,85.94,84.81,83.75,83.07,83.50,84.64,86.01,87.41,89.18,93.09,99.87,106.28,109.81,110.91,111.57,112.23,112.92,113.58,114.27,114.95,115.48,115.60,114.90,114.09,113.27,112.43,111.58,110.73,107.62,101.97,94.65,90.51,88.84,88.05,87.25,86.48,85.68,84.94,84.29,83.67,83.09,82.51,82.02,81.80,82.14,82.79,83.50,84.20,84.94,85.64,86.38,87.14,87.88,88.62,89.39,90.28,91.31,92.25,93.12,94.01,94.94,95.85,96.76,97.73,98.79,99.92,101.07,102.29,103.49,104.62,105.62,106.25,106.89,107.65,108.53,109.70,111.82,114.02,115.52,116.86,118.35,120.03,121.97,124.16,125.62,126.86,128.18,129.76,131.32,132.89,134.66,136.69,138.82,141.13,143.41,145.62,147.74,149.63,151.31,152.89,154.49,156.51,158.51,160.65,162.92,165.10,167.76,170.54,173.33,176.20,179.25,182.34,185.33,188.23,191.50,195.50,200.16,205.38,211.15,217.23,223.12,228.65,233.75,238.82,244.06,250.20,257.34,264.62,271.04,275.98,279.89,283.38,286.45,289.63,292.25,294.00,296.00,298.19,301.01,304.76,309.83,315.44,320.66,325.31,329.35,333.02,336.59,340.22,343.56,345.44,346.12,344.53,341.16,336.70,330.88,324.90,319.19,313.77,308.28,302.99,297.35,291.25,284.61,275.64,266.11,257.74,251.62,245.02,238.95,233.22,227.63,221.97,217.12,212.30,206.93,200.07,191.02,182.86,175.67,169.00,162.04,155.93,149.12,141.03,131.98,124.07,119.60,118.36,120.86,128.77,137.07,144.48,150.97,157.44,162.78,167.74,172.87,178.65,184.60,189.87,194.49,198.81,204.07,210.75,216.82,221.26,223.43,224.32,224.00,222.90,221.17,218.34,215.37,212.31,209.28,206.85
161.33,168.66,175.15,180.24,182.29,183.86,182.89,180.46,177.05,171.94,166.83,161.66,156.25,150.46,145.18,139.25,133.25,128.27,125.16,122.19,119.59,117.57,115.83,114.11,112.77,111.73,110.74,109.71,108.45,107.05,105.59,104.09,102.43,99.84,95.89,90.70,88.81,87.79,86.88,86.00,85.14,84.06,83.20,83.03,84.19,85.49,86.81,88.22,90.47,96.41,104.39,110.05,111.03,111.65,112.27,112.92,113.59,114.23,114.91,115.55,116.05,116.16,115.48,114.64,113.76,112.85,112.00,111.14,109.03,104.72,97.31,91.59,89.25,88.39,87.56,86.77,85.97,85.25,84.63,84.01,83.45,82.86,82.27,81.82,81.80,82.34,83.05,83.75,84.45,85.15,85.88,86.63,87.33,88.03,88.74,89.52,90.42,91.31,92.18,93.07,93.99,94.90,95.78,96.82,97.95,99.06,100.21,101.41,102.61,103.73,104.64,105.33,106.05,106.88,107.81,108.82,110.42,112.19,113.73,115.09,116.56,117.99,119.49,121.40,122.92,124.36,125.84,127.38,128.93,130.46,132.16,134.11,136.11,138.13,140.13,142.13,144.13,146.02,147.52,148.88,150.43,152.37,154.57,157.03,159.60,161.83,164.52,167.36,170.26,173.20,176.15,179.08,182.00,184.87,187.72,191.16,195.50,200.58,206.11,211.88,217.63,223.28,228.81,234.11,239.62,245.48,251.73,258.32,265.77,271.23,274.97,278.17,280.45,283.41,286.13,287.96,289.67,291.32,294.03,298.18,303.84,310.00,316.03,321.45,325.95,330.04,333.79,337.41,340.71,343.03,344.70,343.74,340.62,336.43,330.94,325.06,319.41,314.16,308.83,303.69,298.29,292.49,286.15,278.23,268.92,260.32,254.21,248.02,241.56,235.43,229.81,224.28,219.27,214.62,209.67,203.15,194.34,185.63,177.83,170.96,163.77,157.53,151.13,143.48,133.45,125.10,120.00,118.08,119.98,126.31,134.18,141.60,148.10,154.66,160.40,165.45,170.40,176.05,181.46,186.56,191.15,195.26,200.02,206.48,212.86,217.77,219.63,220.20,219.70,218.29,215.87,212.81,209.95,207.37,205.03,202.73
163.28,169.82,175.65,180.32,182.36,183.82,182.75,180.06,176.22,171.04,165.70,160.30,154.78,149.16,143.77,137.46,131.54,127.64,124.70,121.82,119.08,116.73,115.08,113.42,111.91,110.58,109.34,108.16,106.88,105.53,104.15,102.69,101.03,97.72,93.16,89.74,88.25,87.23,86.24,85.24,84.33,83.31,82.98,83.66,84.89,86.19,87.51,89.34,93.13,100.75,107.17,110.86,111.61,112.32,112.95,113.59,114.23,114.91,115.55,116.18,116.70,116.88,116.17,115.29,114.38,113.46,112.55,111.65,110.25,106.83,99.09,92.76,89.85,88.65,87.81,86.98,86.34,85.72,85.05,84.44,83.84,83.23,82.63,82.06,81.69,81.96,82.55,83.26,84.00,84.70,85.42,86.13,86.82,87.52,88.25,88.98,89.70,90.42,91.28,92.16,93.03,93.91,94.86,95.94,97.09,98.23,99.38,100.56,101.73,102.83,103.66,104.41,105.25,106.19,107.17,108.17,109.37,110.70,112.12,113.59,114.91,116.23,117.64,119.20,120.55,121.96,123.45,124.99,126.54,128.01,129.48,131.02,132.56,134.12,135.77,137.67,139.95,141.67,142.72,143.70,145.30,147.75,150.31,152.96,155.68,158.27,161.10,164.06,167.09,170.12,173.06,175.93,178.83,181.81,184.62,187.73,191.50,195.94,201.08,206.72,212.41,217.87,222.95,228.07,233.72,239.82,246.20,252.58,259.45,265.14,269.73,273.58,275.73,277.81,279.61,280.92,282.44,284.16,287.52,292.50,298.06,304.13,310.26,316.33,322.06,326.61,330.89,334.79,338.17,341.07,343.27,342.83,340.20,336.37,331.37,325.93,320.44,315.06,309.74,304.72,299.54,293.94,287.66,281.14,272.36,263.50,257.02,250.94,244.05,237.57,231.96,226.47,221.35,216.53,211.63,205.78,197.72,188.75,180.32,173.16,166.13,159.36,152.90,145.75,135.78,126.95,120.89,117.92,118.80,122.93,129.95,137.62,144.92,151.47,157.63,162.95,167.79,172.91,178.16,183.08,187.56,191.67,196.11,202.18,208.56,213.83,215.81,216.19,215.44,213.73,211.02,207.91,205.18,202.84,200.73,198.33
