498.52,505.45,511.40,516.86,522.22,527.75,532.52,536.95,541.21,544.66,548.10,552.59,558.25,564.64,571.32,576.81,582.06,587.91,592.36,596.00,599.57,603.39,607.50,611.51,615.83,619.77,621.91,622.64,622.77,622.15,620.66,619.35,617.41,615.05,612.54,610.27,608.33,606.23,603.69,600.52,596.90,594.07,592.04,590.64,589.16,587.23,585.40,583.50,580.91,578.20,575.23,572.08,568.53,563.83,560.27,556.69,552.38,546.96,541.87,537.36,532.59,526.63,520.32,515.67,511.81,507.95,503.15,497.80,492.18,486.57,481.14,474.94,469.13,463.97,459.08,452.63,444.88,439.11,435.85,433.43,432.58,431.65,429.85,426.71,423.25,418.29,413.54,409.87,406.67,404.13,403.34,404.10,405.63,407.05,408.43,409.67,410.66,411.36,411.90,412.30,412.51,412.34,411.77,410.89,409.82,408.63,407.29,405.85,404.25,402.44,400.50,398.25,395.83,393.34,390.86,388.01,384.95,381.81,378.72,376.03,373.70,371.43,369.10,366.76,364.97,362.90,360.26,356.68,351.66,345.48,338.66,331.48,324.36,317.08,309.74,302.84,297.35,292.14,286.37,280.88,276.54,272.75,271.01,270.45,270.41,270.09,269.03,266.85,263.54,259.07,254.48,250.13,245.38,239.81,233.68,224.30,215.01,207.22,201.46,196.35,192.45,189.21,185.90,181.72,177.25,173.03,168.91,164.12,159.80,157.01,156.21,157.98,161.30,164.44,166.32,166.37,165.20,163.96,162.80,161.52,159.59,157.39,155.03,152.47,149.61,146.26,142.15,137.12,131.18,124.91,118.91,113.31,108.31,104.05,99.19,95.87,93.33,90.76,87.55,84.31,81.34,79.08,78.28,77.51,76.71,75.89,75.06,74.22,73.29,73.09,73.92,75.35,76.84,79.20,85.27,98.68,108.54,116.95,123.16,126.75,131.00,137.36,144.99,153.13,160.86,169.11,175.78,180.50,183.12,184.61,184.99,184.52,183.29,181.51,178.58,174.32,169.15,163.72,158.27,152.70,147.19,142.10,138.24,134.52,131.01,127.91,125.50,123.29,121.88,121.29,121.60,122.61,125.14,128.41,132.08,135.93
497.60,504.95,511.26,516.98,522.69,528.88,533.84,538.13,542.17,545.84,549.73,554.63,560.65,567.39,573.51,578.86,584.21,589.93,594.08,597.74,601.49,605.47,609.43,612.97,616.60,619.84,621.54,622.13,622.00,620.71,618.21,616.46,614.33,611.65,608.63,605.78,603.41,600.81,597.94,594.83,591.54,589.01,587.18,585.76,583.95,581.80,580.43,579.41,577.58,575.74,573.62,571.22,568.40,564.76,562.05,559.05,555.39,551.26,545.70,540.31,534.89,528.75,522.32,517.98,514.55,511.12,506.90,501.79,495.96,489.95,484.49,478.54,472.38,466.69,461.56,455.13,447.32,440.31,434.82,430.61,428.02,425.78,423.13,419.56,415.61,410.99,407.06,404.36,401.93,399.10,397.79,398.39,400.64,402.81,404.69,406.37,407.82,408.76,409.41,409.88,410.10,409.88,409.31,408.60,407.82,406.92,405.80,404.64,403.33,401.77,399.96,397.83,395.58,393.28,390.88,388.10,385.09,382.16,379.60,377.40,375.44,373.68,371.94,369.91,368.34,366.87,365.08,362.21,357.19,351.08,344.51,337.69,330.78,323.61,315.40,307.10,301.11,296.01,290.51,285.07,280.44,276.72,275.14,274.63,274.59,274.44,274.19,272.84,270.10,265.67,260.66,255.70,250.64,245.17,238.77,229.11,219.18,210.85,205.85,201.75,198.31,195.10,191.62,187.10,182.17,177.25,172.36,167.22,162.45,159.83,159.66,162.16,166.28,169.95,172.00,171.72,169.85,168.08,166.70,165.42,163.53,161.18,158.50,155.72,152.93,149.70,145.89,141.30,136.00,130.52,124.66,119.14,114.10,109.35,103.59,98.58,94.60,91.65,88.89,86.12,82.93,79.97,78.92,78.09,77.27,76.42,75.56,74.70,73.73,73.12,73.29,74.61,76.08,77.59,81.57,92.01,103.29,113.32,120.69,124.75,128.15,133.11,139.81,147.80,156.09,164.73,172.04,177.33,179.99,181.56,182.06,181.75,180.72,179.12,176.47,172.68,168.12,163.20,157.86,152.13,146.17,140.42,136.09,132.13,128.75,125.94,123.46,121.44,120.25,119.87,120.42,121.85,124.93,128.92,133.53,138.42
495.52,503.38,510.41,516.62,522.56,529.10,534.18,538.60,543.01,547.39,552.32,557.75,563.58,569.69,575.46,581.01,586.42,591.58,595.84,599.84,603.92,608.08,611.83,615.25,618.17,620.33,621.23,621.45,620.60,618.30,614.86,613.11,610.96,607.63,603.40,599.49,597.00,594.69,592.08,589.07,586.12,583.65,581.37,579.10,576.88,574.92,573.55,572.50,571.37,570.75,569.89,568.56,566.78,565.09,563.00,560.37,557.12,553.03,548.37,542.73,536.49,530.18,524.37,519.78,516.10,512.98,509.52,504.42,498.74,492.95,487.24,481.70,475.55,469.60,464.33,458.30,452.14,445.39,438.52,433.13,427.24,421.52,416.61,413.00,409.32,405.34,401.70,398.85,396.73,393.77,391.60,391.53,395.08,398.53,401.02,402.83,404.19,405.21,406.10,406.75,407.07,406.89,406.31,405.96,405.65,404.92,404.16,403.12,401.93,400.61,398.91,396.88,394.81,392.71,390.43,387.50,384.31,381.44,379.46,378.25,376.94,375.44,373.76,371.97,370.90,369.95,368.51,365.77,361.69,356.02,349.65,343.09,336.70,330.97,322.24,311.89,304.98,299.41,294.06,288.85,284.11,280.24,278.43,277.77,277.70,277.63,277.88,277.57,276.09,272.66,267.81,261.88,256.24,251.21,244.94,235.54,225.15,216.04,211.36,207.65,203.98,200.18,196.24,192.09,187.14,181.79,176.27,170.86,165.95,163.40,163.84,167.73,171.67,174.42,175.68,175.23,173.65,172.11,170.69,169.28,167.58,165.14,162.02,158.78,155.85,152.84,149.42,145.23,140.33,135.48,130.60,125.10,119.48,114.87,110.88,103.91,97.42,93.57,89.67,86.61,83.78,81.20,79.60,78.62,77.77,76.92,76.06,75.15,74.17,73.23,72.80,73.90,75.37,76.87,78.81,83.48,97.85,109.14,117.06,122.59,125.99,129.57,134.88,142.17,150.85,159.12,166.77,172.63,175.40,177.62,178.48,178.36,177.46,176.11,174.13,170.92,166.75,162.06,156.87,151.21,145.22,139.39,135.18,131.23,127.68,124.58,121.89,120.31,119.59,119.44,119.73,120.52,123.92,128.61,133.79,138.80
494.75,502.05,509.03,515.55,521.66,528.57,533.90,538.56,543.30,548.16,553.73,559.49,565.25,571.01,576.61,582.15,587.60,592.80,597.31,601.63,605.92,610.03,613.49,616.90,619.19,620.32,620.29,618.49,615.69,612.73,610.21,608.54,606.24,602.78,598.38,594.05,591.44,589.36,586.99,583.95,581.17,578.72,576.29,573.70,570.84,568.46,566.44,564.82,563.86,563.49,563.42,563.26,562.84,562.38,561.41,559.79,557.40,553.97,549.88,544.43,538.25,532.11,526.33,521.76,518.06,514.89,511.45,506.29,500.65,494.88,488.95,483.73,478.26,472.81,467.57,461.88,456.21,450.03,443.48,437.47,431.25,424.79,418.76,413.92,409.23,404.22,399.17,394.56,391.15,387.89,386.01,386.41,390.15,393.86,396.72,398.83,400.30,401.42,402.36,403.03,403.43,403.56,403.24,403.07,402.96,402.57,402.08,401.28,400.23,398.91,397.30,395.43,393.48,391.45,389.12,386.23,383.06,379.98,377.43,376.10,375.54,375.15,374.57,373.47,372.47,371.50,370.30,368.37,365.19,360.11,354.15,347.96,342.01,336.83,329.64,320.50,311.38,304.49,299.33,294.73,290.16,286.68,284.87,284.09,283.90,283.77,283.92,283.93,283.38,281.47,277.16,271.02,263.90,256.50,250.09,241.96,232.68,223.81,218.16,213.75,209.76,205.64,201.05,196.27,191.49,186.32,180.65,174.80,169.54,167.50,168.81,172.93,176.76,179.06,179.94,179.43,178.16,176.85,175.37,173.70,171.84,169.38,166.20,162.71,159.30,156.09,152.78,149.04,144.74,140.01,135.35,130.28,124.93,119.80,115.54,109.94,103.53,97.17,92.06,88.22,85.13,82.56,80.47,79.21,78.27,77.42,76.56,75.60,74.61,73.60,72.89,73.34,74.64,76.14,77.66,80.52,91.72,103.31,112.77,119.23,123.65,127.08,131.66,138.19,146.77,155.24,162.75,168.02,169.68,170.31,171.16,171.98,172.36,171.78,170.56,168.05,164.34,159.72,154.67,149.33,143.82,138.50,134.51,130.65,127.06,123.81,120.96,119.73,119.22,119.14,119.53,120.25,123.58,128.13,133.00,137.46
494.19,500.65,507.39,514.11,520.39,527.56,533.21,538.15,543.18,548.49,554.47,560.42,566.14,571.71,577.22,582.74,588.25,593.63,598.48,603.15,607.58,611.52,614.57,617.41,618.76,618.80,617.78,614.07,609.66,606.29,604.61,602.91,600.53,597.26,593.20,588.86,586.19,584.18,581.90,578.90,576.36,573.91,571.31,568.28,564.54,561.49,558.86,556.84,556.11,555.88,556.37,557.15,557.87,558.25,558.42,558.02,556.77,554.25,550.75,545.73,539.91,534.13,528.38,523.92,520.20,516.81,513.18,507.98,502.34,496.52,490.44,485.41,480.74,475.98,470.92,465.53,460.01,454.37,448.49,442.21,436.30,429.97,423.56,417.66,411.93,405.86,399.44,393.06,388.04,384.10,381.94,382.05,385.23,388.55,391.76,394.45,396.26,397.51,398.48,399.20,399.73,400.14,400.16,400.13,400.09,399.99,399.75,399.18,398.25,396.94,395.42,393.73,391.88,389.83,387.49,384.69,381.53,378.07,374.72,373.11,373.25,373.95,374.51,374.20,373.38,372.42,371.45,370.28,367.95,363.59,358.29,352.69,346.97,341.91,336.46,329.32,318.90,310.80,305.75,301.75,297.45,294.15,292.22,291.30,291.09,290.96,290.99,291.03,290.95,290.09,286.21,280.04,271.72,262.03,254.87,247.70,239.63,231.25,224.42,219.41,215.29,211.02,205.88,200.35,195.51,190.50,184.85,178.68,173.24,171.99,174.38,178.66,182.20,184.10,184.69,184.17,183.13,182.00,180.41,178.34,176.07,173.57,170.52,166.94,163.00,159.53,156.23,152.81,149.00,144.39,139.73,134.98,129.89,124.22,119.31,115.43,109.99,102.01,95.62,90.42,86.65,83.97,81.53,79.86,78.78,77.92,77.04,76.05,75.05,74.03,73.16,72.88,73.94,75.42,76.96,79.18,85.72,97.36,108.36,115.22,121.11,125.14,129.60,135.61,143.72,152.39,159.65,164.15,164.65,163.31,163.67,165.06,166.53,166.69,166.11,164.25,161.07,156.60,151.82,146.93,142.06,137.49,133.74,130.00,126.41,123.09,120.29,119.32,118.94,118.92,119.50,120.44,123.61,127.74,131.99,135.73
493.06,498.86,505.38,512.16,518.61,525.72,531.73,537.09,542.34,548.13,554.19,560.07,565.74,571.35,576.90,582.53,588.15,593.67,599.04,604.11,608.61,612.22,614.48,614.93,614.30,612.97,610.85,607.13,603.29,599.93,597.27,595.03,592.90,590.44,587.37,583.61,581.13,578.75,576.16,573.49,571.55,569.11,565.92,561.73,556.47,552.61,550.02,548.64,548.72,549.23,549.98,550.86,551.75,552.40,553.26,554.18,554.56,553.16,550.70,546.39,541.13,535.96,530.75,526.47,522.56,518.74,514.92,509.76,504.11,498.23,492.17,487.03,482.87,478.80,474.14,469.05,463.64,458.16,452.59,446.54,440.31,434.41,428.85,423.47,417.79,412.06,405.87,399.19,392.94,387.32,382.02,378.51,379.82,381.59,385.31,389.31,391.99,393.47,394.61,395.60,396.37,396.78,397.12,397.21,397.14,397.06,396.99,396.51,395.71,394.62,393.21,391.70,389.88,387.79,385.55,382.98,379.51,375.42,371.53,370.25,370.75,371.73,372.62,373.03,373.09,372.75,372.05,370.92,369.31,365.90,361.87,357.45,351.35,345.96,341.00,335.46,327.67,319.47,314.24,310.47,306.45,302.25,299.59,298.48,298.58,298.82,299.11,298.96,298.25,296.51,292.34,286.09,278.23,268.95,259.35,251.27,243.37,235.31,227.87,223.46,219.92,215.86,210.53,204.83,199.13,193.55,188.00,182.08,177.19,177.19,181.15,186.37,189.07,190.22,190.45,189.94,188.91,187.86,185.95,183.14,180.00,177.35,174.67,171.31,166.99,163.43,160.09,156.59,152.78,148.68,144.05,138.84,133.24,127.57,122.65,118.66,114.58,109.25,101.41,93.45,88.20,85.49,82.96,80.65,79.28,78.41,77.48,76.49,75.49,74.45,73.43,72.65,73.38,74.70,76.21,77.93,80.79,92.50,104.14,110.22,118.13,123.98,129.65,135.93,142.84,151.26,158.27,162.53,162.79,160.31,159.03,159.12,160.08,160.44,160.03,158.60,156.02,152.11,148.12,143.74,139.55,135.93,132.44,128.82,125.23,122.00,119.84,118.97,118.66,118.80,119.62,121.09,124.20,127.81,131.25,134.31
492.69,497.89,504.03,510.58,516.73,523.58,529.94,535.64,540.94,546.88,553.03,559.05,564.88,570.60,576.21,581.87,587.48,592.97,598.57,604.04,608.71,611.91,612.82,611.70,609.74,607.35,604.40,600.21,596.40,593.21,590.57,588.00,584.52,581.15,578.11,575.00,573.06,571.20,569.27,567.48,566.08,563.88,560.63,556.14,550.65,546.37,543.49,541.99,542.10,542.73,543.44,544.31,545.53,547.01,548.77,550.66,552.04,551.46,549.63,546.19,541.96,537.64,533.07,528.95,524.98,520.94,516.78,511.59,506.00,500.21,494.25,488.95,484.95,481.28,477.08,472.10,466.86,461.68,456.44,450.50,444.17,438.33,433.07,428.16,422.63,416.96,411.18,405.11,398.53,392.13,385.84,380.49,377.76,376.35,378.50,382.46,386.43,388.89,390.42,391.66,392.73,393.43,393.93,394.18,394.23,394.16,394.15,393.75,393.07,392.16,390.94,389.57,387.94,386.06,383.83,380.94,376.62,372.09,368.79,367.41,368.22,369.64,370.94,371.73,372.10,372.13,371.80,370.93,369.50,366.91,363.81,360.20,354.87,349.30,344.49,339.94,334.03,326.89,321.65,317.83,314.46,310.73,308.14,307.03,307.22,307.69,307.89,307.15,305.30,301.90,296.53,289.45,281.40,272.43,262.19,253.90,246.10,238.40,231.63,227.72,224.55,220.71,215.36,209.34,202.95,196.73,190.79,185.10,182.29,183.69,187.82,192.24,194.57,195.48,195.58,195.05,194.00,192.71,190.64,187.73,184.31,181.66,179.18,176.07,171.79,167.40,163.79,160.31,156.62,152.69,148.25,143.02,137.23,131.33,126.11,121.85,117.94,113.31,105.85,96.97,90.49,86.91,84.39,81.88,80.11,78.89,77.93,76.90,75.86,74.79,73.67,72.61,73.05,74.15,75.52,77.04,78.55,87.09,97.66,106.24,113.83,123.13,130.73,136.34,142.56,150.77,157.69,161.98,162.43,159.60,157.03,155.52,155.11,155.05,154.49,153.13,150.94,147.79,144.19,140.44,136.89,133.66,130.19,126.69,123.39,120.66,119.17,118.42,118.40,118.86,119.80,121.77,124.83,128.08,131.02,133.56
492.67,497.43,503.17,509.38,515.00,521.37,527.96,533.99,539.29,545.22,551.38,557.58,563.67,569.50,575.19,580.88,586.43,591.75,597.46,603.22,607.99,610.70,610.12,608.08,605.29,602.10,598.45,593.63,589.57,586.54,584.23,581.18,575.82,570.93,567.38,564.90,563.46,562.41,561.56,560.87,560.04,558.27,555.30,551.04,546.08,541.72,538.42,536.42,536.14,536.54,537.01,537.83,539.40,541.95,544.65,547.23,549.13,549.16,547.75,545.29,542.28,538.95,535.08,531.21,527.27,523.14,518.61,513.45,508.02,502.41,496.57,491.13,487.04,483.54,479.76,474.82,469.74,464.85,459.93,454.13,447.86,441.89,436.59,432.03,426.74,421.04,415.68,410.59,404.32,397.71,391.59,385.47,378.37,373.27,372.46,375.17,380.25,383.95,385.96,387.45,388.82,389.90,390.51,390.95,391.20,391.17,391.21,390.90,390.36,389.63,388.63,387.38,386.01,384.42,382.15,378.46,373.16,368.46,366.10,364.56,365.67,367.55,369.24,370.29,370.73,370.97,370.99,370.44,368.93,366.97,364.57,361.54,357.50,351.88,347.06,343.12,338.55,333.04,328.00,324.11,321.63,319.16,317.19,316.26,316.44,317.00,316.89,315.15,311.68,306.22,299.26,291.09,282.56,273.81,264.01,255.98,248.43,241.23,235.57,232.06,229.10,225.48,220.29,213.81,206.92,200.11,193.60,187.98,187.68,190.34,193.99,197.07,199.40,200.34,200.39,199.78,198.65,196.95,194.81,192.16,188.86,186.28,183.87,180.98,176.95,171.62,167.50,163.94,160.39,156.43,152.20,147.25,141.58,135.41,129.76,125.09,120.59,115.50,109.06,100.27,92.89,88.15,85.71,83.26,81.07,79.37,78.33,77.26,76.18,75.05,73.87,72.69,72.89,73.75,74.95,76.39,77.83,81.91,90.54,102.85,109.30,122.50,132.18,136.75,142.61,150.67,157.56,162.02,162.83,160.11,156.61,153.51,151.37,150.44,149.53,148.06,146.07,143.63,140.24,137.09,134.02,130.71,127.16,123.94,121.22,119.22,118.37,117.91,118.28,119.11,120.13,122.50,125.50,128.48,131.09,133.21
492.17,497.24,503.00,509.00,514.20,519.55,526.02,532.36,537.93,543.98,549.70,555.69,561.90,567.73,573.52,579.51,585.12,589.99,595.92,601.50,605.75,607.79,606.66,604.47,601.53,597.94,593.57,588.54,584.44,581.08,577.75,572.81,567.62,562.86,559.03,556.78,554.71,553.50,553.01,553.04,552.94,551.91,549.50,545.66,541.30,537.49,534.24,531.93,531.34,531.45,531.70,532.38,534.04,537.07,540.43,543.25,545.11,545.55,544.67,543.13,541.19,538.75,535.73,532.46,528.78,524.56,519.97,515.21,510.27,504.99,499.13,493.74,489.35,485.61,481.99,477.25,472.00,467.04,462.37,457.14,451.16,445.15,439.62,434.94,430.22,424.84,419.62,414.76,409.40,402.96,396.53,390.04,382.80,376.10,371.24,370.40,374.71,378.57,381.07,382.87,384.32,385.50,386.35,387.01,387.49,387.72,388.02,387.91,387.60,387.12,386.28,385.14,383.88,382.42,380.01,374.55,369.37,365.18,362.39,361.58,363.02,364.98,366.80,368.49,369.33,369.75,369.80,369.20,367.78,366.01,364.01,361.58,358.12,352.61,347.94,344.42,340.66,336.42,332.17,328.93,327.47,326.36,325.41,325.03,325.31,325.74,325.15,321.50,315.42,307.99,300.04,291.50,282.94,274.46,265.34,257.81,251.37,245.40,239.50,236.19,233.30,229.89,225.18,218.06,210.97,204.12,197.38,191.13,191.24,194.05,197.86,201.96,204.74,205.62,205.43,204.60,203.05,201.01,198.78,196.35,193.52,190.93,188.44,185.54,181.62,176.90,171.76,167.29,163.59,159.50,155.24,150.79,145.84,139.87,133.94,128.53,123.22,117.37,110.02,101.13,93.68,88.76,86.41,84.06,81.74,79.80,78.56,77.47,76.35,75.18,73.95,72.74,72.85,73.66,74.77,75.99,77.20,79.42,86.62,99.49,107.31,122.18,132.63,137.03,142.66,150.73,157.64,162.07,162.91,160.39,156.64,152.85,149.59,147.32,145.96,144.37,142.27,139.73,136.69,133.75,130.39,126.36,122.91,120.79,119.21,118.01,117.63,118.04,118.77,119.72,121.11,123.50,126.34,129.02,131.23,133.06
491.39,496.71,502.64,508.69,513.78,518.49,524.60,530.93,536.74,542.80,548.12,553.84,560.03,565.91,571.88,578.12,583.82,588.43,594.21,599.43,602.98,604.12,602.55,599.90,596.23,591.69,586.47,581.68,577.34,573.26,568.99,563.32,558.90,554.82,551.08,548.78,546.63,545.63,545.51,545.81,545.98,545.21,543.13,539.75,536.05,532.75,529.66,527.20,526.36,526.44,526.84,527.67,529.36,532.29,535.66,538.41,540.13,540.68,540.19,539.25,538.03,536.46,534.74,532.56,529.46,525.30,520.72,516.40,512.05,507.25,501.50,496.36,491.87,487.87,484.03,479.28,473.98,468.94,464.31,459.62,454.11,448.41,442.97,438.10,433.59,428.46,423.41,418.77,414.02,407.98,401.22,394.20,387.24,380.05,372.72,368.23,369.12,372.89,376.01,378.20,379.68,380.92,381.91,382.76,383.52,384.16,384.74,384.90,384.83,384.56,383.85,382.87,381.62,379.99,377.27,371.10,366.20,362.43,359.42,358.86,360.64,362.81,364.75,366.79,367.81,368.35,368.43,367.73,366.40,364.83,363.12,361.05,357.76,352.65,348.24,344.83,341.39,337.99,334.53,332.00,331.29,330.92,330.55,330.43,330.67,331.01,330.18,325.14,317.17,308.65,300.38,291.59,283.04,275.13,267.15,259.88,254.14,249.26,243.73,240.36,237.26,233.90,229.67,222.58,215.25,208.20,201.44,195.26,194.84,198.07,202.81,207.11,209.80,210.53,210.21,209.19,207.31,205.04,202.72,200.31,197.43,194.72,192.19,189.39,185.77,181.44,175.98,170.99,166.87,162.54,158.15,153.98,149.59,144.15,138.06,131.95,125.81,119.14,110.66,101.68,94.25,89.21,86.90,84.63,82.27,80.17,78.77,77.66,76.50,75.28,74.01,72.78,72.80,73.56,74.65,75.72,76.81,78.12,83.13,93.77,105.17,121.86,132.83,137.02,142.01,150.25,157.41,162.05,163.08,160.73,156.64,152.30,148.33,145.10,143.10,141.05,138.64,135.94,132.96,129.71,126.11,122.33,119.58,118.25,117.65,117.47,117.68,118.62,119.64,120.79,122.40,124.55,127.21,129.63,131.49,133.10
490.40,495.79,501.92,508.25,513.61,518.28,523.82,529.79,535.75,541.63,546.66,552.13,558.21,564.22,570.38,576.79,582.61,587.20,592.41,597.12,599.83,599.86,597.78,594.10,588.94,582.83,576.68,572.53,567.71,562.62,557.80,552.97,549.65,546.50,543.29,540.76,539.27,539.03,539.34,539.46,539.32,538.23,536.20,533.34,530.32,527.40,524.51,522.07,520.98,521.30,522.24,523.56,525.34,527.63,530.31,532.63,534.15,534.45,534.13,533.42,532.57,531.87,531.91,531.27,529.10,525.23,520.74,516.87,513.18,508.99,503.56,498.86,494.56,490.35,485.93,480.84,475.68,470.63,465.85,461.54,456.69,451.71,446.71,441.71,436.91,431.87,427.09,422.71,418.10,412.63,405.65,397.91,390.98,384.26,376.58,368.88,363.77,366.96,370.70,373.32,374.88,376.23,377.23,378.21,379.29,380.42,381.29,381.81,382.03,381.92,381.31,380.54,379.19,377.12,373.92,368.42,363.85,360.22,357.41,356.45,358.56,361.15,363.29,365.27,366.17,366.74,366.89,366.14,364.89,363.53,362.03,360.01,356.55,352.07,347.97,344.37,340.75,337.75,334.97,333.12,332.78,332.42,332.05,331.81,331.83,332.14,331.33,325.69,316.99,308.47,300.55,291.57,283.03,275.97,269.62,262.41,256.79,252.70,248.35,244.64,241.02,237.49,233.66,227.40,219.78,212.31,205.72,200.54,198.95,203.00,209.25,212.48,214.40,214.95,214.62,213.48,211.43,209.05,206.66,204.04,200.52,197.58,195.02,192.45,189.34,184.93,180.01,175.09,170.32,165.67,161.06,156.81,152.71,148.05,141.97,135.32,128.41,120.85,111.40,102.36,94.88,89.60,87.25,85.06,82.69,80.50,78.98,77.84,76.65,75.38,74.06,72.78,72.72,73.44,74.52,75.60,76.69,77.81,79.81,85.70,102.50,121.47,132.90,136.70,140.58,149.04,156.75,161.93,163.39,161.16,156.60,151.73,147.41,143.76,140.87,138.00,135.08,132.24,128.90,124.92,121.35,119.04,117.58,116.63,116.75,117.77,118.71,119.67,120.89,122.33,123.94,125.65,128.09,130.29,131.88,133.37
490.06,495.08,500.71,506.78,512.77,518.05,523.77,529.76,535.58,540.55,545.40,551.11,557.47,563.47,569.50,575.75,581.50,586.15,591.04,595.22,597.10,596.06,593.02,587.19,580.87,574.58,568.37,563.73,559.13,554.45,549.87,545.37,542.06,539.04,536.24,534.42,533.00,532.66,532.85,532.84,532.41,531.34,529.75,527.64,525.22,522.72,520.08,517.53,515.71,515.52,516.37,518.16,520.84,523.34,525.31,526.65,527.30,527.16,526.65,526.18,525.98,526.31,527.56,527.91,526.62,523.59,519.95,516.68,513.41,509.72,505.13,500.85,496.66,492.43,487.87,482.24,476.92,471.90,467.25,463.23,458.87,454.45,449.91,445.06,439.89,434.80,430.02,425.60,421.12,415.81,409.16,401.52,393.73,386.89,379.79,371.48,363.08,361.73,363.71,366.38,368.90,371.19,372.34,373.20,374.08,375.13,376.38,377.80,378.81,379.04,378.70,378.01,376.58,374.33,371.07,365.93,361.43,357.61,354.53,353.74,356.16,359.22,361.79,363.63,364.48,365.10,365.38,364.75,363.56,362.29,360.70,358.35,354.77,350.44,346.12,342.14,338.74,336.00,333.82,332.49,332.26,332.04,331.82,331.67,331.63,331.52,329.92,324.49,316.76,309.09,301.23,292.50,284.12,277.18,272.06,266.51,261.77,257.86,253.83,249.33,245.12,241.26,237.32,231.58,224.14,216.78,210.52,206.38,205.50,208.91,213.97,216.85,218.59,219.13,218.79,217.58,215.56,213.10,210.65,208.04,204.64,201.15,198.20,195.44,192.28,188.07,183.37,178.41,173.40,168.74,163.97,159.43,155.13,150.81,145.29,138.82,131.48,123.06,113.55,104.30,96.28,90.33,87.75,85.90,83.39,80.83,79.17,77.99,76.75,75.44,74.08,72.82,72.65,73.31,74.40,75.52,76.61,77.70,78.91,83.32,100.56,120.88,132.91,136.35,139.77,147.41,155.45,161.45,163.31,161.69,157.25,151.97,146.87,142.64,138.98,135.53,132.03,128.22,124.34,121.16,118.74,117.16,116.45,116.73,117.66,118.97,120.25,121.42,122.58,123.84,125.33,127.01,129.01,130.86,132.36,133.87
490.33,494.51,499.26,504.82,511.51,517.50,523.68,529.80,535.32,539.48,544.28,550.24,556.88,562.89,568.67,574.64,580.29,585.05,589.76,593.55,594.74,592.64,588.20,580.55,573.46,567.37,561.40,556.22,551.89,547.72,543.28,538.76,535.05,531.81,529.19,527.80,526.28,525.72,525.75,525.73,525.23,524.44,523.38,521.95,520.03,517.94,515.59,513.04,510.66,509.79,510.23,512.11,515.41,518.18,519.63,520.15,520.01,519.44,518.75,518.43,518.73,519.97,522.12,523.37,523.04,521.02,518.32,515.80,513.04,509.84,506.09,502.18,498.17,494.08,489.60,483.61,478.06,473.00,468.48,464.68,460.73,456.77,452.68,448.12,442.70,437.44,432.55,428.03,423.55,418.30,412.11,404.79,396.16,389.09,382.64,374.59,364.54,358.59,357.69,359.55,362.75,365.73,367.07,367.90,368.71,369.73,371.36,373.52,375.26,376.03,375.98,375.40,373.98,371.68,368.35,363.53,359.07,355.01,351.66,351.11,353.65,357.02,360.06,361.98,362.88,363.56,363.92,363.45,362.36,361.07,359.21,356.43,352.81,348.49,343.93,339.64,336.41,333.75,332.05,331.14,330.93,330.81,330.73,330.70,330.65,330.25,328.04,323.20,316.77,309.95,302.24,293.97,285.91,279.03,274.78,270.94,267.11,263.26,259.33,254.33,249.65,245.35,240.97,235.44,228.23,221.13,215.31,211.94,212.16,214.87,218.43,221.08,222.66,223.15,222.73,221.40,219.45,217.06,214.64,212.15,209.12,205.21,201.80,198.69,195.28,191.22,186.48,181.35,176.17,171.54,166.70,161.84,157.24,153.03,148.06,142.02,134.58,125.65,116.61,107.12,98.56,91.93,88.48,86.94,84.28,81.28,79.38,78.11,76.83,75.48,74.11,72.86,72.59,73.20,74.30,75.44,76.53,77.60,78.65,82.57,99.03,120.41,133.17,136.46,139.49,146.40,154.40,160.80,163.07,162.13,158.12,152.80,147.19,142.34,137.84,133.63,129.31,124.39,120.44,118.26,116.93,115.99,116.05,117.44,119.04,120.49,121.98,123.37,124.44,125.46,126.76,128.40,129.98,131.46,132.92,134.45
491.76,494.17,497.45,502.28,509.56,516.13,523.00,529.29,534.28,538.37,543.34,549.35,555.95,562.17,567.60,573.20,578.74,583.71,588.39,592.20,593.08,589.91,583.27,575.31,568.33,562.44,556.97,551.78,547.46,543.09,538.07,532.96,528.47,524.68,521.62,519.40,517.69,517.13,517.28,517.54,517.50,517.41,516.93,515.83,514.16,512.42,510.46,508.29,506.13,504.63,504.22,505.25,507.86,510.52,511.92,512.39,512.13,511.28,510.69,510.26,510.52,512.24,514.84,517.14,518.03,517.06,515.06,513.60,511.67,509.02,505.74,502.15,498.53,494.86,490.75,485.04,479.26,473.94,469.32,465.63,462.03,458.40,454.68,450.58,445.26,439.65,434.52,429.97,425.19,419.95,414.16,407.26,398.43,391.16,384.94,377.74,368.54,360.45,355.29,354.39,356.97,359.39,360.94,362.23,363.53,365.07,367.05,369.13,371.15,372.76,373.04,372.72,371.53,369.32,365.69,361.23,356.87,352.73,349.35,348.88,351.03,354.29,357.76,360.36,361.55,362.28,362.63,362.27,361.31,359.81,357.50,354.25,350.75,346.44,341.91,337.64,334.16,331.26,329.72,329.06,328.84,328.64,328.53,328.52,328.57,328.42,326.65,322.85,317.46,310.88,303.75,296.22,288.80,282.31,278.29,275.15,271.83,268.16,264.30,259.88,255.09,250.09,244.84,238.86,231.64,224.95,219.72,216.37,217.48,220.31,223.34,225.59,226.71,226.91,226.24,224.64,222.72,220.73,218.62,216.38,213.87,210.05,206.27,202.65,198.88,194.60,189.41,183.83,178.37,173.70,168.97,163.95,158.99,154.60,149.87,144.38,137.42,128.91,121.12,111.41,102.65,95.55,89.73,88.23,85.51,82.02,79.62,78.20,76.89,75.55,74.17,72.92,72.57,73.14,74.23,75.32,76.41,77.44,78.48,82.31,98.11,120.37,134.15,137.78,140.16,147.25,154.46,159.99,162.67,162.24,159.09,154.66,149.53,144.04,138.43,132.87,127.13,121.24,118.63,116.88,115.74,115.70,116.96,118.60,120.39,122.21,123.86,125.38,126.49,127.38,128.38,129.74,130.98,132.24,133.61,135.09
495.49,496.38,498.18,501.58,507.54,513.66,520.84,527.73,533.21,537.29,542.15,547.85,554.18,560.72,565.93,571.15,576.46,581.58,586.44,590.43,591.16,587.56,581.00,573.17,566.27,560.51,555.36,550.21,545.69,541.16,536.16,531.00,524.88,519.59,515.54,512.28,509.93,509.20,509.38,509.68,509.87,510.03,509.67,508.52,506.78,505.10,503.74,502.53,501.09,499.38,498.76,499.15,500.50,502.72,504.24,504.82,504.61,504.03,503.88,504.21,505.19,507.06,509.36,511.51,512.49,511.93,510.81,509.81,508.54,506.71,503.94,500.85,497.77,494.63,491.00,485.88,480.23,474.94,470.39,466.73,463.30,459.86,456.30,452.37,447.26,441.29,435.87,431.35,426.29,420.64,414.85,408.34,400.01,393.42,387.09,379.86,371.22,362.81,355.60,351.87,351.90,353.71,355.52,357.32,359.13,361.01,363.02,365.06,367.09,368.81,369.36,369.29,368.39,366.47,363.11,359.06,354.84,350.63,347.12,346.63,348.55,351.57,354.97,357.96,359.71,360.74,361.20,360.88,359.82,358.07,355.62,352.48,349.12,345.05,340.64,336.30,332.58,329.02,327.20,326.43,325.99,325.65,325.61,325.71,325.88,326.08,325.47,322.81,318.36,312.56,306.25,299.29,292.41,286.49,282.68,279.56,276.27,272.63,268.80,264.55,259.59,254.32,248.92,242.75,234.90,227.97,223.24,220.88,222.59,225.61,228.56,230.56,231.26,230.94,229.75,227.79,225.85,224.28,222.61,220.68,218.39,214.78,210.73,206.58,202.30,197.66,191.99,185.81,179.81,175.09,170.69,165.77,160.57,155.69,150.69,145.76,139.98,132.80,125.13,116.16,107.35,99.38,93.02,90.62,87.43,83.37,79.81,78.26,76.93,75.58,74.23,72.94,72.51,73.03,74.12,75.20,76.28,77.31,78.33,81.92,96.76,122.02,137.17,139.98,143.00,149.14,155.31,160.25,162.85,161.97,159.09,155.37,151.00,145.63,139.71,133.14,126.26,120.15,117.91,116.15,115.10,115.61,117.39,119.34,121.45,123.62,125.50,127.22,128.42,129.29,130.09,131.19,132.29,133.40,134.57,135.84
500.56,500.26,500.73,502.48,506.31,511.20,518.13,525.53,531.94,536.16,540.81,546.06,552.03,558.80,563.94,568.77,573.75,578.96,584.15,588.39,589.15,585.68,580.14,572.89,566.29,560.71,555.71,550.60,545.72,540.93,536.09,531.07,523.16,516.22,511.17,506.77,503.21,501.77,501.64,501.91,502.24,502.39,501.97,500.75,498.97,497.22,496.39,496.15,495.53,493.86,493.31,493.24,493.33,494.99,496.65,497.52,497.58,497.42,497.63,498.75,500.53,502.66,504.65,506.11,506.58,506.06,505.66,504.83,504.15,503.22,501.06,498.63,496.21,493.64,490.50,486.10,480.87,475.89,471.56,467.88,464.54,461.21,457.69,453.73,448.81,442.47,436.77,432.30,427.00,420.83,414.87,408.71,401.24,395.51,389.05,381.51,373.17,365.25,357.28,351.15,348.05,348.70,350.57,352.88,355.20,357.27,359.09,361.05,362.95,364.50,365.27,365.42,364.83,363.33,360.49,356.85,352.72,348.39,344.71,344.33,346.21,348.99,352.11,355.24,357.53,358.91,359.50,359.20,358.00,356.08,353.70,350.88,347.66,343.97,339.74,335.33,331.35,326.86,324.51,323.50,322.78,322.26,322.31,322.61,323.02,323.60,324.20,322.71,319.28,314.54,309.23,302.90,296.56,291.14,287.46,284.07,280.55,276.82,272.87,268.58,263.44,258.03,252.71,246.50,237.92,230.54,226.29,225.59,227.87,231.08,234.04,235.73,236.01,235.14,233.45,231.22,229.22,227.98,226.67,224.94,222.63,219.20,214.96,210.29,205.38,200.33,194.19,187.38,180.71,176.00,171.96,167.23,161.87,156.43,151.06,146.60,142.13,136.52,128.55,120.54,111.68,102.77,96.69,93.15,89.33,84.69,79.93,78.27,76.93,75.59,74.27,72.96,72.44,72.92,74.00,75.07,76.14,77.17,78.19,81.49,95.12,123.58,140.33,142.51,146.45,151.54,156.91,161.47,163.52,161.54,158.60,155.43,151.82,146.92,141.04,133.82,126.19,120.27,117.88,115.90,114.78,115.51,117.49,119.76,122.21,124.70,126.89,128.82,130.18,131.11,131.82,132.73,133.76,134.78,135.74,136.76
506.93,506.32,506.12,506.71,508.62,511.07,515.95,522.64,529.94,534.77,539.29,544.24,549.90,556.33,561.65,566.13,570.58,575.75,581.50,585.91,587.33,585.06,580.12,574.64,569.30,564.17,559.05,553.86,548.28,542.73,537.52,532.34,523.62,516.37,511.34,505.75,499.42,495.25,493.48,493.85,494.35,494.36,493.99,493.28,492.25,490.52,489.51,489.19,488.71,487.32,486.85,486.67,486.50,487.74,489.43,490.97,491.93,491.74,491.43,491.70,493.25,496.57,499.64,500.45,500.15,499.40,498.49,497.83,497.73,497.58,496.34,494.95,493.37,491.35,488.53,484.71,480.49,476.44,472.68,469.01,465.69,462.41,458.83,454.51,449.49,442.87,436.95,432.46,427.17,420.81,414.66,408.70,402.30,396.55,390.41,383.15,374.62,366.97,359.57,353.10,348.10,345.29,346.17,348.86,351.78,353.68,355.03,356.66,358.42,360.00,360.84,361.05,360.82,359.91,357.57,354.16,349.87,345.19,341.37,341.84,344.18,347.02,349.92,352.66,354.85,356.25,356.90,356.67,355.66,354.04,351.92,349.27,346.21,342.89,339.00,334.71,330.28,324.46,321.53,320.40,319.54,318.76,318.79,319.49,320.58,321.53,322.16,321.71,319.90,316.44,312.37,307.22,301.57,296.15,292.23,288.51,284.71,280.64,276.07,271.52,266.25,260.58,254.85,248.75,240.20,232.82,229.13,230.96,234.26,237.54,239.98,240.79,240.65,239.60,237.99,236.01,234.03,232.58,230.94,228.82,226.06,222.53,218.11,213.00,207.39,201.87,195.46,188.13,180.82,176.27,172.34,167.68,162.31,156.75,151.37,147.05,143.09,138.24,130.33,122.36,113.20,103.88,97.95,94.15,89.80,84.68,79.78,78.10,76.83,75.56,74.28,73.00,72.41,72.86,73.92,74.95,75.98,77.02,78.06,81.04,93.06,121.44,140.10,144.69,148.24,154.16,160.25,164.66,165.21,161.16,157.86,154.94,151.63,147.13,141.26,134.19,126.99,121.59,118.68,116.32,114.80,114.96,117.06,119.54,122.24,125.06,127.66,129.77,131.39,132.61,133.50,134.42,135.34,136.29,137.25,138.16
511.98,511.35,510.91,510.91,511.63,512.50,515.16,519.90,526.47,532.52,537.26,542.05,547.45,553.56,559.10,563.59,567.78,572.77,579.45,583.97,586.00,585.14,580.97,576.72,572.35,567.73,562.77,557.58,551.45,545.30,539.71,533.98,525.13,517.80,512.62,506.83,499.22,492.82,488.61,487.06,486.70,486.15,485.67,485.42,485.08,484.07,483.39,483.04,482.49,481.19,480.30,479.81,479.86,481.32,483.08,484.79,485.97,485.73,485.09,485.02,486.48,490.14,493.42,494.14,493.83,493.20,492.13,491.51,491.38,491.38,490.92,490.25,489.29,487.83,485.60,482.62,479.47,476.32,473.12,469.69,466.43,463.19,459.49,454.71,449.39,442.84,437.05,432.55,427.25,420.76,414.41,408.50,402.80,397.12,391.28,384.31,375.96,369.11,362.30,355.74,349.57,344.05,342.43,344.52,347.79,349.63,350.81,352.37,354.25,356.07,357.03,357.34,357.28,356.62,354.53,351.27,347.13,342.55,338.75,339.43,342.05,344.96,347.66,350.13,352.21,353.56,354.19,354.02,353.21,351.85,350.00,347.63,344.82,341.74,337.95,333.50,328.54,322.21,318.73,317.14,316.05,314.99,315.01,315.96,317.52,318.92,319.62,319.95,319.52,317.45,314.21,310.33,305.95,301.21,296.88,292.77,288.70,284.36,279.18,274.25,268.67,262.57,256.31,250.46,242.58,236.16,233.86,237.57,241.29,244.02,245.50,245.42,244.81,243.69,242.21,240.47,238.55,236.77,234.72,232.20,229.03,225.07,220.31,214.78,208.52,202.44,195.95,188.18,180.11,175.72,171.85,167.25,162.02,156.69,151.57,147.37,143.59,138.99,130.75,122.69,113.53,104.23,98.36,94.52,89.94,84.59,79.63,77.94,76.71,75.47,74.22,72.98,72.34,72.76,73.82,74.83,75.85,76.89,77.94,80.55,90.53,117.60,137.80,145.43,149.00,155.70,163.00,167.75,166.63,160.86,157.20,154.42,151.26,146.99,141.25,134.39,127.63,122.83,119.42,116.79,114.83,114.20,116.26,118.77,121.67,124.92,128.16,130.40,132.19,133.73,134.97,136.00,136.91,137.84,138.78,139.49
515.67,515.23,514.86,514.74,515.02,515.28,515.89,517.78,522.08,529.54,534.74,539.45,544.63,550.50,556.26,561.09,565.34,570.07,577.76,582.41,585.04,585.63,582.51,578.92,575.13,571.05,566.49,561.39,554.98,548.45,542.48,535.89,527.51,520.15,514.49,509.42,502.15,494.44,487.42,482.25,479.90,478.17,477.26,477.31,477.50,477.83,477.97,477.77,477.03,475.62,473.92,472.90,473.45,475.66,477.55,478.91,479.63,479.38,478.74,478.97,480.58,483.69,486.22,487.39,487.80,487.64,486.89,486.19,485.50,485.00,485.09,484.73,484.13,483.22,481.84,479.95,477.86,475.50,472.81,469.77,466.63,463.41,459.55,454.32,448.60,442.49,437.12,432.65,427.30,420.71,414.18,408.18,402.79,397.35,391.72,385.06,377.31,371.70,365.38,358.79,352.03,344.85,339.57,339.85,342.98,345.03,346.45,348.25,350.45,352.65,353.79,354.28,354.23,353.47,351.42,348.31,344.61,340.51,336.83,336.80,339.43,342.49,345.18,347.57,349.57,350.83,351.41,351.32,350.69,349.49,347.91,345.95,343.46,340.45,336.50,331.64,326.09,320.13,316.16,313.79,312.34,311.01,311.07,312.13,313.87,315.73,316.66,317.53,318.12,317.49,314.76,312.14,309.45,306.10,301.40,296.81,292.46,287.90,282.23,276.82,270.77,264.10,257.27,251.85,245.26,240.78,240.57,245.24,248.66,250.37,250.65,249.76,248.64,247.41,246.00,244.35,242.52,240.36,237.91,235.08,231.52,226.80,221.50,215.56,208.82,202.14,195.74,187.64,178.77,174.44,170.55,166.00,160.97,156.10,151.48,147.44,143.63,138.81,129.89,121.68,112.78,103.85,98.11,94.37,89.82,84.46,79.49,77.81,76.58,75.34,74.11,72.91,72.25,72.64,73.70,74.71,75.77,76.80,77.84,80.03,87.61,112.36,133.69,144.75,148.84,156.09,164.78,170.23,167.55,160.60,156.64,153.88,150.80,146.55,141.01,134.39,127.99,123.79,120.03,117.23,114.87,113.35,115.17,117.53,120.53,124.27,128.40,130.75,132.68,134.56,136.24,137.45,138.44,139.39,140.23,140.64
519.86,519.60,519.02,518.52,518.53,518.55,518.64,519.40,521.80,527.21,531.93,536.49,541.39,547.00,552.73,557.91,562.53,567.13,573.75,579.41,583.28,584.78,583.48,580.89,577.75,574.15,569.72,564.58,558.44,551.83,545.06,538.06,530.21,522.56,515.90,510.91,504.42,497.33,490.25,483.75,478.42,473.42,470.69,470.77,471.34,472.13,472.64,472.69,472.01,470.60,468.86,467.60,467.76,470.15,472.20,473.44,473.86,473.67,473.29,473.97,475.80,478.53,480.81,482.29,483.05,483.14,482.78,482.08,481.08,480.17,479.92,479.56,479.08,478.41,477.55,476.82,475.56,473.84,471.58,468.53,465.41,462.19,458.36,453.26,447.57,441.98,437.04,432.60,427.18,420.75,414.23,408.14,402.88,397.49,392.09,386.06,379.32,374.04,368.27,361.71,354.39,346.57,339.37,335.72,335.95,339.68,342.32,344.56,346.60,348.44,349.91,350.88,351.00,350.25,348.53,345.77,342.19,338.13,334.00,331.25,333.63,337.87,341.96,344.45,346.30,347.63,348.42,348.47,348.03,347.04,345.69,343.98,341.75,338.53,334.43,329.41,323.28,317.95,313.81,310.74,308.70,307.39,307.81,309.08,310.73,312.45,313.70,314.95,316.11,316.65,315.30,313.35,311.35,309.17,305.72,300.48,295.39,290.53,284.67,278.93,272.57,265.45,258.18,253.68,249.44,247.35,248.40,251.88,254.61,256.16,256.48,255.35,253.51,251.49,249.45,247.39,245.25,242.84,240.28,237.26,232.85,227.26,221.17,214.85,208.34,201.66,195.25,187.16,178.14,173.30,168.88,163.96,158.71,153.78,149.66,146.17,142.47,137.22,128.11,119.39,110.06,101.36,97.14,93.75,88.88,83.45,79.22,77.64,76.40,75.18,73.98,72.80,72.23,72.63,73.63,74.64,75.70,76.73,77.77,79.54,84.85,106.24,128.56,143.77,148.02,155.66,164.54,169.93,167.05,160.25,156.12,153.24,150.11,145.46,139.75,133.58,127.95,124.23,120.49,117.64,115.20,113.39,114.27,116.38,119.05,122.59,127.78,130.94,133.35,135.51,137.40,138.72,139.87,140.69,141.09,141.17
524.26,524.72,524.39,523.70,523.30,522.91,522.76,522.92,523.83,526.64,530.51,534.52,538.68,543.70,549.18,554.40,559.28,563.99,569.47,575.82,580.85,583.43,583.78,582.27,579.84,576.57,572.00,566.78,560.94,554.28,546.81,539.63,532.43,524.66,517.15,512.06,506.26,499.97,493.38,486.50,479.28,471.61,466.51,465.15,465.55,466.50,467.33,467.68,467.19,465.87,464.25,462.87,462.47,464.06,465.77,466.78,467.07,467.08,467.09,468.26,470.45,473.24,475.65,477.31,478.28,478.58,478.48,477.84,476.81,475.73,475.08,474.47,473.83,473.19,472.73,472.81,472.25,470.99,468.95,465.97,463.07,460.00,456.38,451.72,446.41,441.43,436.89,432.50,427.19,421.12,414.65,408.38,403.13,397.64,392.32,386.94,381.35,376.21,370.77,364.22,356.47,348.21,339.88,332.50,329.12,333.01,336.54,339.38,341.54,343.13,344.80,346.52,347.21,346.80,345.50,343.17,339.69,335.47,330.65,325.40,327.07,332.13,337.76,340.81,342.85,344.34,345.31,345.52,345.29,344.50,343.33,341.76,339.59,336.13,331.86,326.72,320.47,315.66,311.11,307.23,304.85,304.01,304.87,306.29,307.81,309.39,311.05,312.62,314.13,315.42,315.33,314.09,312.62,311.21,309.06,303.77,298.17,292.83,286.86,280.95,274.47,267.28,260.09,256.20,254.09,254.09,256.10,258.55,260.56,261.83,262.05,260.61,258.07,255.27,252.53,249.92,247.31,244.63,241.96,238.64,233.09,226.88,220.29,213.79,207.62,201.10,194.59,186.69,178.05,172.53,167.33,161.92,156.42,151.31,147.24,143.98,140.09,134.22,125.56,116.45,107.03,99.02,96.06,92.99,87.75,82.24,78.94,77.47,76.24,75.04,73.85,72.68,72.21,72.64,73.60,74.61,75.67,76.69,77.72,79.11,82.44,100.87,123.99,142.74,146.99,154.12,162.69,168.22,166.02,159.94,155.77,152.63,149.26,144.13,138.16,132.43,127.58,124.20,120.66,117.84,115.41,113.47,113.54,115.48,117.89,121.18,127.08,130.96,133.84,136.33,138.50,140.00,141.12,141.70,141.69,141.55
528.91,531.17,532.13,531.84,530.64,529.36,528.79,528.65,528.78,529.39,532.10,534.78,537.25,541.04,545.94,550.58,555.25,560.52,565.68,571.66,577.38,581.65,582.98,582.56,580.84,577.70,572.53,567.22,561.45,554.69,546.91,539.83,533.52,526.12,518.29,513.02,507.50,501.53,495.29,488.92,482.57,474.40,466.44,460.75,459.87,460.76,461.97,462.80,462.59,461.52,459.97,458.57,457.65,456.73,457.03,457.52,457.88,458.37,458.91,460.58,463.42,467.13,470.15,471.86,472.88,473.40,473.29,472.83,472.18,471.42,470.56,469.39,468.12,467.22,467.05,467.17,467.17,466.08,463.84,461.30,459.04,456.47,453.36,449.50,445.15,440.85,436.64,432.35,427.56,422.14,415.73,409.10,403.67,397.83,392.32,387.44,383.11,378.14,372.61,365.94,358.00,349.29,340.67,330.94,323.70,323.97,327.23,330.95,333.97,335.94,337.45,340.31,342.32,342.90,342.09,340.29,336.96,332.38,326.65,320.29,320.40,325.09,331.84,336.33,339.36,341.11,342.03,342.45,342.45,341.80,340.73,339.16,336.60,333.06,328.54,323.28,317.78,313.17,307.57,302.64,300.50,301.01,302.27,303.66,305.13,306.84,309.03,310.92,312.48,313.82,314.31,314.13,313.33,311.96,310.43,306.47,301.02,294.88,288.78,283.02,276.73,270.19,264.15,259.93,259.01,260.30,263.01,265.79,267.19,267.52,266.79,264.60,261.50,258.27,255.01,251.73,248.50,245.50,242.59,238.68,231.62,225.30,218.94,212.68,206.75,200.47,193.65,186.24,178.69,172.48,166.19,160.23,154.64,149.37,144.35,140.50,135.75,128.94,121.82,112.76,104.29,98.00,95.13,92.19,86.59,81.05,78.71,77.34,76.15,74.96,73.73,72.56,72.18,72.67,73.67,74.67,75.69,76.69,77.70,78.79,80.72,97.44,121.03,141.76,145.81,150.62,158.41,164.85,164.54,159.75,155.71,152.16,148.19,142.58,136.36,130.95,126.68,123.47,120.28,117.62,115.22,113.23,113.10,115.05,117.54,120.83,126.62,130.67,133.87,136.78,139.54,141.37,142.06,142.20,142.07,141.92
532.93,535.99,537.87,538.18,536.50,534.64,533.70,533.46,533.80,534.88,537.09,539.01,540.73,543.53,546.28,549.00,552.27,556.69,561.51,567.16,573.23,578.81,581.70,582.08,580.51,577.01,571.25,566.10,559.98,553.04,545.77,539.36,533.30,526.46,519.31,513.81,508.33,502.61,496.69,490.53,483.94,476.40,468.52,461.42,457.33,455.44,455.42,456.31,456.75,456.18,455.26,454.19,452.84,450.94,449.54,448.83,448.99,450.44,452.39,454.69,457.44,460.73,463.28,464.69,465.50,465.85,465.67,465.17,464.44,463.53,462.52,461.30,460.07,459.29,459.27,459.51,459.99,459.63,458.25,456.53,454.78,452.72,450.25,447.17,443.60,439.85,436.08,432.18,427.52,422.18,416.01,409.63,404.03,398.10,392.46,387.67,383.92,379.64,373.97,366.94,358.76,350.02,341.41,331.48,322.77,319.30,319.74,322.32,325.61,328.72,330.58,333.25,335.63,337.14,337.33,336.35,333.35,328.48,321.96,315.53,314.94,318.94,325.62,331.24,334.97,337.06,338.21,338.93,339.09,338.63,337.72,336.22,333.63,329.78,325.36,320.56,315.35,310.25,304.42,299.26,296.67,297.46,299.00,300.62,302.27,304.11,306.47,308.67,310.59,312.15,312.81,313.08,312.80,311.91,310.90,308.06,303.40,297.59,291.76,285.94,279.62,273.59,268.97,266.17,266.17,268.09,271.06,273.29,274.10,273.26,271.08,267.81,264.09,260.33,256.53,252.68,248.90,245.49,241.94,237.21,229.78,223.74,217.95,212.20,206.46,200.25,193.31,186.34,179.75,173.50,166.82,160.59,155.04,149.94,143.34,138.02,132.54,125.80,118.70,109.36,101.84,97.23,94.50,91.73,85.83,80.17,78.50,77.21,76.04,74.84,73.61,72.44,72.14,72.68,73.68,74.69,75.69,76.69,77.70,78.69,80.20,96.00,119.07,140.03,144.86,148.72,155.58,162.19,163.63,159.87,155.84,151.84,147.37,141.63,135.00,129.54,125.43,122.12,118.78,116.53,114.73,113.10,112.53,114.41,117.07,120.57,126.47,130.91,134.44,137.58,140.38,142.07,142.56,142.55,142.35,142.12
536.38,539.91,542.54,543.51,541.84,539.83,538.63,538.38,539.32,541.50,543.42,544.85,546.18,548.09,548.63,549.36,550.98,554.02,558.06,562.88,568.79,575.39,580.24,581.33,579.61,575.53,569.20,564.11,557.59,550.61,544.22,538.55,532.57,526.34,520.14,514.45,508.91,503.37,497.72,491.70,484.80,478.15,471.31,464.03,456.72,451.56,449.50,449.71,450.64,450.46,450.17,449.40,447.71,445.46,442.82,441.13,441.07,443.13,446.28,449.09,451.63,454.19,455.99,457.03,457.57,457.66,457.36,456.69,455.76,454.70,453.66,452.59,451.67,451.17,451.29,451.68,452.51,452.91,452.60,451.78,450.49,448.92,447.06,444.71,441.89,438.64,435.37,431.93,427.28,421.87,416.00,410.03,404.38,398.54,392.81,387.97,384.47,380.81,375.01,367.63,359.22,350.67,342.25,332.88,323.77,317.20,313.97,314.43,317.25,321.22,323.82,326.31,328.80,331.00,332.10,331.73,328.99,324.04,317.26,311.17,309.92,313.05,319.33,325.75,330.03,332.57,334.11,335.15,335.47,335.20,334.47,333.12,330.70,326.75,322.56,318.22,312.89,307.03,301.27,296.19,292.95,293.61,295.45,297.43,299.34,301.36,303.75,306.19,308.46,310.21,310.99,311.52,311.69,311.38,310.76,308.75,305.03,300.05,294.73,289.00,282.77,277.30,274.04,272.91,273.47,275.47,278.19,279.58,279.80,278.02,274.64,270.38,266.14,261.88,257.55,253.14,248.81,244.96,240.65,235.20,228.05,222.41,217.22,211.97,206.36,200.22,193.26,186.72,180.90,174.88,168.22,161.83,156.25,151.35,143.44,136.73,130.72,124.33,116.59,106.96,100.14,96.67,94.06,91.42,85.28,79.51,78.31,77.09,75.91,74.72,73.48,72.32,72.10,72.69,73.69,74.70,75.69,76.69,77.70,78.72,80.35,95.49,117.47,137.75,143.65,147.16,152.99,159.38,162.53,159.91,155.97,151.64,146.80,141.02,133.98,128.17,123.84,120.32,116.73,114.87,113.78,112.67,111.83,113.76,116.64,120.40,126.48,131.29,135.09,138.30,141.00,142.47,142.86,142.79,142.54,142.23
538.41,542.63,545.82,547.50,547.19,546.31,545.12,544.98,546.62,548.68,550.16,551.35,552.42,553.42,553.75,554.00,554.72,556.27,557.77,559.90,564.22,571.20,578.83,580.60,578.38,573.50,566.69,561.00,554.38,548.04,542.81,537.42,531.72,526.04,520.43,514.72,509.06,503.53,498.03,492.36,486.27,480.11,473.80,467.00,459.18,452.54,447.61,444.89,445.15,444.69,444.21,443.26,441.40,439.14,437.30,436.43,436.46,437.05,439.39,442.16,444.95,447.54,449.06,449.84,450.27,450.35,449.69,448.65,447.78,447.15,446.55,445.64,445.08,445.00,445.41,445.96,446.78,447.32,447.41,447.18,446.39,445.20,443.70,441.90,439.87,437.25,434.46,431.33,426.83,421.55,415.91,410.27,404.97,399.50,393.80,388.89,385.37,381.35,375.51,368.05,359.58,351.44,343.56,334.68,325.90,318.84,312.22,309.65,310.02,312.67,316.82,320.94,323.95,325.87,326.88,325.95,323.01,318.71,313.46,307.88,304.90,306.85,313.19,319.63,324.30,327.57,329.77,330.99,331.57,331.46,330.91,329.84,327.79,324.83,321.05,316.28,309.94,303.29,297.57,292.61,288.95,289.42,291.74,294.23,296.45,298.78,301.22,303.60,305.69,307.28,308.66,309.54,310.05,310.13,309.53,307.52,304.50,300.69,296.19,291.34,286.06,281.50,278.96,278.09,278.26,279.11,280.25,280.76,280.50,278.93,275.98,271.60,267.24,262.76,258.02,252.98,247.98,243.61,238.73,233.10,227.21,221.96,216.94,211.78,206.22,200.28,193.59,187.37,181.90,176.19,170.06,163.57,157.49,152.52,145.24,138.60,132.60,126.29,117.44,107.95,100.87,96.61,93.87,91.14,85.01,79.29,78.13,76.95,75.78,74.59,73.36,72.20,72.10,72.75,73.75,74.75,75.70,76.69,77.70,78.89,81.36,95.81,115.88,134.38,141.08,144.76,149.33,154.98,159.91,159.20,155.91,151.69,146.79,140.88,133.59,126.87,121.44,117.71,114.11,112.29,111.48,111.00,110.77,113.34,116.55,120.38,126.72,131.53,135.19,138.29,141.00,142.58,142.96,142.84,142.54,142.18
540.18,545.36,549.27,551.58,552.26,552.47,551.78,551.77,553.28,554.96,556.22,557.36,558.37,558.96,559.27,559.34,559.50,560.00,560.12,560.73,563.30,568.64,575.93,578.67,576.91,571.87,564.82,558.77,552.60,547.03,542.37,536.77,530.96,525.53,520.35,514.61,508.75,503.10,497.64,492.23,486.51,480.64,474.72,468.40,460.78,453.23,446.38,441.47,440.48,439.64,438.71,437.32,435.30,433.17,432.14,431.86,431.84,431.55,433.00,435.52,438.39,440.91,442.24,442.82,443.08,442.89,441.69,440.56,439.85,439.47,439.17,438.93,438.95,439.21,439.69,440.25,441.04,441.64,442.04,442.46,442.13,441.35,440.33,439.11,437.75,435.77,433.42,430.49,426.04,421.31,416.31,411.20,406.16,400.79,395.26,390.28,386.20,381.73,375.88,368.43,360.09,352.88,345.73,337.54,329.25,322.10,314.26,309.06,306.22,305.95,308.92,313.73,317.66,320.16,321.36,320.55,317.86,313.97,309.24,303.89,300.36,301.36,306.89,313.50,318.57,322.48,325.29,326.70,327.42,327.41,327.04,326.28,324.59,322.05,318.27,313.01,305.98,299.53,293.89,288.67,284.35,284.14,287.04,290.57,293.69,296.16,298.54,300.66,302.40,303.68,305.00,305.89,306.52,306.80,306.21,304.63,302.33,299.32,295.45,291.71,288.00,284.68,282.37,281.21,281.04,281.18,281.26,281.04,280.35,278.71,275.98,271.98,267.66,262.97,257.79,252.20,247.00,242.34,237.27,231.77,226.58,221.59,216.65,211.55,206.13,200.42,194.35,188.52,183.08,177.50,171.65,165.16,158.73,153.26,146.40,139.94,134.05,127.88,118.86,109.90,103.21,98.79,95.18,91.03,84.58,79.10,77.94,76.79,75.63,74.44,73.23,72.11,72.09,72.78,73.78,74.78,75.77,76.76,77.78,79.44,84.11,97.48,115.56,132.42,138.33,141.97,146.36,151.80,157.09,158.00,155.43,151.50,146.75,140.67,133.18,125.60,119.03,114.85,111.92,110.61,110.12,109.98,110.11,112.31,115.59,120.00,126.50,131.34,134.91,137.95,140.81,142.50,142.84,142.64,142.31,141.98
541.86,548.17,552.89,555.77,557.06,558.20,558.35,558.50,559.33,560.49,561.72,562.95,564.02,564.57,564.91,564.93,564.79,564.66,564.49,564.67,565.64,567.99,572.44,575.86,575.18,570.70,563.68,557.57,552.13,547.28,542.62,536.43,530.20,524.80,519.90,514.12,508.04,502.14,496.59,491.30,485.49,479.80,474.20,468.33,461.36,453.40,445.59,439.38,436.78,435.33,433.61,431.55,429.35,427.44,427.04,427.03,426.87,426.43,427.11,429.20,431.86,434.05,435.14,435.54,435.59,435.10,433.48,432.59,432.15,431.88,431.75,432.43,433.12,433.59,433.88,434.32,435.04,435.70,436.38,437.49,437.63,437.35,436.91,436.32,435.54,434.15,432.23,429.47,425.07,421.18,417.12,412.68,407.82,402.33,397.03,391.94,386.97,382.03,376.22,368.88,360.83,354.77,348.51,341.17,333.48,326.42,319.10,311.82,305.56,301.49,301.04,305.31,310.17,313.87,315.51,315.38,313.29,309.63,304.66,299.42,296.20,296.54,300.75,307.49,312.84,317.18,320.43,322.05,322.80,322.85,322.62,322.13,320.79,318.23,314.18,308.55,301.37,295.86,290.34,284.55,279.38,278.08,281.43,286.22,290.67,293.40,295.71,297.48,298.79,299.72,300.45,301.09,301.65,301.94,301.36,300.48,298.86,296.31,292.96,290.40,288.49,286.57,284.29,282.63,282.21,282.02,281.57,280.77,279.64,277.65,274.92,271.61,267.41,262.48,256.87,250.88,245.86,241.14,236.21,231.04,226.02,221.19,216.32,211.31,206.08,200.60,195.36,189.99,184.37,178.75,172.91,166.47,159.87,153.65,146.91,140.62,134.85,128.88,120.41,112.17,106.33,102.38,97.59,91.16,84.09,78.93,77.77,76.60,75.44,74.28,73.11,72.03,72.08,72.80,73.80,74.81,75.86,76.89,77.93,80.26,88.14,100.41,116.47,131.60,135.72,139.22,144.26,149.92,154.40,156.50,154.62,151.04,146.49,140.24,132.61,124.32,116.72,112.05,110.27,109.76,109.62,109.58,109.80,110.88,114.01,119.32,125.80,130.72,134.30,137.40,140.50,142.28,142.54,142.25,141.89,141.59
543.81,551.01,556.23,559.62,561.53,563.06,563.93,564.56,565.25,566.04,567.25,568.58,569.64,569.86,570.07,570.05,569.87,569.64,569.45,569.58,570.14,571.31,573.19,573.64,572.89,570.16,563.96,558.18,552.58,547.44,542.44,535.48,528.99,523.51,518.61,513.00,506.85,500.60,494.59,488.94,482.89,477.49,472.29,466.87,460.67,453.41,445.93,439.44,435.54,432.12,428.51,425.20,422.71,420.98,420.73,420.81,420.86,421.06,421.77,423.11,424.54,425.35,425.63,425.62,425.76,426.08,425.95,425.96,426.07,426.24,426.48,426.87,427.48,427.76,427.47,427.66,428.00,428.75,429.97,431.45,432.48,432.97,433.19,433.31,432.98,432.05,430.68,428.54,424.72,421.47,417.95,413.98,409.56,404.11,398.54,393.05,387.66,382.46,376.89,370.00,362.34,356.26,350.86,344.44,337.38,330.53,323.66,315.72,308.12,302.01,298.23,299.59,303.31,307.25,309.14,309.31,307.49,304.32,300.22,295.76,292.15,292.40,296.74,302.04,306.84,310.66,313.56,315.46,316.17,316.17,315.86,315.30,314.30,312.44,308.68,303.38,297.84,292.85,287.21,280.96,275.07,272.56,275.12,279.76,284.97,289.82,292.72,294.51,295.71,296.49,297.01,297.46,297.80,297.81,297.02,296.13,294.57,292.39,290.06,288.15,286.67,285.36,284.12,283.07,282.39,281.74,280.89,279.68,277.87,275.63,273.11,270.17,265.93,260.66,254.82,248.91,244.20,239.73,235.05,230.15,225.24,220.51,215.87,211.12,206.06,200.67,195.76,190.76,185.34,179.47,173.40,166.94,160.33,153.89,147.19,140.94,135.12,129.08,120.83,112.62,106.98,103.57,99.41,91.96,84.20,78.84,77.68,76.48,75.31,74.15,72.98,71.89,72.13,72.96,73.96,74.97,76.00,77.05,78.09,80.92,91.49,104.83,118.80,130.46,134.54,138.34,143.86,149.57,153.26,155.43,153.77,150.16,145.27,138.85,131.39,122.88,115.00,110.87,109.76,109.46,109.34,109.36,109.58,110.13,113.22,118.83,124.71,129.63,133.38,136.78,140.32,142.07,142.25,141.93,141.49,140.85
545.28,553.09,558.77,562.74,565.35,567.43,569.13,570.45,571.35,571.96,573.07,574.18,574.89,574.79,574.81,574.73,574.58,574.50,574.61,574.90,575.33,575.82,575.94,574.02,572.36,570.03,564.58,559.32,553.18,547.09,541.33,534.08,527.77,522.38,517.46,512.11,505.99,499.53,493.20,487.28,481.13,476.15,471.39,466.19,460.22,453.87,447.32,441.19,436.39,431.47,426.31,421.67,418.25,415.77,414.51,414.06,414.24,414.96,415.99,417.13,417.85,417.62,417.08,416.62,416.62,417.19,417.94,418.67,419.58,420.63,421.53,421.69,422.16,422.31,421.68,421.62,421.62,422.35,423.91,425.82,427.68,428.87,429.60,430.19,430.32,429.79,428.89,427.44,424.58,421.88,418.73,415.04,410.86,405.55,399.79,394.00,388.40,383.07,377.74,371.54,364.50,357.69,352.63,346.87,340.38,333.82,327.16,319.32,311.38,304.16,298.18,295.76,297.00,300.19,302.35,302.89,301.70,299.39,296.17,292.15,287.94,288.15,292.89,297.12,301.15,304.27,306.65,308.42,308.88,308.69,308.31,307.89,307.34,306.18,303.21,298.91,294.74,289.84,283.80,277.08,270.68,267.12,268.87,273.20,278.88,285.13,288.86,291.05,292.41,293.24,293.75,294.05,294.15,293.89,292.94,291.88,290.37,288.55,286.96,285.49,284.23,283.37,283.05,282.71,281.99,281.01,279.78,278.12,275.81,273.19,270.45,267.49,263.30,257.87,252.07,246.63,242.19,238.00,233.43,228.55,223.86,219.43,215.09,210.62,205.79,200.58,195.96,191.28,186.03,179.82,173.45,166.98,160.45,153.88,147.21,140.96,134.98,128.68,120.42,112.34,106.94,103.94,100.49,92.88,84.57,78.75,77.56,76.33,75.14,73.97,72.79,71.75,72.24,73.23,74.29,75.28,76.28,77.32,78.37,81.81,95.57,109.62,121.21,129.44,133.82,138.42,144.38,149.87,152.70,154.25,152.54,148.76,143.43,136.96,129.96,121.56,113.68,110.25,109.51,109.27,109.14,109.22,109.45,109.73,112.64,118.09,123.43,128.31,132.31,136.13,140.11,141.84,141.99,141.60,141.00,140.08
545.80,553.80,560.05,564.73,568.19,571.22,573.98,576.25,577.75,578.45,579.32,579.72,579.58,579.31,579.07,578.88,578.84,579.11,579.93,580.61,581.02,581.09,580.69,578.58,574.96,570.37,565.37,560.73,553.70,545.95,538.85,532.19,526.77,521.78,516.86,511.86,505.93,499.54,493.22,487.34,481.38,477.00,472.70,467.38,460.64,455.22,450.19,445.13,439.97,434.83,429.01,423.13,417.75,412.97,408.93,406.95,406.97,407.73,409.32,411.20,412.45,412.09,410.93,410.07,409.41,408.91,408.91,409.87,411.89,414.42,416.44,416.82,417.33,417.56,417.11,416.89,416.70,417.21,418.71,421.17,423.66,425.33,426.32,426.95,427.59,427.38,426.81,426.01,424.57,422.35,419.36,415.73,411.42,406.33,400.68,394.88,389.25,384.02,378.81,373.56,367.50,359.20,353.58,347.99,341.98,335.79,328.93,322.02,314.79,307.41,301.12,294.32,291.44,292.50,295.05,296.14,296.30,295.36,292.73,288.33,283.45,283.49,288.62,292.91,296.06,298.49,300.32,301.31,301.17,300.58,300.25,300.40,300.51,299.81,298.27,295.81,292.00,286.60,279.80,272.54,265.94,261.66,262.93,267.19,272.95,278.82,283.51,286.63,288.56,289.67,290.39,290.62,290.51,290.06,289.09,287.88,286.56,285.14,283.62,282.35,281.47,281.04,281.14,281.31,280.90,279.89,278.26,276.04,273.64,270.38,266.62,263.04,259.13,253.83,248.50,243.99,239.76,235.77,231.01,225.79,221.52,217.72,213.79,209.58,205.05,200.22,195.99,191.56,186.30,179.73,172.97,166.54,160.20,153.47,146.86,140.57,134.32,127.53,119.01,111.42,106.50,103.73,100.50,93.78,85.16,78.61,77.38,76.15,74.92,73.69,72.52,71.67,72.43,73.66,74.83,75.78,76.78,77.79,78.89,83.30,101.08,114.54,123.26,128.76,133.47,139.55,145.85,150.76,152.62,152.75,150.68,146.63,140.84,134.52,128.37,120.47,112.84,110.02,109.33,109.08,108.99,109.15,109.44,109.69,112.12,116.84,121.95,126.75,131.09,135.43,139.74,141.56,141.77,141.26,140.38,139.39
545.83,553.38,560.28,566.07,570.71,574.55,577.92,580.71,582.63,583.72,585.23,586.24,586.57,586.61,586.39,586.29,586.35,586.58,587.19,587.50,587.42,586.89,585.80,582.82,577.78,571.85,566.59,561.33,554.26,546.74,539.90,533.98,529.24,524.52,519.45,514.20,508.49,502.67,497.01,491.69,486.29,481.66,477.01,471.69,465.36,459.73,454.88,450.28,445.11,439.48,433.45,427.23,420.87,414.20,407.54,402.94,400.93,401.06,402.33,404.00,405.35,405.61,404.90,404.07,402.79,401.25,401.03,402.41,404.71,407.48,410.18,411.41,412.52,413.23,413.12,412.93,412.48,412.59,413.80,416.44,419.30,421.61,423.24,424.15,424.96,424.81,424.47,424.20,423.52,422.01,419.34,415.77,411.75,407.14,401.93,396.43,390.99,386.04,380.58,375.29,369.67,361.92,355.54,349.44,343.30,337.03,330.04,323.57,316.88,309.74,303.17,295.39,288.73,285.10,286.94,288.85,289.80,289.54,287.61,283.56,279.44,279.36,283.59,287.98,291.09,293.51,295.29,296.07,295.97,295.24,294.50,294.22,294.70,294.87,294.29,292.43,288.18,282.64,276.03,269.16,262.79,257.48,257.80,261.15,266.13,271.78,276.59,280.30,282.97,284.49,285.46,285.91,285.98,285.67,284.88,283.89,282.56,280.90,279.10,277.89,277.53,277.90,278.83,279.47,279.09,277.98,276.26,274.02,271.04,266.60,261.73,258.00,254.20,249.47,244.72,240.53,236.42,232.00,226.87,221.76,218.42,215.26,211.80,207.93,203.63,199.27,195.28,190.86,185.44,178.73,172.08,165.86,159.69,152.98,146.39,140.01,133.51,126.34,117.81,110.83,106.30,103.59,100.38,93.26,84.74,78.45,77.15,75.87,74.63,73.39,72.29,71.78,72.67,73.95,75.20,76.31,77.33,78.34,82.33,92.15,107.12,117.63,124.28,129.07,135.25,141.50,147.04,150.89,151.90,151.29,148.18,143.47,137.67,131.59,126.16,118.56,111.26,109.70,109.16,108.87,108.79,109.04,109.34,109.62,111.25,114.72,119.86,124.75,129.53,134.27,138.63,140.89,141.32,140.83,139.83,138.72
546.24,552.82,560.19,567.12,572.85,577.57,581.44,584.57,586.86,588.50,590.69,592.46,593.50,593.93,593.91,594.01,594.21,594.37,594.55,594.27,593.58,592.46,590.74,586.82,580.83,574.14,568.39,562.08,555.36,548.80,542.86,537.55,533.16,528.55,523.32,517.64,512.30,507.12,502.10,497.31,492.38,487.36,482.25,476.98,471.28,465.19,460.05,455.50,450.28,444.11,437.93,431.62,424.77,416.94,408.52,401.39,396.70,395.47,395.66,396.71,398.02,398.96,398.84,398.09,396.28,393.87,393.50,395.30,397.81,400.58,403.58,405.54,407.18,408.31,408.71,408.86,408.38,408.31,409.29,411.80,414.68,417.40,419.61,421.01,422.18,422.26,422.20,422.34,422.03,421.06,418.70,415.30,411.69,407.64,403.00,397.99,392.91,388.37,382.65,377.03,371.52,364.63,357.61,350.87,344.37,337.86,330.93,324.76,318.50,311.72,304.86,297.13,287.67,279.59,279.57,281.34,282.51,282.70,281.63,278.61,275.76,275.49,278.29,282.56,285.79,288.36,290.22,290.93,290.98,290.28,289.25,288.48,289.24,290.16,290.16,288.45,283.93,278.73,272.76,266.53,260.34,253.94,252.91,255.06,259.16,264.42,268.89,272.92,276.37,278.69,280.01,280.78,281.12,280.96,280.30,279.42,277.94,275.96,273.99,273.05,273.42,274.68,276.36,277.44,277.03,275.81,274.07,271.76,267.82,262.32,256.74,252.91,249.03,244.83,240.58,236.44,232.09,227.15,221.95,217.39,214.99,212.37,209.34,205.81,201.73,197.80,193.95,189.38,183.69,177.19,170.84,164.82,158.78,152.22,145.69,139.20,132.42,124.91,116.49,110.23,106.14,103.44,100.15,91.99,83.78,78.28,76.91,75.59,74.33,73.08,72.06,71.95,72.93,74.21,75.51,76.79,77.87,79.47,86.86,101.83,112.83,120.34,125.53,130.25,137.53,143.28,147.66,150.31,150.45,149.13,144.99,139.69,134.05,128.25,123.12,116.13,109.79,109.35,108.96,108.65,108.60,108.91,109.22,109.52,110.38,112.68,117.80,122.82,128.05,133.13,137.31,139.97,140.67,140.26,139.19,137.96
548.47,553.00,560.16,567.85,574.03,580.00,584.42,587.80,590.52,592.86,594.98,596.65,597.79,598.41,598.85,599.35,599.89,600.28,600.22,599.39,598.15,596.64,594.68,590.30,584.41,577.97,571.65,564.27,558.25,553.23,548.54,543.29,538.33,533.41,528.13,522.11,517.57,512.73,507.63,502.70,497.57,492.50,487.43,482.25,476.78,470.56,464.93,459.72,453.95,447.27,440.71,434.22,427.56,420.55,413.07,404.96,397.33,393.00,390.46,390.45,391.70,392.70,392.52,391.54,389.52,386.86,385.88,387.97,391.26,394.58,396.98,398.68,399.94,401.06,402.24,403.65,404.04,404.62,405.85,407.58,409.59,411.69,413.92,416.36,418.72,419.89,420.48,420.70,420.18,418.81,416.56,413.69,410.54,407.10,403.08,398.80,394.57,390.62,384.95,379.10,373.21,366.01,358.98,351.92,344.87,338.06,331.77,325.90,319.93,313.50,306.28,298.47,289.20,280.19,275.51,273.72,273.73,274.29,274.55,274.06,272.75,271.98,272.83,276.31,279.25,281.75,283.58,284.19,284.07,283.69,283.19,282.93,283.85,284.72,284.45,282.71,279.36,275.77,270.99,265.22,258.61,251.23,247.99,248.78,252.61,256.77,260.26,264.01,268.24,272.51,274.44,275.55,276.06,275.77,274.78,273.32,271.49,269.55,268.15,268.33,269.97,272.04,273.75,275.25,274.89,273.62,271.71,268.61,263.01,257.44,252.53,248.19,243.88,239.60,235.40,231.01,225.45,220.30,216.20,213.24,211.25,208.86,206.04,202.75,198.94,195.22,191.28,186.20,180.12,174.78,168.88,162.88,156.86,150.65,144.29,137.68,130.57,122.74,114.50,109.30,105.85,103.19,99.70,89.65,82.05,78.05,76.72,75.40,74.10,72.81,71.84,72.12,73.22,74.50,75.77,77.07,78.32,82.55,92.02,106.52,116.88,123.70,128.69,133.32,139.34,143.64,146.64,148.10,147.21,144.55,140.09,134.92,129.51,124.03,117.94,112.77,109.48,109.04,108.65,108.43,108.47,108.78,109.09,109.35,109.95,111.77,116.49,121.59,127.28,132.53,136.06,138.62,139.59,139.36,138.20,136.92
552.42,555.07,561.20,568.68,575.19,582.24,587.37,591.20,594.30,596.98,599.32,601.28,602.73,603.40,603.98,604.39,604.98,605.83,605.80,604.73,603.15,601.26,598.96,594.60,588.77,582.48,576.50,569.04,562.98,558.01,553.51,548.69,543.66,538.26,532.35,526.03,521.91,517.72,512.87,507.36,501.79,496.35,491.11,486.02,480.70,474.63,468.71,462.93,456.73,449.28,442.53,436.01,429.25,422.67,415.90,408.05,399.69,392.98,387.65,385.71,386.08,387.14,387.17,386.19,384.19,381.53,379.88,381.38,384.22,387.27,389.74,392.21,394.04,395.52,396.98,398.70,399.77,400.94,402.42,403.88,405.44,406.95,408.68,411.02,413.56,415.24,416.42,417.12,416.89,415.79,413.95,411.61,409.00,406.20,402.79,399.13,395.54,392.05,386.83,380.96,374.65,367.31,360.35,353.38,346.24,339.10,333.08,327.59,322.23,316.30,308.15,300.44,292.00,283.17,275.70,270.30,267.82,267.31,268.06,268.98,268.63,267.90,267.89,270.20,272.21,273.98,275.43,276.24,276.38,276.63,276.76,276.79,277.49,278.10,277.91,276.84,275.00,272.63,268.37,262.76,256.20,248.62,243.45,242.79,246.32,250.31,253.98,257.59,261.52,265.86,268.30,269.71,270.35,270.13,269.03,267.55,265.71,263.91,263.17,264.25,266.60,269.22,271.41,273.34,272.98,271.52,269.29,265.67,259.76,253.99,248.68,243.51,239.00,234.56,229.97,224.90,218.75,213.90,210.57,208.38,206.56,204.51,202.02,199.07,195.56,191.70,187.35,182.27,176.75,171.95,166.19,160.43,154.75,148.83,142.63,135.78,128.36,120.44,112.34,107.22,104.22,101.90,97.34,86.82,80.43,77.79,76.45,75.14,73.80,72.49,71.64,72.43,73.69,75.00,76.28,77.61,79.05,87.22,98.90,110.84,120.35,126.78,131.53,135.62,139.98,142.85,144.34,144.31,142.32,139.46,135.28,130.30,124.81,119.18,113.85,110.52,109.04,108.62,108.31,108.30,108.51,108.84,109.15,109.42,110.08,111.81,115.90,120.60,126.52,132.01,135.07,137.60,138.57,138.31,137.12,135.84
557.83,558.68,563.01,569.47,576.23,584.17,590.06,594.48,598.02,600.87,603.61,606.08,607.92,608.60,609.13,609.27,609.75,611.06,611.19,610.11,608.37,606.19,603.53,599.48,593.83,587.67,582.31,575.36,568.82,562.99,557.99,553.71,548.94,543.06,536.28,529.75,525.62,522.07,517.64,511.42,505.29,499.20,493.64,488.64,483.43,477.68,471.62,465.36,458.66,450.38,443.56,437.06,429.97,423.56,417.26,410.36,402.66,394.44,386.85,382.56,381.27,382.10,382.38,381.55,379.77,377.27,374.99,375.39,377.07,379.38,382.25,385.81,388.69,390.83,392.35,393.87,395.42,397.09,398.80,400.33,401.74,402.77,403.81,405.38,407.38,409.11,410.73,412.10,412.50,412.17,410.99,409.19,407.13,404.96,402.13,399.02,395.93,392.78,388.26,382.63,376.04,368.68,361.77,355.15,348.30,340.97,334.88,329.75,325.08,319.68,310.61,303.00,295.57,287.62,279.00,270.56,264.81,262.02,262.21,263.32,263.36,262.99,262.95,264.02,264.87,265.59,266.41,267.46,268.01,268.88,269.53,269.74,270.14,270.51,270.71,270.69,270.28,268.72,264.66,259.20,253.11,245.91,239.23,237.19,240.35,244.73,249.19,252.76,255.81,259.00,261.78,263.41,264.16,264.06,262.94,261.77,260.25,258.82,258.89,260.66,263.31,266.25,269.13,271.38,271.08,269.46,266.92,263.12,257.75,251.62,245.23,239.12,234.41,229.67,224.42,218.51,212.36,208.00,205.00,202.85,201.06,199.40,197.34,194.74,191.43,187.34,182.60,177.92,173.45,168.67,162.99,157.68,152.57,146.82,140.70,133.54,125.86,117.95,109.88,104.32,101.51,99.46,93.49,83.85,79.03,77.49,76.12,74.80,73.43,72.15,71.52,72.81,74.25,75.63,76.95,78.46,81.12,93.07,106.18,114.84,123.40,129.34,133.49,136.52,138.97,140.44,140.52,139.14,136.31,133.91,130.28,125.52,119.88,114.21,110.79,109.13,108.48,108.14,108.00,108.27,108.68,109.06,109.40,109.82,110.78,112.66,116.03,120.09,125.99,131.62,134.48,137.06,137.81,137.35,136.16,134.91
565.31,563.91,565.27,569.50,576.43,584.98,591.39,596.45,600.81,604.31,607.27,609.76,611.65,612.65,613.40,613.92,614.59,615.56,615.63,614.63,613.06,611.04,608.41,604.71,599.96,594.35,587.91,581.00,574.30,568.15,562.83,558.24,553.50,547.73,541.05,534.62,529.47,525.36,520.93,514.89,508.24,501.33,495.31,490.36,485.17,479.67,473.65,466.87,458.88,450.46,443.59,436.71,429.08,423.13,417.29,410.67,403.25,395.63,388.73,382.84,378.70,377.34,377.09,376.45,375.10,372.92,370.11,369.96,371.25,373.29,375.79,378.23,381.17,384.06,386.42,388.48,390.38,392.30,394.18,395.70,396.95,397.96,399.00,400.36,401.79,403.17,404.72,406.34,407.25,407.81,407.51,406.38,404.70,402.95,400.74,398.26,395.63,392.65,388.73,383.99,378.17,370.61,363.40,357.10,351.02,344.30,337.70,332.49,327.84,322.58,314.70,306.52,299.19,292.31,284.55,275.85,267.37,260.87,257.78,256.44,255.73,255.62,256.07,256.81,257.50,257.84,258.01,258.27,258.37,258.71,259.12,259.63,260.79,261.77,262.63,263.15,262.68,261.18,258.06,253.85,248.76,242.38,235.44,232.68,235.17,239.60,243.98,247.44,250.19,252.71,255.13,256.87,257.61,257.12,255.70,254.46,253.79,253.89,255.11,257.41,260.22,263.25,266.15,268.12,268.31,267.24,265.08,261.79,256.56,249.93,242.84,236.35,230.44,224.75,218.95,213.02,207.59,202.99,199.21,196.25,194.34,192.99,191.38,188.90,185.21,181.56,177.76,173.79,169.47,164.37,159.60,155.15,150.44,144.56,138.02,130.72,122.94,114.76,106.21,101.06,97.78,94.44,88.37,81.70,78.38,77.02,75.64,74.31,72.94,71.94,71.81,73.19,74.66,76.09,77.50,80.03,89.70,100.02,109.35,117.64,125.94,130.11,131.88,132.48,132.79,132.97,132.59,131.63,129.98,127.32,123.69,119.08,114.09,110.86,109.19,108.31,107.85,107.72,108.03,108.53,109.03,109.45,110.01,111.21,112.79,114.77,117.61,121.60,126.81,131.88,135.25,137.86,138.23,137.44,136.13,134.79
572.36,569.81,569.07,571.10,576.98,585.08,591.66,597.25,602.42,606.73,610.04,612.65,614.70,616.09,616.98,617.71,618.40,619.00,619.05,618.33,617.05,615.14,612.34,608.84,604.57,599.23,592.31,585.54,578.70,572.35,566.94,562.15,557.54,552.03,545.65,539.26,533.43,528.64,523.88,517.92,510.98,503.30,496.72,491.67,486.38,480.96,474.97,467.84,458.79,450.17,443.13,435.90,427.87,422.11,416.62,410.31,403.22,396.30,390.30,384.11,378.58,375.19,373.44,371.94,370.06,367.56,364.78,364.57,365.60,367.13,368.75,369.91,372.47,375.73,378.87,381.55,383.97,386.27,388.45,390.33,391.62,392.86,394.20,395.60,396.83,398.00,399.36,400.89,402.11,403.33,403.71,403.15,401.88,400.67,399.05,397.08,394.78,392.11,388.67,384.68,379.71,372.63,365.55,359.45,353.84,347.78,340.72,335.26,330.51,325.41,318.63,310.23,303.00,296.87,289.96,281.83,272.29,263.40,257.11,253.13,250.68,249.19,248.57,248.94,249.88,250.35,250.34,250.05,249.53,249.37,249.55,250.21,251.80,253.20,254.49,255.34,254.84,253.54,251.28,248.19,244.08,238.58,231.98,228.68,230.13,234.55,238.80,242.08,244.62,246.78,249.05,250.78,251.52,250.98,249.72,248.55,248.47,249.66,251.93,254.64,257.54,260.46,263.12,264.90,265.46,264.99,263.45,260.54,255.35,248.49,241.02,234.04,227.09,220.64,214.49,208.65,203.50,198.29,193.67,189.97,187.50,185.86,184.33,182.13,178.84,175.94,172.84,169.24,165.01,160.34,156.55,152.63,147.95,141.89,135.14,127.79,119.91,111.41,102.59,97.97,94.71,90.70,84.19,80.03,77.86,76.52,75.16,73.82,72.46,71.78,72.19,73.61,75.09,76.55,78.14,81.72,95.89,104.56,111.17,119.42,126.59,129.14,129.10,127.91,126.82,126.04,125.14,124.24,123.19,120.41,117.14,113.47,109.97,108.60,107.94,107.58,107.44,107.64,108.27,108.92,109.76,110.93,112.09,113.82,115.69,117.65,120.18,124.08,128.84,133.47,136.85,138.88,138.76,137.65,136.16,134.70
578.39,576.28,574.91,575.12,578.30,584.50,590.73,596.73,602.59,607.79,611.66,614.68,617.09,618.88,619.72,620.28,620.75,621.09,621.24,621.03,620.11,618.12,614.83,611.26,606.72,601.21,594.95,588.59,581.63,575.14,569.90,565.26,560.89,555.77,549.72,543.28,537.44,532.10,526.65,520.46,513.51,505.21,498.03,492.69,487.13,481.55,475.51,468.25,458.75,449.67,442.31,434.91,426.74,420.68,415.41,409.58,403.00,396.48,390.90,385.95,381.26,376.63,372.33,368.60,364.79,361.04,358.93,359.14,359.92,360.53,360.77,361.00,362.84,365.88,369.51,372.76,375.92,378.81,381.48,384.17,385.81,387.55,389.42,391.08,392.57,393.80,394.92,396.02,397.31,398.80,399.52,399.37,398.59,398.15,397.11,395.46,393.32,391.17,388.09,384.51,380.30,374.62,368.36,362.29,356.64,351.13,343.80,337.94,333.05,328.25,321.98,313.97,307.03,301.17,294.68,287.60,279.14,270.02,261.38,255.15,249.88,244.91,241.00,240.63,242.06,243.17,243.59,243.32,242.16,241.77,241.89,242.42,243.78,245.17,246.49,247.45,247.32,246.57,244.90,242.51,239.28,234.64,228.90,225.13,225.09,229.45,233.76,236.87,239.15,241.31,243.79,245.44,246.21,246.17,245.70,244.90,244.95,246.36,249.43,252.50,255.39,258.00,260.19,262.03,262.69,262.71,261.90,259.08,253.90,247.24,239.80,232.04,224.55,217.72,211.49,205.74,200.10,193.98,188.70,184.47,180.87,178.13,176.17,174.50,172.72,170.80,167.79,164.06,160.12,156.96,153.98,150.02,144.92,138.72,132.11,124.84,116.82,108.00,99.27,95.15,92.75,89.25,81.67,78.84,77.35,76.04,74.70,73.33,72.00,71.66,72.60,74.11,75.59,77.06,79.00,83.61,97.41,105.60,112.05,120.03,124.78,126.21,125.51,123.71,122.23,120.92,119.28,117.57,115.96,113.43,111.14,109.44,108.36,107.53,106.91,106.89,107.36,108.03,108.73,109.49,111.11,113.93,116.14,117.92,119.55,121.33,123.85,127.53,132.26,136.69,139.21,139.87,139.15,137.78,136.08,134.47
584.97,583.01,581.27,580.39,581.38,584.83,589.78,595.72,602.17,607.53,612.25,616.01,618.72,620.32,621.11,621.65,622.12,622.48,622.65,622.27,621.23,619.23,615.81,611.59,606.54,600.96,595.24,589.37,583.04,576.89,571.49,566.84,562.66,557.72,551.82,545.65,540.09,534.75,529.09,522.60,515.56,507.61,500.46,494.70,489.26,483.02,476.13,468.57,460.01,451.02,443.53,436.38,428.72,421.62,416.38,411.16,405.32,399.08,392.43,387.24,382.98,378.62,373.91,369.20,364.20,359.06,355.00,354.23,354.41,354.56,354.54,355.07,356.85,359.52,362.82,366.32,369.59,372.75,375.76,378.43,380.84,383.13,385.13,386.53,387.63,388.67,389.75,390.91,392.18,393.47,394.25,394.51,394.53,394.74,394.62,393.85,392.22,390.27,387.63,384.61,381.14,376.73,371.10,365.18,359.47,354.01,347.00,340.65,335.34,330.72,324.97,317.67,311.19,305.48,299.04,292.40,284.42,275.71,267.14,259.90,253.06,246.33,240.38,237.18,236.84,237.38,237.85,237.62,236.32,235.39,235.08,235.51,236.58,237.78,238.90,239.80,240.20,240.03,239.15,237.60,235.16,231.29,226.10,221.56,219.69,223.32,228.55,232.53,235.24,237.44,239.55,240.89,241.59,241.74,241.53,241.10,241.47,243.26,247.03,250.64,253.44,255.66,257.50,258.99,259.67,259.82,259.12,256.36,251.86,246.04,239.02,230.75,223.29,216.59,210.38,204.51,198.69,192.51,186.53,180.94,175.85,172.27,170.04,168.38,166.66,164.45,162.25,159.73,156.89,154.28,151.12,146.79,141.44,135.31,128.78,121.44,113.23,104.18,95.32,91.80,89.90,86.86,80.48,78.23,76.90,75.59,74.26,72.88,71.73,71.72,73.03,74.56,76.08,77.54,80.81,89.24,100.10,107.02,113.23,120.48,123.74,123.91,122.31,119.62,116.57,114.71,113.31,112.11,110.95,109.24,107.71,106.95,107.01,107.08,107.01,107.33,107.97,108.70,109.75,111.87,114.85,118.24,120.67,122.36,123.85,125.58,128.32,132.28,136.04,138.85,140.04,140.08,139.19,137.78,136.04,134.30
591.47,589.67,587.77,586.14,585.29,586.00,589.30,594.78,601.61,606.87,612.26,616.80,619.95,621.33,622.11,622.68,623.20,623.63,623.85,623.12,621.76,619.61,615.74,610.72,605.22,599.66,594.40,589.20,583.71,578.00,572.33,567.52,563.44,558.65,552.97,547.22,542.01,536.83,531.19,524.67,517.62,510.23,503.23,497.07,491.74,485.00,477.48,469.69,461.91,453.06,445.71,439.12,432.30,424.53,418.91,413.83,408.46,402.38,394.81,388.97,384.63,380.67,376.05,370.87,365.00,358.48,352.36,349.98,349.13,348.81,348.90,349.93,351.89,354.40,357.37,360.83,363.89,366.98,370.07,372.60,375.51,378.03,379.99,381.32,382.24,383.16,384.26,385.56,386.83,388.06,388.93,389.56,390.31,391.10,391.74,391.75,390.67,388.72,386.68,384.42,381.79,378.47,373.50,367.86,362.20,356.71,350.00,343.29,337.63,333.10,327.90,321.31,315.21,309.58,303.20,296.59,288.86,280.58,272.45,264.86,257.19,249.51,242.19,236.26,233.33,232.40,232.28,231.91,230.68,229.39,228.73,228.97,229.51,230.16,230.86,231.66,232.61,232.92,232.74,232.02,230.43,227.48,223.10,218.19,214.76,217.12,222.82,227.78,231.34,233.87,235.66,236.74,237.37,237.62,237.53,237.56,238.39,240.50,244.50,248.45,251.18,253.11,254.67,255.76,256.36,256.50,255.82,253.31,249.66,244.85,238.51,230.16,222.84,216.38,210.30,204.32,198.32,192.21,185.58,178.59,172.09,167.71,164.96,162.86,160.70,158.20,156.96,155.79,153.99,151.38,147.74,143.09,137.72,131.81,125.38,117.83,109.35,100.24,91.69,88.56,86.83,84.21,79.66,77.77,76.46,75.14,73.81,72.44,71.58,71.91,73.45,75.01,76.54,78.01,82.71,95.15,103.06,109.16,115.22,121.03,123.05,122.14,119.47,115.65,111.46,109.22,108.14,107.64,107.34,106.70,106.03,105.94,106.57,107.29,107.71,108.28,109.07,110.14,111.83,115.32,119.40,122.95,125.41,127.27,128.89,130.62,133.20,136.87,139.26,140.31,140.38,140.05,139.07,137.64,135.91,134.09
597.30,595.95,594.25,592.30,590.25,589.00,590.29,594.51,601.12,606.06,611.38,616.53,620.60,622.14,623.06,623.69,624.23,624.72,625.08,624.00,622.24,619.41,613.77,607.99,602.38,597.05,592.19,588.03,583.44,578.06,572.03,566.81,562.51,557.98,552.91,547.73,542.90,537.87,532.58,526.87,520.13,513.10,506.16,499.67,494.09,487.76,480.92,473.39,464.63,455.63,449.07,443.67,438.07,431.46,424.39,417.85,411.88,405.72,399.03,392.55,386.90,382.44,377.51,372.43,366.02,358.31,351.99,347.33,344.41,343.15,343.67,344.63,346.97,350.08,353.36,356.25,358.59,360.91,363.43,366.12,368.29,370.02,371.84,374.13,376.01,377.26,378.40,379.69,381.12,383.08,384.44,385.28,386.29,387.45,388.09,388.17,387.41,385.10,384.06,383.16,381.65,379.00,374.91,369.92,364.66,359.27,352.25,345.68,340.10,335.51,330.97,324.76,318.69,313.06,307.04,299.69,292.02,283.80,275.06,268.08,260.90,253.22,245.51,238.98,232.87,228.72,226.35,225.29,224.34,223.52,223.01,222.79,222.20,221.26,221.08,221.84,223.20,223.70,223.83,223.72,223.19,221.80,219.23,215.42,211.61,211.57,215.67,221.05,226.17,229.90,232.02,233.12,233.76,234.11,234.20,234.99,236.48,238.61,241.46,244.97,247.80,249.84,251.20,252.10,252.39,252.43,252.03,250.31,247.45,243.65,238.47,231.11,223.76,217.52,211.77,205.89,199.43,193.09,185.96,178.13,170.79,165.52,161.37,157.87,155.02,153.25,152.87,152.34,150.69,147.20,142.98,138.46,133.66,128.24,122.00,113.96,105.02,96.28,89.55,86.17,83.88,81.56,78.89,77.33,76.02,74.69,73.32,71.98,71.65,72.35,73.89,75.44,76.94,78.47,84.04,98.73,105.81,113.25,119.42,122.05,122.78,121.47,117.42,112.00,109.00,106.87,105.50,105.16,106.12,106.79,107.50,108.16,108.68,109.05,109.28,109.87,111.15,113.61,116.71,120.52,124.39,127.77,130.37,133.32,135.85,137.60,138.58,139.83,140.45,140.60,140.53,139.94,138.73,137.20,135.50,133.76
602.60,601.48,600.09,598.28,595.87,593.90,593.72,596.10,601.02,605.42,610.34,615.85,620.78,622.55,623.87,624.68,625.25,625.78,626.13,624.64,622.42,618.98,611.75,605.00,599.30,594.40,590.03,586.46,582.66,577.76,571.58,565.92,561.21,556.59,551.82,547.10,542.61,537.94,533.05,527.85,522.02,515.51,508.60,501.73,496.05,490.35,484.26,477.27,468.56,459.65,453.23,448.13,443.08,436.94,429.28,421.84,415.15,408.83,402.46,395.85,389.61,384.32,378.74,373.41,366.75,358.84,353.07,347.67,343.02,339.62,338.26,337.83,340.37,344.35,348.29,351.12,353.43,355.55,357.72,360.14,361.88,363.27,364.85,367.11,369.69,371.84,373.63,375.18,376.63,378.57,379.94,380.75,381.59,382.32,382.66,382.55,381.87,380.65,380.58,380.43,379.65,378.17,375.16,371.23,366.73,361.51,354.63,347.83,341.95,337.27,333.02,327.57,321.88,316.13,309.88,302.23,294.18,285.84,277.45,270.48,263.65,256.51,249.32,242.99,235.75,229.80,225.21,221.60,219.02,217.16,216.05,215.59,214.69,213.34,212.63,212.86,213.98,214.90,215.77,216.41,216.56,216.08,214.82,212.12,208.49,206.64,209.59,214.75,220.14,224.06,226.10,227.31,228.20,229.03,230.23,232.34,234.53,236.60,238.79,241.46,243.75,245.46,246.54,247.31,247.58,247.80,247.91,247.20,245.22,242.17,237.86,231.66,224.66,218.51,212.87,207.14,200.54,194.01,186.62,178.61,171.25,164.87,159.29,154.51,150.90,148.71,148.05,147.19,145.21,141.71,137.81,133.85,129.73,124.83,118.01,109.80,100.92,92.55,87.66,84.43,81.95,79.90,78.19,76.84,75.54,74.21,72.85,71.55,71.72,72.80,74.34,75.92,77.45,80.56,87.95,102.30,109.83,117.27,122.72,123.99,123.69,121.20,116.09,110.08,107.42,105.31,104.75,105.51,107.29,109.53,111.72,113.21,113.77,113.94,114.38,115.14,116.57,119.37,122.83,125.94,128.81,131.69,134.55,137.24,139.32,140.59,141.03,141.34,141.30,140.99,140.47,139.64,138.56,137.18,135.52,133.89
607.85,606.79,605.64,604.13,601.81,599.83,598.59,599.01,601.64,605.24,609.54,615.14,620.67,622.71,624.54,625.64,626.32,626.87,627.13,625.25,622.53,618.37,609.88,602.18,596.35,591.92,588.10,584.83,581.61,577.22,571.08,565.03,559.86,555.03,550.36,545.92,541.62,537.36,532.89,528.08,523.37,517.43,510.53,503.38,497.71,492.62,487.19,480.80,472.72,464.17,457.59,452.32,447.37,441.32,433.57,425.65,418.28,411.74,405.29,398.80,392.39,386.19,379.77,374.05,367.32,359.75,354.78,349.54,343.69,337.93,333.75,331.25,333.26,337.59,342.10,345.27,347.91,350.14,352.10,354.14,355.87,357.22,358.47,360.18,363.27,366.56,369.31,371.27,372.78,374.36,375.44,376.09,376.55,376.57,376.46,376.03,375.31,375.68,376.43,376.74,376.56,376.41,374.63,371.93,368.35,363.36,357.01,349.85,343.49,338.66,334.47,329.91,324.72,318.83,312.02,304.34,295.77,287.36,279.94,272.99,266.40,259.95,253.72,247.89,240.69,233.90,227.47,220.97,215.84,212.12,209.84,208.88,207.87,206.55,205.34,204.66,205.17,206.48,208.09,209.43,210.04,210.17,209.84,208.14,205.00,201.98,204.20,208.89,213.93,217.57,219.37,220.71,221.88,223.20,225.72,229.29,232.29,234.45,236.30,237.99,239.46,240.60,241.32,242.01,242.41,242.93,243.60,243.91,242.81,240.41,236.83,231.79,225.43,219.38,213.74,208.12,201.54,194.89,187.48,179.66,172.69,165.40,158.61,152.76,148.29,144.75,143.02,141.28,138.75,135.67,132.52,129.29,125.79,121.23,113.55,105.23,96.69,88.96,85.72,82.95,80.61,78.82,77.53,76.28,75.00,73.69,72.40,71.19,71.85,73.26,74.82,76.43,78.04,83.61,93.42,105.97,114.40,121.21,125.72,126.78,125.56,121.35,115.33,109.34,106.53,104.32,104.96,107.19,109.65,113.55,116.94,119.05,119.72,119.87,120.66,121.75,123.26,125.77,128.89,130.90,132.56,134.75,137.66,139.51,140.62,141.27,141.71,141.93,141.87,141.36,140.25,139.26,138.45,137.34,135.79,134.30
614.29,612.88,611.44,609.86,607.70,605.74,603.99,603.41,604.65,606.79,610.41,615.43,620.47,622.64,624.90,626.55,627.62,628.14,628.27,626.40,622.96,617.51,608.72,600.72,594.72,590.38,587.05,583.94,580.61,576.35,570.73,564.56,559.21,554.46,549.90,544.99,540.31,536.09,532.05,527.93,523.81,518.03,511.29,504.40,498.82,493.78,488.44,482.28,474.81,467.30,460.92,455.39,450.18,444.20,436.56,428.67,421.18,414.26,407.31,400.82,394.44,387.64,380.55,374.52,367.94,360.75,355.77,351.07,345.60,339.58,333.98,329.65,328.11,329.39,333.30,337.39,340.42,342.64,344.46,346.69,349.62,351.22,351.95,353.19,356.56,360.71,364.21,366.62,368.87,370.25,371.08,371.53,371.72,371.62,371.21,370.51,369.81,370.24,371.25,372.23,373.02,373.67,373.37,371.71,368.70,364.24,359.03,351.96,345.21,340.00,335.73,331.64,326.76,320.78,313.43,305.76,297.23,289.36,283.46,278.25,271.61,265.27,259.66,253.72,246.93,240.17,233.72,227.48,220.31,214.80,210.53,207.27,205.02,202.78,200.28,198.14,197.88,198.76,200.06,201.34,202.43,203.35,203.48,202.21,199.59,197.00,199.28,203.91,208.96,212.80,214.69,215.97,216.93,217.93,220.24,224.55,228.76,231.94,233.64,234.85,235.74,236.33,236.63,237.14,237.63,238.31,239.22,240.00,239.59,238.02,235.27,231.02,225.67,220.08,214.48,208.67,201.97,195.55,188.56,181.13,174.36,167.63,160.84,154.54,149.00,142.62,138.91,136.08,133.23,130.41,127.76,124.94,121.46,116.34,108.52,99.38,91.10,85.41,82.98,81.10,79.46,78.03,76.79,75.55,74.30,73.04,71.88,71.22,72.25,73.83,75.42,77.00,78.61,87.05,99.78,110.12,118.29,124.94,129.66,131.30,129.06,122.59,115.50,109.75,106.65,104.04,104.90,107.95,111.67,116.80,119.79,121.38,122.12,122.50,123.50,125.21,127.31,129.33,131.38,133.09,134.57,136.00,137.61,139.36,140.54,141.12,141.51,141.75,141.79,141.27,139.93,138.97,138.18,137.23,136.03,134.89
620.11,618.82,617.37,615.83,613.98,612.21,610.28,609.02,609.04,609.86,612.45,616.36,620.44,622.75,625.23,627.34,628.81,629.42,629.51,627.43,623.43,617.31,608.85,600.74,594.43,589.86,586.57,583.44,579.90,575.72,570.61,564.59,559.19,554.48,550.00,544.78,539.56,534.98,530.97,527.28,523.56,517.85,511.27,504.72,499.24,494.34,489.15,483.26,476.32,469.54,463.38,457.71,452.31,446.45,438.91,431.04,423.54,416.64,408.96,402.29,395.88,388.55,380.98,374.84,368.48,361.67,356.58,352.20,347.14,341.26,334.98,329.29,325.09,323.45,325.35,329.32,332.73,335.32,337.37,339.69,342.96,344.67,345.34,346.57,350.10,354.74,359.03,362.39,365.16,366.47,367.13,367.45,367.39,367.04,366.33,365.52,365.01,365.52,366.70,368.12,369.57,370.83,371.40,370.61,368.35,364.49,360.15,353.72,347.03,341.28,336.69,332.77,328.11,322.18,314.65,306.99,299.01,292.22,287.84,284.18,277.80,271.47,265.95,259.71,252.83,246.07,239.85,234.01,226.05,219.37,213.66,208.79,205.47,202.60,199.36,196.09,194.07,193.19,192.83,193.20,194.70,196.75,197.44,196.55,194.43,192.69,195.35,199.92,204.70,208.37,210.29,211.52,212.35,213.16,215.28,219.75,224.51,228.36,230.21,231.27,231.80,232.00,232.06,232.36,232.90,233.75,234.86,235.88,235.98,235.16,233.26,229.80,225.34,220.31,214.85,208.87,202.22,196.00,189.36,182.38,175.93,169.78,162.91,156.29,150.63,143.20,137.77,133.61,130.19,127.14,124.14,120.90,116.90,111.09,102.90,93.30,85.71,82.20,80.61,79.52,78.42,77.24,76.01,74.77,73.56,72.40,71.44,71.37,72.58,74.21,75.86,77.55,79.97,90.30,104.46,113.47,121.33,128.23,133.43,135.43,132.39,124.12,116.28,110.80,107.25,104.06,104.85,108.35,112.80,118.23,120.88,122.22,123.11,123.89,124.99,126.78,128.87,130.46,131.79,133.15,134.34,135.20,136.13,137.74,139.23,140.30,140.96,141.28,141.42,140.98,139.58,138.60,137.73,136.79,135.80,134.95
625.00,624.39,623.33,622.00,620.58,619.19,617.39,615.72,614.66,614.45,615.66,617.96,620.76,623.15,625.60,628.00,629.88,630.67,630.78,628.33,624.00,618.01,610.43,602.35,595.62,590.48,586.70,583.31,579.57,575.43,570.74,565.13,559.77,555.03,550.56,545.32,539.48,534.20,529.75,526.13,522.66,516.90,510.44,504.29,498.92,494.35,489.50,483.94,477.45,470.99,465.04,459.42,453.92,448.23,440.72,432.78,425.33,418.88,410.29,403.19,396.67,388.88,381.06,375.01,368.99,362.53,357.34,352.92,348.03,342.43,336.16,329.67,324.35,320.55,319.15,321.59,325.16,328.46,331.09,333.28,335.77,337.43,338.62,340.33,343.96,348.73,353.85,358.60,361.58,362.94,363.61,363.89,363.62,362.83,361.85,361.08,360.93,361.64,362.96,364.56,366.30,368.00,368.72,368.60,367.29,364.13,360.31,355.04,348.89,342.55,337.34,333.31,328.76,323.06,315.80,308.16,301.26,296.00,292.95,290.31,284.60,278.35,272.38,265.73,258.16,251.31,245.31,239.57,232.08,224.97,218.61,213.27,209.30,206.22,202.90,198.95,194.28,190.45,187.22,185.75,187.28,190.42,191.77,191.34,189.81,189.20,192.48,196.90,201.06,204.06,205.92,207.13,208.01,208.99,211.18,215.26,219.71,223.56,225.84,227.05,227.42,227.43,227.43,227.49,228.11,229.18,230.49,231.60,232.04,231.86,230.78,228.16,224.41,219.95,214.75,208.69,202.28,196.17,189.80,183.26,177.27,171.50,164.30,157.51,152.73,146.51,139.86,134.21,129.95,126.14,121.87,117.35,112.32,105.80,96.88,87.38,80.99,79.52,78.86,78.29,77.49,76.42,75.19,73.97,72.83,71.80,71.14,71.60,72.83,74.37,76.08,78.05,82.12,93.15,107.01,115.71,123.44,130.93,136.70,138.66,135.22,125.93,117.73,112.44,108.31,104.45,104.88,108.33,112.84,117.57,120.22,121.80,122.97,124.22,125.34,126.57,127.91,129.22,130.29,131.13,131.75,132.25,133.29,134.63,136.51,138.63,139.93,140.49,140.76,140.47,139.20,138.12,137.07,136.01,135.03,134.35
629.13,629.10,628.50,627.41,625.95,624.61,623.11,621.63,620.42,619.81,620.16,621.10,622.45,624.27,626.41,628.72,630.77,632.00,631.72,629.82,625.92,619.98,613.04,605.44,598.50,592.59,587.94,583.99,579.84,575.58,571.14,565.84,560.29,555.37,550.86,545.58,539.62,533.73,528.68,525.06,521.67,515.24,508.70,503.38,498.40,494.18,489.67,484.43,478.31,472.75,467.35,461.84,456.11,450.12,442.32,434.35,427.03,420.44,411.23,403.73,397.00,389.08,381.42,375.60,369.93,363.85,358.44,353.38,348.28,342.97,337.22,330.65,325.29,321.01,317.92,317.07,318.53,321.04,323.72,325.59,327.64,329.53,331.43,333.85,337.44,342.85,348.47,353.29,356.79,358.59,359.76,360.48,360.26,359.57,358.78,358.04,357.47,357.32,358.72,360.85,363.11,364.74,365.81,366.01,365.28,363.32,360.12,355.68,350.27,344.12,338.12,333.75,329.21,323.74,317.02,310.25,304.38,299.88,296.98,294.49,290.09,284.56,278.32,271.50,264.04,257.26,251.21,245.27,237.70,230.60,224.33,219.18,215.54,211.67,207.46,202.93,198.03,193.54,189.18,185.37,182.95,182.80,183.86,184.67,184.98,185.96,189.43,193.57,197.28,199.70,201.25,202.51,204.02,206.06,208.72,212.21,215.67,218.59,220.39,221.63,221.81,221.54,221.44,221.48,222.69,224.23,225.69,227.06,227.92,228.32,227.91,225.94,223.01,218.79,213.65,207.74,201.47,195.69,189.70,183.56,177.93,172.15,164.98,158.33,153.95,148.88,142.03,135.85,131.06,126.20,121.14,115.95,110.11,102.49,92.82,84.51,79.56,78.57,77.90,77.23,76.50,75.61,74.44,73.35,72.35,71.46,70.97,71.86,73.18,74.65,76.25,78.20,83.08,94.47,108.14,116.56,124.70,132.45,138.06,139.69,137.09,128.62,120.38,114.47,110.35,106.25,104.86,106.58,111.23,115.64,118.61,120.61,121.98,123.15,124.15,125.20,126.31,127.36,128.04,128.22,128.24,128.30,128.27,129.50,131.71,134.46,136.94,138.79,139.53,139.33,138.39,137.40,136.34,135.26,134.24,133.45
632.93,633.42,633.34,632.65,631.23,629.80,628.44,627.13,625.96,625.15,624.89,624.84,625.09,626.16,627.86,629.95,632.02,633.33,632.59,631.24,628.17,622.87,616.35,609.18,602.03,595.39,589.92,585.28,580.66,576.15,571.68,566.39,560.64,555.57,550.98,545.50,539.44,533.18,527.70,523.83,520.03,513.18,506.77,502.17,497.78,493.93,489.70,484.74,479.00,474.27,469.40,464.11,458.30,452.02,444.07,436.14,428.84,421.67,412.28,404.59,397.58,389.45,382.21,376.60,371.17,365.33,359.69,353.82,348.39,343.34,338.14,331.87,326.77,322.44,318.34,314.36,312.96,313.88,316.19,317.95,319.90,322.10,324.64,327.75,331.24,336.99,342.98,348.02,352.03,354.29,356.04,357.28,357.20,356.70,356.14,355.41,354.37,353.35,354.24,356.31,358.82,360.80,362.70,363.36,363.07,362.16,359.56,355.85,351.22,345.58,339.17,334.53,329.97,324.73,318.57,312.87,307.92,303.84,300.76,298.11,294.77,290.05,283.92,277.09,269.89,263.20,256.98,250.65,243.07,236.02,229.91,225.12,221.88,217.44,212.55,207.69,203.10,198.55,193.73,188.20,182.09,177.94,177.24,177.95,179.30,181.43,184.95,189.02,192.77,195.29,196.73,198.17,200.29,203.29,206.29,209.06,211.37,213.05,213.94,215.01,215.09,214.69,214.49,214.74,216.60,218.67,220.42,222.23,223.66,224.58,224.68,223.29,220.96,216.90,211.81,206.12,200.19,194.80,189.27,183.57,178.14,172.27,165.32,158.96,154.73,150.47,143.84,137.50,132.21,126.26,120.58,114.94,108.52,100.00,89.83,82.77,79.06,78.14,77.29,76.42,75.66,74.87,73.80,72.86,71.99,71.24,70.97,72.16,73.56,74.99,76.47,78.33,83.84,95.36,108.69,116.94,125.50,133.40,138.76,140.10,138.44,131.36,123.36,116.70,112.54,108.25,104.91,104.61,109.13,113.20,116.43,118.84,120.49,121.68,122.59,123.54,124.50,125.13,125.34,124.78,124.06,123.53,122.73,124.44,127.44,130.95,134.35,137.25,138.42,138.33,137.62,136.62,135.55,134.48,133.44,132.52
636.34,637.31,637.85,637.94,637.07,635.39,633.67,632.13,630.85,629.93,629.39,629.18,629.24,629.56,630.61,632.47,634.20,634.64,633.49,632.09,630.37,627.30,620.73,613.61,606.15,598.99,593.08,587.63,582.47,577.47,572.37,566.47,560.62,555.54,550.78,544.75,538.35,532.23,526.81,522.21,516.86,510.62,504.92,500.49,497.03,493.57,489.51,484.74,479.41,474.99,470.41,465.51,460.14,453.92,446.30,438.60,430.96,422.58,413.83,406.48,399.09,390.27,383.88,378.41,372.84,366.93,361.05,354.33,348.56,343.71,338.78,333.29,328.53,324.23,319.75,314.16,309.44,307.67,308.88,311.22,313.68,316.24,319.18,322.74,326.10,331.09,337.33,343.80,348.00,350.64,352.85,354.50,354.61,354.26,353.72,352.92,351.76,350.47,349.51,349.80,351.76,355.43,359.28,360.92,360.97,360.37,358.28,355.24,351.38,346.56,340.85,336.19,331.62,326.59,320.90,316.25,311.92,307.95,304.56,301.54,298.25,294.17,288.96,282.35,275.35,268.68,262.13,255.16,248.05,240.86,234.69,230.23,226.95,222.87,218.34,213.70,209.24,204.76,200.08,194.64,187.92,180.75,175.19,172.07,171.66,173.54,177.03,181.65,186.60,190.77,192.78,194.61,197.04,200.14,202.91,204.79,205.92,206.25,205.65,206.10,206.39,206.26,206.01,206.90,209.27,211.86,214.28,216.86,219.15,220.49,220.81,219.88,217.58,213.67,208.75,203.27,198.24,193.32,188.36,183.21,177.65,171.72,165.25,159.33,154.93,150.66,144.69,138.56,132.58,125.67,119.49,113.60,107.00,98.29,88.26,81.94,78.80,77.89,77.03,76.13,75.21,74.30,73.45,72.59,71.74,71.15,71.30,72.54,73.98,75.41,76.82,78.60,84.78,96.10,108.70,117.01,125.71,133.65,139.00,140.36,139.11,133.69,126.39,119.17,114.49,109.86,105.14,103.17,106.82,110.33,113.45,116.10,118.27,120.05,121.03,121.92,122.58,122.41,122.00,120.63,118.84,117.36,117.25,120.80,125.77,130.64,133.97,136.64,137.97,138.09,137.20,135.84,134.67,133.64,132.67,131.65
639.79,641.47,642.53,642.96,642.40,640.94,639.18,637.49,636.04,634.97,634.45,634.27,634.27,634.33,634.89,635.67,636.13,635.64,634.32,632.97,631.67,629.57,624.37,617.76,610.13,602.46,596.17,590.43,584.79,579.14,573.29,566.54,560.38,555.02,549.79,543.23,537.00,531.13,525.61,520.21,513.64,507.92,503.01,498.98,495.92,492.76,488.51,483.47,478.61,474.62,470.40,465.84,460.83,454.93,448.00,440.57,432.61,423.70,415.43,408.53,401.92,394.41,387.08,380.93,374.91,368.67,362.94,356.41,350.34,345.02,340.27,335.35,330.79,326.30,321.28,314.96,308.65,304.40,303.11,304.99,307.79,310.59,313.54,317.12,320.88,325.60,331.63,338.53,343.90,346.96,349.40,351.35,351.89,351.74,351.05,349.97,348.55,347.03,345.47,344.81,345.82,349.18,353.00,355.10,356.06,356.81,356.27,354.10,350.98,347.13,342.54,337.98,333.46,328.71,323.41,319.15,315.11,311.19,307.54,304.27,300.89,296.97,292.35,287.00,280.34,273.71,266.96,259.46,252.12,245.12,239.17,234.75,231.40,227.61,223.29,218.71,214.28,209.96,205.49,200.34,193.73,185.38,177.56,172.07,169.37,168.65,171.03,175.29,180.20,184.55,187.53,190.50,193.67,196.79,199.10,200.24,200.40,199.82,198.94,199.21,199.61,199.68,199.52,200.59,203.28,206.09,208.48,210.90,213.07,214.35,214.79,214.34,212.41,209.14,204.96,200.20,195.85,191.41,186.80,181.82,176.04,170.30,164.35,158.86,154.48,150.09,144.65,138.77,132.34,124.51,117.88,111.73,105.00,96.25,85.80,80.57,78.51,77.59,76.70,75.78,74.84,73.90,73.09,72.25,71.40,71.00,71.62,72.92,74.34,75.75,77.14,79.01,86.91,97.79,108.72,117.09,125.92,133.90,139.23,140.62,139.75,135.51,129.53,123.01,117.25,111.19,106.08,103.26,104.14,106.90,110.19,113.14,115.48,117.42,118.62,119.39,119.66,118.98,117.69,115.29,112.83,111.72,113.77,118.82,124.95,130.63,133.97,136.92,138.55,138.84,137.86,136.32,134.88,133.53,132.22,130.87
643.33,645.67,647.18,647.82,647.54,646.42,644.75,643.00,641.45,640.13,639.61,639.42,639.33,639.24,639.22,638.65,637.62,636.29,634.90,633.63,632.38,630.62,627.07,621.26,613.70,605.67,598.90,593.21,587.29,581.07,574.42,566.76,560.11,554.17,548.23,541.23,535.34,529.74,524.00,517.77,510.53,505.28,501.12,497.55,494.60,491.44,486.77,481.35,476.97,473.40,469.45,465.17,460.56,455.19,449.13,442.15,434.19,425.45,417.73,411.23,405.53,399.73,391.38,384.23,377.48,370.81,365.20,359.29,353.12,347.25,342.53,337.93,333.45,328.63,322.96,316.25,309.29,303.07,298.99,299.56,302.33,305.13,307.86,311.20,315.51,320.20,325.84,332.57,339.23,343.10,345.87,347.97,348.91,348.93,348.07,346.68,344.98,343.22,341.31,339.91,339.82,342.44,345.88,348.44,350.52,352.83,353.96,352.65,350.21,347.28,343.87,339.63,335.31,330.89,325.99,321.84,317.90,313.98,310.08,306.55,303.00,299.07,294.90,291.02,285.03,278.56,271.69,263.90,256.10,249.36,243.69,239.13,235.56,231.93,227.75,223.16,218.69,214.66,210.46,205.64,199.47,190.96,181.96,174.84,170.03,166.23,166.54,169.56,173.64,177.53,181.40,185.75,189.92,193.22,195.16,195.78,195.21,194.00,193.19,193.19,193.55,193.77,193.80,194.89,197.76,200.61,202.78,204.76,206.47,207.49,207.95,207.86,206.41,203.93,200.69,196.84,193.05,189.01,184.61,179.62,173.74,168.40,162.99,157.89,153.55,149.04,144.05,138.36,131.52,122.94,116.00,109.60,102.64,93.84,83.25,79.20,78.18,77.26,76.33,75.41,74.48,73.56,72.71,71.87,71.08,70.91,71.97,73.31,74.69,76.08,77.46,79.48,89.50,99.91,108.86,117.31,126.17,134.13,139.42,140.86,140.37,137.06,132.49,126.99,119.93,112.22,107.19,104.02,101.97,103.60,106.62,109.44,111.72,114.20,115.70,116.30,116.13,115.04,112.78,109.50,106.89,106.89,111.42,117.59,124.43,130.71,134.13,137.49,139.45,139.88,138.83,137.19,135.43,133.66,131.89,130.20
647.24,649.50,651.31,652.53,652.74,651.72,650.09,648.52,647.19,645.38,644.23,643.49,642.92,642.21,640.95,639.41,637.72,635.98,634.50,633.33,632.17,630.48,627.14,622.41,615.87,608.06,600.19,594.95,589.60,583.38,575.99,567.54,560.00,552.84,545.74,538.62,532.93,527.38,521.19,514.14,507.97,503.21,499.37,496.17,493.05,488.80,483.42,477.96,474.02,470.58,466.43,462.22,458.39,453.94,448.77,442.86,436.30,429.44,422.86,416.30,409.94,403.95,397.51,389.44,381.44,374.41,368.12,362.67,357.18,351.63,346.44,341.53,336.83,331.57,325.07,317.72,311.00,304.56,298.99,296.64,298.01,300.10,302.31,305.14,309.55,314.48,319.75,325.57,332.24,338.51,342.46,344.28,345.02,345.10,344.22,342.75,340.93,338.76,335.48,332.53,331.62,335.32,340.54,344.44,347.38,350.26,351.67,350.88,348.92,346.36,343.59,340.44,336.84,332.85,328.54,324.53,320.56,316.46,312.19,308.18,304.40,300.64,296.92,293.44,289.21,283.41,276.56,269.34,261.39,254.58,248.84,244.01,239.65,235.75,231.62,227.09,222.42,219.13,215.32,210.72,204.99,197.16,186.86,178.52,173.27,168.70,164.88,164.54,166.90,170.28,173.89,179.26,184.80,189.12,191.46,192.08,191.45,190.07,188.56,187.17,187.00,187.34,187.68,188.95,191.72,194.53,196.85,198.92,200.54,201.39,201.64,201.34,200.17,198.26,195.75,192.64,189.19,185.36,180.91,175.90,170.64,166.03,161.20,156.34,151.79,147.32,142.69,136.88,129.40,120.70,113.91,107.29,99.72,90.48,81.94,78.73,77.81,76.88,75.95,75.03,74.10,73.18,72.29,71.47,70.98,71.19,72.43,73.76,75.09,76.43,77.77,79.94,91.90,102.09,109.57,118.16,126.63,134.28,139.45,140.99,140.88,138.43,134.55,129.05,120.75,112.55,107.63,104.78,102.55,101.80,102.21,103.00,104.89,110.29,112.23,112.48,111.86,110.24,107.10,104.00,102.64,104.60,110.17,116.41,123.63,130.67,134.24,137.65,139.78,140.35,139.19,137.37,135.44,133.48,131.54,129.82
650.68,652.74,654.81,656.54,657.07,656.28,654.68,653.00,651.42,649.23,647.36,645.72,644.24,642.80,640.70,638.61,636.59,634.63,633.20,632.08,630.90,629.14,625.87,621.84,616.45,609.52,601.32,596.08,591.09,585.20,577.80,569.02,561.18,553.30,545.09,537.19,531.09,525.40,518.96,511.43,505.79,501.03,497.10,493.89,490.35,485.00,479.20,473.68,469.05,465.47,461.88,458.46,455.36,451.80,447.60,442.83,437.65,432.44,427.24,421.08,414.30,407.62,402.01,393.84,385.32,377.79,371.24,365.88,360.72,355.42,349.96,344.80,339.98,334.64,327.85,319.40,313.04,306.97,300.87,296.25,294.80,295.68,297.71,300.28,304.10,308.91,313.93,319.05,324.95,331.47,336.10,338.64,339.80,340.19,339.55,338.20,336.19,333.14,328.91,325.30,324.46,329.70,336.03,340.90,344.50,347.42,348.90,348.75,347.40,345.18,342.95,340.61,337.54,333.86,330.02,326.20,322.36,318.35,314.08,309.79,305.89,302.29,298.91,295.57,292.13,287.00,280.72,274.14,266.52,259.72,253.88,248.84,243.91,239.39,234.98,230.46,225.78,222.75,219.24,214.92,209.60,202.61,192.32,183.30,177.08,171.97,165.87,162.38,161.97,164.34,167.47,172.78,178.85,184.21,187.06,187.87,187.38,186.02,184.07,182.08,181.26,181.19,181.50,182.67,185.07,187.84,190.58,193.10,194.84,195.67,195.83,195.48,194.54,192.88,190.67,187.93,184.62,180.93,176.66,172.00,167.52,163.50,158.97,154.18,149.58,145.26,140.45,134.23,126.44,118.25,111.45,104.34,95.98,86.32,80.55,78.36,77.43,76.50,75.58,74.65,73.72,72.80,71.89,71.09,70.98,71.61,72.92,74.23,75.55,76.86,78.28,80.88,93.79,103.90,110.71,119.31,127.48,134.48,139.19,140.82,140.88,139.03,135.65,130.20,121.23,112.74,107.99,105.53,103.37,101.36,100.27,99.80,100.79,105.47,107.20,107.39,106.75,105.17,102.68,100.60,100.17,102.74,108.97,115.25,122.61,130.03,133.93,137.50,139.89,140.68,139.46,137.53,135.50,133.44,131.42,129.63
