499.64,503.39,507.29,512.93,519.09,523.98,529.07,534.68,540.45,546.08,551.27,556.13,562.21,569.20,575.58,581.61,587.03,591.63,595.31,599.17,603.30,608.25,614.61,622.88,629.65,635.47,640.95,646.59,652.73,660.11,669.38,680.22,689.22,694.00,694.49,691.91,688.23,684.92,682.21,679.81,677.78,677.47,678.52,680.47,682.81,684.39,684.47,683.68,682.41,680.72,678.18,672.06,666.21,662.65,658.85,655.49,652.27,648.39,642.61,638.52,635.26,632.36,629.27,624.68,619.08,612.69,605.89,599.86,595.37,590.94,586.06,580.78,576.54,571.48,565.84,560.42,556.85,552.86,547.79,541.73,535.07,527.40,518.64,510.45,504.38,498.76,493.41,488.67,484.55,480.34,474.82,469.41,464.53,460.26,456.37,452.05,446.26,438.65,431.25,424.34,416.81,408.30,399.06,390.25,382.11,374.86,368.15,358.73,350.07,341.15,331.56,322.23,310.83,301.02,292.61,282.60,265.54,254.70,246.45,236.71,226.23,222.95,224.13,227.11,228.67,229.34,228.46,225.91,222.22,221.42,224.06,228.08,232.83,238.80,245.18,249.98,252.68,252.92,251.70,249.19,245.54,240.07,231.23,224.51,214.73,198.27,173.50,159.48,152.55,149.29,147.80,146.52,144.74,142.56,140.02,137.03,133.41,130.66,128.88,127.59,126.42,125.38,124.25,122.85,121.19,118.38,114.34,110.02,107.87,106.17,104.59,102.89,100.90,98.64,96.32,93.69,91.17,90.49,89.82,89.26,88.89,88.69,88.52,88.37,88.20,88.00,87.78,87.62,87.64,87.82,88.00,88.13,88.29,88.55,88.99,89.70,92.30,96.06,100.91,107.75,116.62,124.13,129.19,131.59,133.91,136.01,137.93,140.12,144.14,148.23,151.81,155.15,159.74,167.69,174.50,180.33,187.08,195.00,201.66,207.95,214.49,220.84,227.24,233.66,239.29,242.42,245.03,247.05,248.69,250.14,251.79,254.22,257.95,262.98,268.19,271.13,273.42,275.69,278.31,281.93,284.93,287.07,288.18,288.25,291.42,296.62,302.41,307.00,311.13,315.15,319.53,324.60,329.84,334.59,340.10,346.72
502.80,506.89,511.53,516.58,521.59,526.29,531.68,537.72,543.68,549.08,553.77,558.74,565.08,572.10,577.87,583.43,588.42,592.72,596.32,600.07,604.10,609.17,615.57,623.06,629.52,635.24,640.78,646.67,652.95,659.88,668.15,677.68,685.90,690.83,691.34,688.44,684.39,680.55,676.46,673.01,671.33,671.26,671.85,673.11,674.89,676.38,676.59,676.11,674.97,672.72,669.66,664.99,660.51,657.18,653.80,649.60,644.96,640.13,635.49,632.18,628.96,625.68,622.22,617.56,612.47,606.86,601.05,596.37,591.95,586.56,581.01,576.88,572.93,566.71,560.51,556.04,552.59,547.43,541.98,536.34,529.31,520.98,512.38,504.73,499.04,494.17,489.23,484.69,480.50,475.76,470.74,465.79,461.35,457.89,454.45,449.76,443.79,436.80,430.17,424.10,417.58,410.42,402.87,394.82,386.97,379.38,371.40,360.37,350.89,341.70,332.38,323.93,312.20,302.07,293.79,284.63,269.55,257.79,248.12,238.45,228.35,227.03,229.38,232.36,233.94,234.35,233.16,230.69,227.84,227.89,231.24,235.52,239.98,245.44,251.10,255.02,256.82,256.38,254.71,252.01,248.42,243.43,235.91,229.25,222.38,211.31,188.95,171.63,162.17,158.12,156.68,154.70,151.81,148.60,145.45,142.66,139.53,136.44,133.69,131.60,129.37,127.95,126.82,125.47,124.05,122.17,119.90,117.66,116.38,115.39,114.01,112.14,109.61,106.20,103.22,100.35,97.52,95.34,92.63,90.54,89.42,89.29,89.14,88.99,88.80,88.56,88.28,88.10,87.98,87.89,87.80,87.69,87.69,87.82,88.12,88.65,89.92,91.80,94.87,100.75,108.01,114.96,121.01,125.86,130.18,132.88,134.74,136.66,139.22,141.78,145.41,150.52,156.81,164.49,171.08,176.55,182.00,189.70,196.59,202.88,209.05,215.41,221.72,227.78,233.17,237.06,240.22,242.50,244.14,245.33,246.46,247.84,250.24,253.82,257.88,260.71,263.39,265.97,268.26,271.46,274.98,278.36,281.24,283.31,288.06,294.00,299.77,303.97,308.10,312.18,316.56,321.63,327.36,332.52,337.82,343.91
505.03,509.30,514.02,518.57,522.98,527.71,533.42,539.67,545.69,551.01,555.55,560.91,567.25,573.77,579.05,584.44,589.19,593.27,596.78,600.44,604.60,609.86,616.29,623.29,629.42,635.01,640.51,646.34,652.50,659.01,666.54,675.15,682.94,687.62,687.80,684.58,680.49,676.11,671.46,667.72,666.01,665.44,665.33,665.90,667.20,668.78,669.25,669.11,668.16,665.74,662.60,659.13,655.60,652.05,648.15,643.22,637.74,632.32,627.90,624.80,621.60,618.24,614.84,610.71,606.32,601.65,596.95,592.86,587.67,581.92,576.67,572.92,568.27,561.88,555.86,551.50,547.50,542.30,537.09,531.58,523.98,515.31,507.26,500.42,495.06,490.24,485.27,480.57,476.13,471.28,466.69,462.37,458.55,455.56,452.39,448.01,442.41,435.93,430.19,424.81,419.13,413.05,406.74,399.48,391.90,383.88,374.47,361.84,351.43,342.19,333.55,325.54,313.59,303.21,294.90,286.06,271.48,259.21,249.07,239.84,230.84,231.26,234.63,237.66,239.06,239.29,238.02,235.84,233.89,234.96,238.71,242.92,247.01,252.15,257.00,260.19,261.43,260.43,258.03,254.95,251.26,246.50,239.81,232.67,226.58,218.47,200.35,183.64,172.94,167.54,165.83,163.41,160.12,156.11,151.80,148.56,145.47,142.37,139.49,137.20,134.64,132.63,130.73,128.58,126.71,125.24,124.03,123.02,122.28,121.68,120.64,119.13,117.05,114.05,111.38,108.44,105.00,101.84,98.30,95.41,93.36,92.04,91.19,90.50,89.83,89.20,88.88,88.68,88.46,88.21,87.98,87.75,87.63,87.61,87.71,88.02,88.53,89.35,91.08,95.09,100.85,107.03,113.18,119.20,124.76,128.65,131.50,133.91,135.88,137.76,141.25,146.96,154.31,161.33,167.46,172.67,177.33,184.09,191.04,197.44,203.32,209.74,216.06,221.67,226.47,230.44,233.91,236.71,238.81,240.12,241.21,242.31,243.93,246.38,249.60,252.15,254.66,257.27,259.98,263.23,267.57,272.26,276.65,280.25,285.79,291.82,297.33,301.42,305.57,309.60,313.84,318.80,324.57,330.35,335.78,341.42
506.26,510.56,514.68,518.87,523.32,528.35,534.31,540.45,546.38,551.81,556.59,562.51,568.61,574.30,579.21,584.61,589.36,593.35,596.72,600.27,604.74,610.23,616.63,623.43,629.22,634.64,640.02,645.54,651.32,657.49,664.57,672.67,680.38,684.38,683.87,680.32,676.49,671.65,667.28,663.87,661.66,659.94,658.95,658.87,659.81,661.61,662.42,662.63,662.00,659.95,657.20,654.25,650.90,646.80,641.72,636.36,630.81,625.19,619.96,616.46,613.40,610.47,607.57,604.44,600.82,597.13,593.41,589.02,582.58,577.21,573.05,568.84,562.76,557.19,551.97,546.82,541.84,537.74,533.16,527.18,518.88,510.35,503.17,497.24,492.17,486.83,481.41,476.26,471.48,466.97,462.80,459.25,456.16,453.26,450.22,446.82,442.16,436.10,431.23,426.52,421.56,416.29,410.75,404.25,396.81,388.15,377.27,363.12,351.75,342.66,335.00,327.05,314.94,304.34,295.87,286.89,271.22,258.98,249.34,240.76,233.62,235.65,239.93,243.12,244.17,244.28,243.15,241.43,240.34,242.61,246.43,250.16,253.72,258.68,262.81,265.53,266.56,265.17,261.86,258.08,254.05,249.34,242.89,235.16,227.91,219.95,207.11,194.88,184.73,177.79,175.16,172.52,169.56,165.16,159.43,155.08,151.34,148.42,146.18,144.26,142.13,139.40,136.17,132.67,129.88,128.24,127.09,126.18,125.51,124.94,124.32,123.62,122.78,121.57,119.99,117.11,112.89,109.54,106.55,103.70,100.68,97.16,94.96,93.22,91.59,90.19,89.72,89.35,89.01,88.72,88.48,88.25,88.07,87.89,87.66,87.50,87.77,88.34,89.17,90.62,95.27,100.72,106.17,111.93,117.83,123.24,127.91,131.49,133.91,136.13,139.32,144.39,152.07,158.20,163.69,168.72,173.19,178.45,185.24,191.80,197.47,203.91,210.24,215.43,219.44,222.78,226.16,229.51,232.29,234.02,235.54,237.11,238.66,240.52,243.48,245.69,247.59,250.03,253.89,257.70,263.24,269.29,274.76,279.23,284.71,290.23,295.27,299.55,303.74,307.61,311.65,316.42,321.75,328.08,333.90,339.28
506.04,510.38,514.36,518.44,523.01,528.48,534.29,539.94,545.51,551.03,556.33,562.68,568.86,574.34,578.93,584.04,588.78,592.83,596.12,599.47,604.26,610.01,616.31,622.58,628.13,633.55,638.96,644.37,649.81,655.74,662.67,670.58,677.77,680.82,679.89,676.46,672.69,667.90,663.50,659.85,657.05,654.75,653.12,652.48,653.02,654.61,655.60,655.94,655.54,653.99,651.31,647.87,644.07,639.87,634.76,629.58,624.04,618.29,613.11,609.84,607.03,604.28,601.58,599.03,596.01,592.69,588.81,583.58,578.12,573.44,569.16,564.26,558.73,553.41,547.97,542.43,538.13,534.54,528.55,520.27,512.26,505.39,499.36,493.94,488.91,483.44,477.42,471.83,467.01,462.71,459.29,456.32,453.52,450.72,447.97,445.02,441.37,436.89,432.66,428.95,424.81,420.19,415.64,409.36,401.47,391.76,379.32,363.90,352.13,342.93,335.27,327.58,316.07,305.37,296.46,287.45,270.26,258.06,248.81,240.59,236.92,240.96,246.08,249.38,250.02,249.81,248.71,247.29,246.63,248.87,252.35,255.94,259.53,263.91,267.88,270.62,271.72,270.31,266.90,261.77,256.54,251.80,245.62,238.18,230.29,221.82,211.88,202.98,195.66,188.97,182.47,179.04,176.73,173.84,169.75,165.04,160.25,156.48,153.75,151.68,149.41,146.66,143.42,139.82,136.59,134.35,132.76,131.43,129.81,128.48,127.63,127.02,126.31,125.37,123.98,121.76,118.83,116.56,114.42,111.76,108.50,104.95,101.95,99.12,96.47,94.23,92.55,90.73,89.58,89.22,88.98,88.75,88.52,88.26,88.00,87.72,87.66,87.80,88.18,89.02,91.46,95.11,99.68,105.15,111.42,117.56,123.49,128.91,132.24,134.91,137.86,142.27,150.02,155.64,160.57,165.15,169.22,173.95,180.69,187.14,192.36,198.44,204.31,209.20,212.98,215.82,218.52,221.39,224.16,226.47,228.33,230.44,232.56,234.86,238.10,240.87,243.71,247.40,252.65,256.94,263.91,270.90,276.06,280.62,285.72,290.81,295.63,299.98,304.10,308.06,312.23,316.88,321.34,326.59,331.82,337.01
505.14,509.56,513.57,517.60,522.27,528.17,533.77,538.90,544.10,549.66,555.37,561.86,568.23,573.87,578.21,582.93,587.56,591.69,595.06,598.36,603.26,609.00,615.06,620.90,626.41,631.95,637.49,642.84,648.04,653.80,660.63,668.40,675.10,677.23,675.90,672.56,668.70,664.14,659.78,655.84,652.37,649.25,646.83,645.55,645.63,646.74,647.63,647.99,647.74,646.59,644.06,640.50,636.59,632.43,627.45,622.42,617.10,611.67,606.88,603.43,600.70,598.23,595.84,593.64,590.85,587.60,583.62,578.20,573.83,569.68,565.20,560.06,555.33,549.97,544.22,538.78,535.16,531.08,523.53,513.68,506.24,500.56,495.33,490.20,485.12,479.64,473.35,467.56,462.79,458.70,455.87,453.23,450.54,447.90,445.49,442.82,439.91,436.76,433.39,430.66,427.30,423.33,419.59,413.65,405.33,394.60,380.77,364.28,352.38,343.13,335.22,327.53,316.65,305.97,296.67,287.46,268.81,256.48,247.65,240.43,241.15,246.81,252.36,255.72,256.12,255.66,254.57,253.41,253.13,255.19,258.29,261.75,265.46,269.51,273.36,275.96,276.88,275.33,271.70,265.72,259.52,254.24,248.12,241.21,233.27,224.64,216.42,209.23,204.01,198.21,189.69,185.00,183.11,181.75,179.50,175.11,169.85,165.25,161.66,159.07,156.37,153.62,150.60,147.19,143.81,141.09,139.11,137.49,135.30,133.45,132.26,131.33,130.17,128.74,127.01,125.17,123.43,122.09,120.66,118.46,115.67,112.91,109.97,106.62,103.17,99.93,97.04,93.88,91.71,90.70,89.85,89.32,88.95,88.67,88.41,88.09,87.78,87.57,87.62,88.17,88.90,90.88,94.24,98.98,105.53,112.05,118.76,125.74,130.58,133.78,136.53,140.25,147.24,152.84,157.50,161.59,165.31,169.77,176.20,182.44,187.49,193.01,198.38,202.94,206.49,208.87,210.82,212.87,215.14,217.59,220.12,223.25,226.46,229.75,233.72,237.41,241.65,246.79,252.83,257.38,265.37,272.93,277.77,282.69,287.68,292.61,297.46,302.27,306.54,310.62,314.78,319.06,322.67,326.70,331.09,335.83
503.51,508.10,512.30,516.25,520.92,527.20,532.65,537.39,542.30,547.80,553.57,559.65,566.28,572.59,576.80,581.09,585.39,589.53,593.30,596.90,601.50,606.66,612.18,617.97,623.76,629.68,635.45,640.72,645.90,651.60,658.29,665.86,672.34,673.74,671.93,668.38,664.23,660.01,655.99,651.95,647.64,642.97,639.30,637.22,636.72,636.99,637.29,637.49,637.32,636.29,634.22,631.78,628.75,624.73,619.67,614.43,609.72,605.53,601.42,596.67,593.59,591.68,590.04,587.92,584.61,581.13,577.72,573.70,569.62,565.44,561.18,556.86,552.58,546.78,541.05,536.55,532.82,526.48,518.00,508.96,502.16,496.03,490.67,485.61,480.38,475.02,469.17,463.68,459.01,455.20,452.45,449.70,446.92,444.63,442.50,440.06,437.26,434.40,432.49,430.53,427.86,424.58,421.20,416.08,407.67,396.14,381.32,364.03,352.38,343.32,335.03,326.75,316.22,305.76,296.27,286.44,266.63,253.80,245.55,240.80,247.07,253.36,258.47,261.90,262.38,261.89,260.85,259.96,260.17,262.30,265.11,268.31,272.03,276.50,280.04,281.92,282.03,279.94,275.45,269.94,263.69,256.80,250.34,244.04,237.03,229.27,221.43,213.12,207.37,202.95,197.66,191.00,188.89,188.23,186.84,183.80,179.48,174.56,169.81,166.23,162.72,159.75,156.84,153.63,150.48,147.70,145.69,144.31,142.75,141.26,139.76,138.03,135.75,132.96,130.21,127.88,126.14,124.86,123.63,122.42,121.22,120.01,118.63,115.99,112.20,107.67,104.03,100.35,97.05,94.20,91.47,90.03,89.39,89.09,88.79,88.42,88.09,87.78,87.52,87.53,88.15,89.17,90.77,93.89,100.45,107.02,113.78,121.45,128.79,132.61,135.26,138.26,142.83,149.24,154.21,157.85,161.46,165.74,171.25,177.17,182.79,187.53,192.48,196.62,199.68,201.63,202.95,203.97,205.00,206.65,210.52,215.66,220.77,225.67,231.08,235.99,241.88,248.24,253.72,258.15,266.12,273.73,278.89,285.06,290.68,295.92,301.27,307.43,312.30,316.40,320.12,323.52,326.52,329.75,333.31,337.02
500.66,505.63,510.10,514.55,519.68,525.98,531.63,536.13,540.68,545.92,551.57,557.27,563.88,570.58,575.25,579.65,583.80,587.77,591.62,595.38,599.64,604.39,609.55,615.07,621.22,627.51,633.49,638.83,644.46,650.40,656.81,663.75,670.48,670.68,667.95,664.22,660.38,656.63,652.54,648.04,643.04,637.74,633.24,630.15,628.58,627.84,627.63,627.54,627.03,625.49,623.42,621.18,618.63,615.47,611.49,607.22,602.68,598.10,593.89,589.49,586.88,585.39,584.02,582.00,579.03,575.83,572.62,569.08,565.17,561.31,557.50,553.53,548.74,543.34,538.41,534.40,529.96,522.64,514.04,505.52,498.69,492.61,487.31,482.18,476.71,471.21,465.45,460.08,455.50,451.86,448.82,445.70,442.72,440.45,438.16,435.79,433.21,430.54,428.61,426.67,424.77,422.86,420.41,415.53,407.29,395.97,381.28,363.79,352.32,342.99,333.61,324.08,314.25,304.61,295.29,284.88,264.84,252.35,246.39,245.73,252.46,259.10,264.26,267.46,268.06,267.39,266.15,265.40,266.36,269.10,271.94,275.40,279.79,284.37,286.99,287.90,287.26,284.44,279.00,273.44,267.47,260.54,253.60,247.06,240.31,233.30,226.44,218.14,211.31,206.33,202.72,198.06,196.37,195.38,193.49,190.27,186.02,180.90,175.65,171.45,167.84,164.88,162.21,159.51,156.53,153.64,151.32,149.56,147.86,146.30,144.67,142.75,140.31,137.42,134.39,131.67,129.47,127.76,126.50,125.45,124.55,123.74,122.71,120.88,118.25,114.93,111.76,107.84,103.83,99.93,96.11,93.05,90.78,89.39,89.07,88.69,88.36,88.04,87.70,87.50,87.64,88.17,89.13,91.26,97.89,104.10,109.93,116.61,124.76,130.31,133.94,136.50,139.48,144.88,150.07,154.32,157.73,161.59,166.59,172.08,177.37,181.52,185.28,188.71,191.74,193.96,195.08,195.93,197.44,200.61,206.06,212.16,218.39,224.68,230.91,236.34,242.83,249.51,254.50,259.10,266.62,273.84,279.40,286.98,293.41,299.53,305.81,312.22,317.11,321.17,324.78,328.01,331.00,334.19,337.96,341.91
498.00,503.33,508.19,513.26,518.83,524.99,530.83,535.18,539.39,544.29,549.78,555.13,561.51,568.36,573.75,578.49,582.57,586.38,590.16,594.00,597.95,602.35,607.26,612.54,619.03,625.63,631.77,637.24,643.40,649.70,655.85,662.03,668.83,667.89,664.31,660.46,656.99,653.50,649.14,644.07,638.54,632.99,627.89,623.90,621.24,619.57,618.69,618.06,617.02,614.91,612.75,610.50,608.25,605.94,603.12,599.75,595.17,589.94,585.70,582.32,580.43,579.26,577.95,576.01,573.59,570.79,567.67,564.37,560.70,557.21,553.75,549.76,544.51,539.88,535.96,532.22,526.95,519.25,510.88,502.81,495.93,490.09,484.93,479.73,473.95,468.02,462.18,456.83,452.26,448.72,445.33,441.87,438.66,436.28,433.75,431.36,428.91,426.31,423.83,421.71,420.43,419.68,418.04,413.31,405.54,394.90,380.74,363.48,352.25,342.55,331.97,320.93,311.71,302.95,293.95,283.06,263.43,251.94,248.73,252.06,257.69,264.51,269.80,272.76,273.73,273.14,271.96,271.48,273.03,276.27,279.28,283.13,288.07,292.34,293.85,293.72,292.26,288.75,282.69,276.83,271.00,264.57,257.32,250.28,243.52,237.17,231.31,223.62,215.75,209.64,207.05,205.24,204.13,202.50,199.62,195.50,190.92,185.74,180.48,176.20,172.92,170.16,167.78,165.58,162.68,159.64,156.89,154.52,152.35,150.54,148.79,146.83,144.42,141.82,138.86,135.96,133.36,131.19,129.72,128.43,127.22,126.24,125.11,123.93,122.65,121.04,118.70,114.97,110.63,106.11,101.61,96.97,92.77,89.92,89.36,88.95,88.63,88.31,87.99,87.69,87.36,87.55,88.23,89.64,95.63,101.62,106.82,112.06,120.08,127.39,132.20,134.46,136.13,140.06,145.32,150.40,153.89,157.33,161.89,166.90,171.64,175.32,177.87,180.52,183.40,185.82,187.13,188.86,191.97,197.25,203.97,210.59,217.60,224.99,231.66,237.35,244.00,250.61,255.23,260.05,266.89,273.63,279.76,288.73,296.04,303.11,310.23,316.51,321.23,325.35,329.12,332.53,335.82,339.40,343.73,348.21
497.66,503.08,508.75,514.01,519.29,525.21,530.74,535.00,539.07,543.71,549.03,554.11,559.87,566.27,572.61,577.73,581.96,585.80,589.53,593.28,596.98,601.13,605.93,611.39,617.98,624.65,630.88,636.50,642.86,649.50,655.65,661.15,666.72,665.49,661.97,658.16,654.44,650.36,645.36,639.86,634.25,628.63,623.27,618.96,615.94,613.80,611.56,609.65,607.87,605.85,603.97,602.13,600.07,597.60,594.58,590.19,585.35,580.89,577.87,575.78,574.43,573.32,571.98,569.99,567.77,565.14,562.19,559.52,556.43,553.07,549.23,544.52,540.21,536.71,533.51,529.81,524.10,516.46,508.53,501.17,494.99,489.44,484.47,479.31,473.14,466.10,459.97,454.49,449.70,446.12,442.74,439.24,435.93,433.41,431.04,428.46,425.70,422.77,419.72,417.71,416.32,415.04,413.00,408.78,402.26,392.78,379.13,362.89,352.11,342.40,331.19,318.56,309.04,300.67,292.08,281.08,262.96,253.77,252.73,257.37,263.02,269.75,274.86,277.92,280.13,280.97,281.13,281.44,282.75,285.24,288.51,292.49,296.70,299.38,300.02,298.86,296.30,292.50,287.29,280.76,274.16,268.08,261.31,253.97,247.22,241.28,235.58,229.25,221.33,214.61,212.49,211.48,210.57,208.59,204.78,199.04,193.89,188.96,184.62,181.83,179.50,177.36,175.32,173.17,170.11,166.80,163.56,160.47,157.67,155.54,153.53,151.18,148.24,145.67,143.04,140.63,138.53,136.42,134.44,132.47,130.51,128.70,127.44,126.19,124.86,123.42,121.64,119.23,115.59,110.89,106.20,101.09,95.81,91.53,89.78,89.25,88.94,88.60,88.25,87.94,87.61,87.46,87.60,88.45,91.11,97.89,104.92,109.43,115.94,123.60,128.97,130.99,131.36,134.58,139.39,144.68,149.47,152.75,156.59,161.12,165.79,169.12,171.47,173.41,175.09,176.52,178.88,184.28,190.98,197.35,203.74,210.70,218.25,225.95,232.53,238.46,244.98,251.27,255.87,260.75,266.66,273.09,280.37,290.47,298.63,306.10,313.25,319.39,324.05,328.68,333.18,337.15,341.06,345.55,350.35,354.72
499.30,505.77,511.29,516.43,521.67,527.29,532.35,536.53,540.46,544.69,549.68,554.96,560.93,567.36,573.45,578.38,582.42,586.09,589.71,593.28,596.78,601.16,606.59,612.26,618.60,625.05,631.28,637.19,643.60,649.90,655.65,660.54,664.34,662.81,659.45,655.67,651.62,646.97,641.42,635.62,630.11,624.56,619.20,614.50,610.61,607.27,604.19,601.81,599.94,598.25,596.48,594.24,591.49,588.32,585.15,580.70,576.12,572.16,569.60,568.08,566.98,565.95,564.75,563.19,561.52,559.45,556.98,554.63,551.44,547.92,544.03,539.57,536.08,533.23,530.41,526.81,520.93,513.58,506.36,499.77,493.84,488.63,483.93,478.75,472.10,464.41,457.93,452.34,447.56,443.75,439.97,436.23,432.76,429.94,427.73,425.28,422.14,418.28,415.00,413.02,411.37,409.52,407.09,403.28,397.71,389.28,376.59,362.11,351.80,341.97,330.29,316.56,306.59,298.28,289.76,278.57,262.42,256.11,257.25,262.71,269.57,276.58,281.76,285.03,287.63,289.04,289.93,290.74,291.87,293.81,296.77,300.38,303.95,305.78,305.44,303.29,299.88,295.64,291.02,284.78,278.07,271.77,265.48,258.47,251.82,245.83,240.16,234.73,227.88,221.79,219.36,217.83,216.17,213.48,209.06,202.68,197.38,193.24,190.26,188.64,186.94,185.18,183.36,181.20,177.94,174.18,170.52,167.12,163.87,161.35,158.91,156.17,152.95,150.15,147.41,145.07,143.24,141.23,139.08,136.99,134.89,132.65,130.70,128.69,126.85,125.41,123.84,122.03,119.17,115.10,110.30,104.92,98.87,93.34,90.21,89.50,89.18,88.84,88.47,88.15,87.85,87.54,87.37,87.70,88.71,95.12,102.57,107.17,112.41,119.54,124.90,127.20,127.88,130.56,134.59,139.49,144.72,148.09,151.48,155.46,159.83,163.18,165.63,167.39,168.79,170.60,174.78,182.59,191.06,197.60,203.72,210.76,218.54,226.41,232.95,239.05,245.58,251.77,256.31,261.22,266.94,273.47,281.31,291.63,300.17,307.87,315.02,321.01,325.69,331.00,336.45,341.13,345.47,350.36,355.25,359.53
502.31,510.39,515.16,520.07,525.52,530.77,535.31,539.45,543.30,547.07,551.72,557.65,564.44,571.12,576.09,580.36,583.92,587.26,590.68,594.02,597.48,602.53,609.01,614.81,620.71,626.75,632.89,639.06,645.27,650.70,655.71,659.97,661.79,659.93,656.71,652.97,648.51,643.35,637.37,631.42,626.12,620.73,615.50,610.32,605.11,599.98,596.42,594.17,592.63,591.19,589.21,586.03,582.12,578.04,574.90,571.32,567.51,563.88,561.23,559.63,558.47,557.45,556.50,555.66,554.80,553.50,551.63,549.33,545.64,541.86,538.32,534.97,532.12,529.52,526.85,523.34,517.38,510.56,504.21,498.34,492.33,487.50,483.09,477.87,470.76,462.91,456.03,450.29,445.62,441.47,436.95,432.75,429.00,425.76,423.64,421.45,417.89,412.88,409.59,407.54,405.54,403.21,400.51,396.90,391.97,384.59,373.44,361.15,351.31,341.29,329.26,314.84,304.45,295.91,287.13,275.74,261.96,258.86,262.23,268.38,277.00,284.52,290.05,293.69,296.05,297.28,298.23,299.12,300.12,301.73,304.03,307.00,310.17,311.74,310.38,307.33,303.23,298.39,294.03,288.84,282.68,275.88,269.93,263.70,257.25,250.87,245.10,240.09,235.00,230.38,227.14,224.25,221.12,217.42,212.68,206.47,201.50,198.53,197.08,196.20,194.84,193.24,191.48,189.28,185.85,181.58,177.60,174.10,170.53,167.57,164.69,161.65,158.41,155.21,152.00,149.37,147.47,145.54,143.47,141.65,139.90,137.61,134.75,131.65,129.03,127.38,125.68,123.80,121.63,118.72,114.02,108.49,101.86,95.31,90.84,89.75,89.36,89.02,88.66,88.34,88.03,87.72,87.43,87.33,88.16,93.09,99.61,105.14,109.53,115.54,120.51,123.51,125.62,127.87,130.96,135.01,139.88,143.52,146.67,150.06,153.87,157.38,160.11,162.23,164.30,167.65,173.95,182.85,191.47,197.61,203.61,210.58,218.35,226.31,232.96,239.18,245.86,252.11,256.54,261.50,267.64,274.54,282.37,292.14,300.57,308.39,315.65,321.57,326.37,332.44,338.86,344.28,348.87,353.69,358.40,362.64
504.65,512.54,517.95,523.56,529.25,533.99,538.41,542.83,546.93,550.88,556.04,563.10,569.94,575.72,580.07,583.82,587.01,589.99,593.00,596.02,600.44,606.36,613.00,618.26,624.24,630.23,635.96,641.31,646.43,651.06,655.22,658.43,659.42,657.27,654.14,650.41,645.23,639.53,633.39,627.50,622.33,617.16,611.76,605.90,599.51,592.88,587.87,585.03,583.05,580.21,576.87,573.71,570.26,566.52,563.81,561.33,558.91,556.63,554.69,552.84,550.90,549.22,548.17,547.48,546.88,545.65,543.63,541.27,538.11,535.09,532.50,530.38,528.41,526.35,523.78,519.88,513.07,507.31,501.66,495.81,490.20,485.77,481.40,476.23,469.59,462.01,454.55,448.15,443.05,438.51,433.54,428.61,424.14,420.69,418.28,415.18,411.26,406.84,403.17,400.68,398.39,395.88,392.96,389.09,384.69,379.01,370.71,359.92,350.60,340.59,328.25,313.43,303.17,294.11,284.52,273.58,262.91,262.49,268.09,275.86,283.72,291.18,297.41,302.07,304.98,306.09,306.33,306.43,306.93,308.16,310.60,313.92,317.21,318.01,316.03,312.21,307.25,301.79,297.18,292.76,287.71,281.61,275.49,269.58,263.41,256.95,250.75,245.53,241.00,237.00,233.51,229.99,225.82,221.21,216.07,210.15,206.20,204.22,203.43,202.82,201.85,200.28,198.23,195.65,192.52,188.51,184.18,179.84,175.74,172.53,169.82,167.08,163.85,160.44,156.91,153.90,151.63,149.41,147.26,145.24,143.31,141.35,139.06,136.19,133.02,129.94,127.58,125.47,123.33,120.85,117.28,111.86,104.70,97.56,92.78,90.31,89.50,89.17,88.83,88.48,88.16,87.85,87.55,87.31,87.67,90.22,95.57,103.26,107.90,113.22,118.05,121.62,123.94,126.12,128.61,131.84,136.13,139.84,142.76,145.56,148.50,151.09,154.17,157.46,161.10,165.86,172.22,181.13,189.98,196.52,202.63,209.63,217.41,225.46,232.63,239.23,245.94,252.06,256.50,261.64,268.14,275.11,282.42,291.32,298.98,306.88,314.88,321.34,326.49,332.85,339.52,345.13,349.99,354.71,359.28,363.60
506.81,513.90,519.81,525.86,531.73,536.53,541.22,545.97,550.39,554.69,560.60,568.59,575.26,580.10,584.04,587.45,590.46,593.26,596.13,599.59,604.84,611.09,617.38,622.23,628.13,633.89,639.07,643.46,647.57,651.16,654.23,656.45,657.02,655.07,652.04,648.00,642.06,635.92,629.79,624.00,618.80,613.64,608.13,601.78,594.45,586.68,580.76,577.20,574.35,570.18,566.08,563.08,560.16,556.85,554.12,552.16,550.60,549.14,547.45,545.15,542.88,541.07,540.05,539.40,538.69,537.40,535.41,533.08,530.80,528.82,527.27,526.17,524.87,522.79,519.79,515.37,508.79,503.80,498.44,492.58,487.74,483.72,479.32,474.24,468.22,461.20,453.53,446.68,441.09,435.82,430.41,424.83,419.69,416.01,413.07,409.22,404.97,400.80,396.82,393.96,391.46,388.89,385.98,382.20,378.39,374.05,367.87,358.49,349.58,339.62,327.22,312.21,302.21,293.00,283.00,272.44,264.89,266.81,273.90,282.46,289.86,297.59,304.33,309.44,312.50,313.50,313.37,313.04,313.26,314.23,316.88,320.29,323.24,323.37,321.06,316.97,311.67,305.73,300.68,296.56,292.35,287.23,281.32,275.58,269.60,263.23,256.69,251.03,246.25,242.17,238.63,234.94,230.41,225.46,220.23,214.73,211.91,210.72,210.21,209.52,208.66,207.10,204.82,201.88,198.84,195.09,190.52,185.47,180.86,177.23,174.51,172.00,168.91,165.50,161.84,158.53,155.84,153.36,151.08,148.64,146.26,144.56,142.79,140.38,137.15,133.24,129.85,127.22,124.89,122.61,119.96,114.97,107.62,100.03,94.77,90.96,89.67,89.31,88.97,88.61,88.29,87.98,87.67,87.40,87.35,88.16,91.90,99.66,105.88,111.02,115.62,119.61,122.29,124.55,126.71,129.29,132.82,136.24,138.93,141.37,143.80,146.03,149.43,153.70,158.65,164.36,170.45,179.06,188.04,195.28,202.07,209.07,216.53,224.34,231.91,238.82,245.62,251.72,256.22,261.49,268.30,275.18,281.73,289.87,296.91,304.64,312.99,320.17,325.73,332.21,339.01,344.99,350.15,354.77,359.18,363.54
508.91,514.75,520.38,526.18,532.13,537.97,543.42,548.52,553.22,558.02,564.79,573.19,579.57,583.78,587.50,590.90,594.00,596.97,600.28,605.41,610.95,616.52,621.90,626.80,632.17,637.31,641.78,645.27,648.84,650.99,652.62,654.07,654.54,653.60,650.68,645.81,639.16,632.75,626.81,621.15,615.64,610.16,604.75,598.26,590.38,582.02,576.37,572.07,567.88,563.06,559.62,556.70,553.85,550.76,547.03,544.56,542.71,540.88,538.39,535.42,533.77,532.95,532.25,531.66,530.38,529.03,527.62,525.51,524.39,523.62,523.00,522.51,521.42,518.39,514.04,509.06,504.82,499.92,494.20,488.56,484.91,481.29,476.86,471.85,466.48,460.34,453.12,446.39,440.43,433.84,427.92,421.91,416.31,412.29,408.51,404.58,400.04,394.97,390.91,387.95,385.35,382.84,380.32,377.40,374.30,370.42,364.69,356.79,348.08,338.14,326.08,311.19,301.49,292.87,283.33,272.83,268.17,272.04,279.36,286.96,295.22,303.92,310.79,315.18,317.51,318.42,318.69,318.82,319.21,320.20,322.92,325.67,327.28,327.08,324.79,321.23,316.52,310.38,304.73,300.16,296.15,292.09,287.26,281.55,275.60,269.49,262.90,256.60,250.57,245.47,242.06,238.77,234.89,230.52,225.73,220.91,219.18,218.53,217.88,216.70,215.45,213.87,211.61,208.44,205.01,201.21,196.62,191.37,186.35,181.93,178.69,176.09,173.32,170.21,166.69,163.22,160.15,157.58,155.17,152.13,149.00,147.28,145.50,143.43,140.91,137.56,132.72,129.14,126.45,124.20,121.77,117.73,110.77,102.77,96.41,91.67,89.95,89.41,89.05,88.72,88.41,88.11,87.80,87.50,87.29,87.75,89.23,93.16,102.82,108.48,112.67,116.79,120.51,122.97,125.14,127.40,129.90,132.47,134.92,137.41,140.11,143.22,146.92,151.56,157.04,162.99,168.93,177.08,186.00,194.22,202.58,209.47,216.06,223.04,230.64,237.64,244.65,251.00,255.63,260.87,267.94,274.57,280.11,287.82,294.71,301.86,309.66,317.66,323.65,330.10,337.06,343.86,349.42,353.94,358.16,362.46
509.88,515.02,520.48,526.06,531.76,537.63,543.27,548.88,554.07,559.36,567.39,575.50,581.46,585.61,589.67,593.52,597.20,600.93,605.10,610.46,615.94,621.15,626.08,631.06,636.05,640.41,644.11,647.18,650.14,651.73,652.83,653.70,653.39,652.40,649.22,643.91,637.54,631.51,625.54,619.36,612.98,607.39,601.65,594.82,586.76,578.60,572.69,567.43,562.17,557.03,553.72,550.84,547.91,544.37,539.07,535.68,533.46,531.61,529.25,526.60,524.85,523.57,522.24,521.10,519.66,518.33,517.21,516.01,515.83,515.80,515.64,515.20,514.21,511.75,508.25,504.06,499.85,494.68,489.57,485.12,481.76,478.04,473.69,469.09,464.47,459.13,452.60,446.29,440.36,433.42,426.81,420.34,414.18,408.86,404.17,399.46,394.26,388.82,385.02,382.20,380.00,378.09,375.90,373.57,370.63,366.71,361.12,353.42,344.90,334.34,321.54,308.99,300.22,292.42,283.74,273.89,271.62,276.36,283.61,291.03,299.48,308.40,315.93,321.29,324.12,324.87,324.78,324.63,325.03,326.25,328.64,330.72,331.62,331.09,328.84,325.28,320.72,315.15,308.95,303.96,299.82,295.94,291.60,286.47,280.79,274.66,268.20,261.89,255.05,248.90,245.06,241.87,238.54,234.83,230.90,227.80,226.97,226.79,226.54,225.71,223.48,221.27,218.89,215.91,212.35,208.03,203.21,198.06,192.80,187.71,184.00,181.18,178.34,175.19,171.64,168.09,164.84,162.14,159.51,156.43,153.25,150.87,148.46,146.26,143.98,141.02,136.57,131.56,127.82,125.54,123.19,120.06,113.87,105.76,98.05,92.90,90.50,89.50,89.16,88.85,88.54,88.23,87.93,87.66,87.39,87.43,88.07,90.95,100.70,106.16,110.11,114.19,118.13,121.15,123.52,125.59,127.61,129.70,131.95,134.67,138.10,142.21,146.55,151.41,156.81,162.69,169.01,177.13,186.64,196.69,205.27,211.53,217.19,223.07,229.52,236.41,243.33,249.63,254.57,259.82,267.02,273.72,279.02,286.06,293.14,300.17,307.26,314.56,321.39,327.88,334.56,341.62,347.51,352.21,356.54,360.93
511.02,515.56,520.75,525.99,531.31,536.92,542.50,548.47,554.06,559.79,568.88,576.49,582.08,586.46,591.06,595.60,599.97,604.46,609.36,614.52,620.00,625.15,629.93,634.99,639.52,643.15,646.21,649.12,651.68,653.01,653.85,654.28,653.19,651.80,648.33,642.89,636.83,631.22,625.01,618.01,610.62,604.91,598.71,591.46,583.34,575.51,569.38,563.25,557.12,551.92,548.67,545.87,542.71,538.39,531.86,527.51,524.73,522.65,520.32,517.94,515.87,513.91,511.87,510.11,508.58,507.32,506.43,506.20,506.74,507.27,507.42,506.88,505.95,504.30,501.94,498.68,494.15,489.11,484.85,481.46,478.13,474.16,470.07,466.09,462.17,457.61,451.86,446.07,440.35,433.53,426.33,419.21,412.24,405.50,399.90,394.28,388.38,382.67,379.04,376.38,374.60,373.25,371.38,369.38,366.33,362.21,356.76,349.18,340.63,329.41,316.14,306.29,298.71,291.74,283.89,274.96,274.92,280.18,287.25,294.73,303.26,312.31,320.52,326.99,330.51,331.34,330.99,330.60,331.03,332.40,334.31,335.77,336.17,335.21,332.82,329.07,324.52,319.64,313.25,307.80,303.27,299.28,295.12,290.62,285.27,279.14,272.80,266.74,259.49,252.47,247.84,244.62,241.78,238.84,236.04,234.78,234.70,234.93,235.12,234.80,232.02,229.37,226.80,223.67,219.78,214.94,209.91,204.86,199.44,193.90,189.71,186.51,183.52,180.28,176.71,173.11,169.71,166.74,163.81,160.86,157.83,154.74,151.67,149.18,146.85,144.12,140.43,134.30,129.44,126.77,124.43,122.01,116.85,109.15,100.33,94.64,91.26,89.59,89.28,88.97,88.66,88.36,88.07,87.83,87.53,87.23,87.51,90.14,99.11,104.14,107.86,111.75,115.62,119.23,121.93,123.95,125.76,127.57,129.69,132.69,136.92,141.84,146.78,151.76,156.93,162.69,169.50,178.03,188.29,199.62,208.05,213.67,218.56,223.56,228.84,235.58,242.42,248.66,253.94,259.20,266.36,273.10,278.38,284.81,292.13,299.16,305.62,311.89,319.42,325.94,332.22,339.18,345.27,350.18,354.65,359.20
514.04,517.72,522.10,526.58,531.38,536.87,542.13,547.73,553.21,559.20,568.36,575.40,580.96,585.92,591.18,596.72,601.62,606.20,610.93,616.02,622.07,627.85,633.06,638.19,641.84,644.95,647.97,651.04,653.93,655.15,655.73,655.95,654.79,652.95,649.60,644.55,637.87,632.13,625.16,617.06,608.75,602.65,595.96,588.31,580.01,572.23,566.54,560.14,553.56,548.81,545.90,543.33,539.63,534.18,528.16,523.22,519.29,515.89,512.24,508.87,506.49,504.59,502.65,500.67,498.87,497.68,497.25,497.43,498.21,499.11,499.59,499.01,498.13,496.42,493.94,490.68,487.03,483.85,480.30,476.49,473.15,469.09,465.69,462.61,459.19,455.37,450.44,445.23,439.90,433.80,426.53,418.18,409.59,402.05,395.63,389.44,383.07,376.86,372.66,370.06,368.24,366.75,365.14,362.89,359.43,355.13,350.12,343.78,334.45,323.13,311.44,303.14,296.98,290.63,283.08,275.33,277.52,283.28,290.07,297.57,306.62,316.24,324.58,330.85,334.53,336.22,336.80,337.12,337.80,338.80,340.12,341.12,341.16,339.46,336.25,332.17,327.71,323.07,317.65,311.55,306.07,301.91,297.55,293.20,288.25,282.47,276.01,270.36,263.60,256.38,250.36,246.96,244.53,242.66,241.48,241.27,241.64,242.09,242.39,242.25,241.00,239.25,236.29,231.50,226.21,221.38,216.43,211.16,205.71,200.29,195.52,191.59,188.58,185.45,182.02,178.44,174.78,171.10,167.80,164.79,161.84,158.59,155.43,152.60,149.88,146.92,143.25,137.69,132.21,127.95,125.51,123.12,119.48,113.62,104.84,97.58,92.40,89.72,89.41,89.10,88.79,88.48,88.19,87.95,87.66,87.34,87.40,89.53,98.28,102.99,106.23,109.63,113.30,117.28,120.45,122.83,124.72,126.62,128.75,132.02,136.77,141.72,146.75,151.73,156.79,162.50,169.68,179.61,190.46,200.30,208.76,214.24,219.09,224.24,229.47,236.21,243.24,249.77,255.22,260.50,267.17,273.50,278.75,285.03,292.33,299.31,305.56,311.36,318.64,325.10,331.09,337.28,343.16,348.08,352.57,357.25
517.95,520.04,524.01,528.70,533.70,538.79,543.10,547.53,552.37,558.23,566.36,573.51,579.76,585.45,591.00,597.05,602.19,606.76,611.35,616.68,623.36,629.64,635.04,640.14,643.65,646.67,649.73,653.04,656.14,657.45,657.84,657.61,656.06,653.89,650.89,646.54,639.89,633.95,626.04,616.50,606.73,600.15,593.14,585.41,577.40,570.32,564.66,557.90,551.03,546.46,543.49,539.87,534.93,528.81,523.17,517.91,513.15,508.72,504.20,500.23,497.62,495.77,494.05,492.16,489.96,488.11,487.11,487.43,487.81,488.54,489.23,489.05,488.09,486.66,484.69,482.08,479.34,476.58,473.16,469.40,466.47,463.57,461.29,459.04,456.13,452.80,448.40,443.50,438.32,432.63,425.23,416.42,407.32,399.47,392.56,386.29,379.75,372.92,367.75,364.37,361.60,359.05,356.86,354.61,351.81,348.30,343.65,336.93,327.32,316.85,307.14,300.27,295.10,288.87,281.56,275.74,279.54,285.80,292.55,300.11,309.92,319.45,327.47,333.70,338.30,341.58,343.41,344.39,345.11,345.90,347.24,348.24,347.91,345.03,340.68,335.73,330.65,325.80,321.01,314.87,308.81,303.93,299.27,295.02,290.40,284.94,278.39,272.63,266.44,259.85,253.75,250.39,248.56,247.53,247.17,247.43,247.79,248.11,248.29,248.19,247.56,246.28,243.50,238.66,233.47,227.90,222.46,217.19,211.77,206.33,201.18,196.69,193.27,190.16,186.73,183.12,179.44,175.81,172.24,168.85,165.58,162.24,159.00,155.90,152.88,149.71,145.85,140.85,135.12,129.67,126.71,124.17,121.34,116.74,108.85,101.28,94.77,90.70,89.59,89.22,88.91,88.62,88.35,88.09,87.81,87.51,87.38,88.59,94.64,100.11,104.21,107.34,110.88,115.09,118.88,121.82,123.78,125.86,128.13,131.50,136.36,141.31,146.20,151.12,156.24,162.04,169.13,179.87,191.03,199.69,208.23,213.96,218.95,224.24,230.07,237.24,244.56,251.27,256.75,262.20,268.31,274.06,279.23,285.62,292.89,299.73,305.80,311.42,318.24,324.47,330.27,336.07,341.63,346.24,350.68,355.70
522.36,522.42,526.12,531.64,537.43,542.12,545.32,548.34,552.29,557.72,564.18,571.69,578.94,585.42,590.96,597.02,602.17,606.65,611.17,616.86,624.12,630.77,636.21,641.23,645.11,648.37,651.57,655.14,658.22,659.63,659.90,659.13,657.11,654.70,652.08,648.52,642.40,636.25,627.38,616.31,604.77,597.62,590.37,582.82,575.56,569.61,563.63,556.36,549.21,544.55,540.92,535.57,529.24,522.84,517.37,512.01,506.81,501.76,496.81,492.53,489.62,487.64,486.09,484.28,481.44,478.44,476.27,476.47,476.09,476.35,477.13,477.56,476.55,475.64,474.55,472.96,471.09,467.96,464.48,461.30,459.12,458.06,457.02,455.45,452.94,449.80,445.67,440.93,435.76,430.19,422.71,414.05,405.23,397.43,390.37,384.28,377.76,370.34,364.11,359.44,355.13,350.99,347.75,345.67,344.04,341.69,337.01,329.01,319.69,310.76,303.19,297.61,292.94,286.60,279.70,276.30,281.15,287.84,294.76,302.47,313.05,322.06,329.53,335.95,341.92,347.18,350.40,352.01,352.64,353.34,355.07,356.32,355.64,351.50,345.77,339.53,333.41,328.09,323.57,317.80,311.50,305.59,300.56,296.32,291.95,286.78,280.22,274.06,268.34,262.84,257.69,254.68,253.55,253.10,252.93,253.20,253.28,253.24,253.16,252.96,252.27,251.10,248.82,244.99,240.81,234.31,228.12,222.91,217.64,212.22,206.86,201.88,197.77,194.53,190.99,187.30,183.74,180.56,176.87,173.00,169.20,165.76,162.41,159.08,155.81,152.45,148.30,143.72,138.00,131.86,128.06,125.29,122.69,118.90,112.46,105.54,98.20,92.54,89.83,89.36,89.05,88.78,88.53,88.23,87.99,87.69,87.39,87.54,89.72,96.18,101.71,104.90,108.36,112.57,116.93,120.63,122.85,125.18,127.60,130.91,135.53,140.52,145.15,149.96,155.23,161.20,168.03,179.03,190.25,198.20,206.78,213.00,218.25,223.66,230.44,238.33,245.97,252.69,258.14,263.85,269.42,274.58,279.64,286.26,293.44,300.10,306.10,311.79,318.03,323.93,329.63,335.32,340.53,344.68,348.98,354.34
526.52,524.84,527.41,533.51,540.62,545.98,549.63,552.79,556.55,561.29,566.41,573.09,580.44,587.43,592.72,597.98,602.70,607.07,611.56,617.23,624.48,631.34,637.12,642.11,646.27,650.01,653.73,657.52,659.72,660.71,660.88,660.17,658.41,655.85,653.00,649.49,644.17,637.93,628.76,616.87,603.84,595.94,588.19,581.13,575.31,570.45,563.90,555.63,547.69,542.44,536.19,530.40,524.49,518.22,512.61,507.36,502.51,497.92,493.22,488.55,484.69,481.79,479.65,476.70,472.31,468.22,465.53,464.80,464.19,464.25,464.85,465.49,465.06,464.56,463.90,462.87,461.56,459.38,457.20,455.43,454.40,454.15,453.59,452.08,449.14,445.42,441.27,436.79,431.84,426.02,419.07,410.95,402.54,395.10,388.42,382.34,375.78,368.45,362.10,356.41,350.69,345.27,341.60,339.50,337.88,334.79,328.36,320.34,312.56,305.58,299.70,295.02,289.81,283.81,278.58,277.55,282.57,289.26,296.62,305.05,315.44,323.88,331.29,338.33,345.33,352.12,356.56,358.77,359.33,360.10,361.83,363.03,362.29,358.04,350.58,342.90,336.05,330.35,325.50,320.15,314.05,307.49,302.05,297.38,292.94,288.11,281.95,275.59,269.85,264.96,261.33,259.57,258.87,258.47,258.16,258.07,257.83,257.52,257.13,256.54,255.76,254.47,252.33,249.04,245.14,239.67,233.63,227.80,223.06,218.70,213.35,207.62,202.72,198.83,195.04,191.18,187.41,184.19,180.76,177.03,173.13,169.32,165.72,162.12,158.56,154.94,150.57,145.85,140.39,134.55,129.90,126.84,124.18,120.95,116.20,110.08,103.16,96.02,90.19,89.53,89.23,88.96,88.72,88.46,88.19,87.82,87.41,87.31,88.68,93.15,98.09,102.27,105.53,108.96,113.29,117.93,121.79,124.34,126.71,129.56,133.40,138.52,143.13,147.87,153.12,159.27,166.47,177.09,187.99,196.28,204.49,211.13,216.81,222.43,229.76,238.52,246.10,252.41,258.18,263.93,269.29,274.33,279.45,285.94,292.74,299.38,305.76,311.83,317.68,323.34,328.98,334.63,339.83,343.77,347.54,352.40
530.44,527.40,528.52,534.47,542.22,548.12,552.57,556.64,561.00,565.78,570.51,576.53,583.42,590.23,595.42,600.00,604.46,608.89,613.38,618.60,625.02,631.64,637.81,642.92,647.39,651.52,655.55,659.26,660.80,661.54,661.61,660.84,659.36,656.63,653.47,649.91,645.31,639.28,630.01,617.79,604.12,595.43,587.40,580.65,575.60,571.31,564.35,555.47,547.14,541.83,534.76,529.36,524.17,517.98,511.11,505.24,500.46,496.23,491.53,486.56,481.65,477.29,473.73,469.75,464.47,459.70,456.51,455.23,454.58,454.47,454.74,455.20,455.14,454.73,454.13,453.32,452.28,451.01,450.02,449.47,449.29,449.35,448.87,447.24,443.92,439.77,435.83,431.81,427.21,421.25,414.43,406.83,399.09,392.15,385.97,379.82,373.25,366.22,359.73,353.29,346.75,340.69,336.65,334.03,331.40,327.20,320.19,312.77,306.38,300.97,296.43,292.26,286.49,281.25,278.02,278.89,284.27,291.32,299.13,307.75,317.46,325.08,332.55,340.51,348.57,356.85,362.38,365.29,366.31,367.25,368.50,369.08,367.98,363.89,355.26,346.47,338.85,332.50,327.18,322.15,316.38,309.57,303.68,298.53,293.94,289.38,283.67,277.49,271.96,267.75,265.59,264.92,264.59,264.28,263.96,263.69,263.29,262.84,262.24,261.21,259.92,257.96,255.49,252.53,248.78,244.22,238.65,232.65,227.84,224.01,219.13,213.51,208.16,203.54,199.54,195.51,191.26,187.40,184.08,180.58,176.72,172.64,168.79,165.03,161.28,157.39,152.86,148.03,142.95,137.72,132.69,128.86,125.82,122.96,119.48,114.55,108.34,100.65,92.83,90.15,89.43,89.17,88.92,88.68,88.36,87.94,87.48,87.27,88.27,90.75,94.55,99.06,102.67,105.73,109.70,114.71,120.09,123.17,125.61,128.09,131.23,136.06,140.64,145.39,150.69,157.17,164.70,174.66,185.06,193.95,201.96,209.01,215.06,220.85,228.66,237.94,245.34,251.23,257.18,263.03,268.33,273.33,278.49,284.77,291.32,297.93,304.51,310.93,316.57,322.04,327.66,333.48,338.79,342.81,346.40,350.79
534.11,530.21,529.69,534.50,541.73,547.72,553.07,558.71,564.57,570.46,576.09,581.91,587.79,593.60,598.98,603.24,607.78,612.49,617.01,621.29,625.93,631.73,638.29,643.65,648.48,652.84,656.78,659.98,661.38,662.27,662.26,661.11,659.75,656.84,653.40,649.79,645.71,640.26,631.10,619.07,605.93,596.42,588.44,581.74,576.39,571.91,564.85,556.05,548.02,543.49,538.52,534.36,529.89,523.66,514.25,506.75,501.42,497.13,491.87,486.80,480.88,474.55,468.62,464.00,458.94,454.03,450.24,449.02,448.31,447.93,447.71,447.51,447.32,446.59,445.66,444.74,443.66,442.88,442.63,442.76,442.93,442.82,442.06,440.23,436.84,432.68,429.32,425.95,421.77,415.92,408.60,401.39,394.66,388.36,382.64,376.38,369.84,363.25,356.45,349.64,343.09,337.17,332.67,328.90,324.19,318.81,313.23,306.98,301.42,296.93,293.31,289.18,283.19,279.25,278.19,280.37,286.59,294.48,302.62,310.58,319.11,325.69,333.27,342.39,351.61,361.43,367.89,371.60,373.75,374.98,375.15,374.39,372.47,368.62,359.69,350.31,341.90,334.53,328.64,323.74,318.40,311.87,305.45,299.87,295.11,290.68,285.42,279.88,275.05,271.77,270.93,270.95,270.97,270.92,270.84,270.66,270.28,269.83,269.13,267.69,265.39,262.03,258.65,255.76,252.14,247.86,243.01,237.62,231.90,227.59,223.70,219.40,214.13,208.82,204.72,200.54,195.58,190.40,186.83,183.49,179.78,175.61,171.55,167.78,164.00,159.86,155.24,150.47,145.88,141.45,136.72,131.54,127.73,124.90,122.04,118.78,113.45,106.53,98.66,91.61,89.75,89.39,89.11,88.86,88.50,88.07,87.60,87.32,87.86,89.09,91.47,95.19,99.83,103.26,106.62,111.10,117.44,121.56,124.29,126.63,129.32,133.22,137.74,142.60,148.08,155.03,162.73,171.75,181.48,191.08,199.28,206.71,213.02,218.94,227.14,236.43,243.57,249.16,255.01,261.10,266.46,271.46,276.61,282.61,289.17,295.66,302.08,308.70,314.39,319.71,325.33,331.56,337.11,341.60,345.56,349.74
537.93,533.87,533.12,536.41,541.92,547.66,553.14,559.10,565.49,572.10,578.13,583.60,589.18,595.06,600.98,605.44,610.00,614.71,619.22,623.19,627.29,632.55,638.78,644.29,649.28,653.58,657.30,660.28,661.80,662.89,662.90,661.56,660.18,657.13,653.44,649.61,645.69,641.07,632.57,621.16,608.62,598.46,590.66,584.49,579.39,574.16,566.95,558.88,551.70,547.32,543.30,539.72,535.85,530.75,523.19,514.88,508.18,502.88,497.13,491.82,486.07,479.26,471.49,465.79,460.61,455.34,450.42,447.43,444.05,441.74,440.20,438.61,437.77,437.08,436.43,435.80,435.10,434.68,434.54,434.56,434.56,434.34,433.68,432.36,430.04,426.98,423.62,419.46,414.27,408.49,402.06,395.69,389.51,383.42,377.37,371.24,364.98,358.64,352.63,346.76,340.02,333.05,328.07,323.52,318.57,313.19,307.50,301.83,296.92,292.76,289.11,285.15,281.19,279.48,280.44,284.53,292.13,299.14,305.93,313.35,321.13,327.95,335.54,344.54,354.79,365.56,372.75,376.86,378.96,379.95,379.56,377.85,374.82,370.52,361.73,352.51,344.29,337.21,330.10,324.86,319.90,313.88,307.28,301.43,296.50,292.11,287.25,282.55,279.38,278.10,278.94,279.88,280.51,280.81,280.53,279.22,277.95,277.09,276.29,274.73,272.01,267.97,263.55,259.40,255.21,251.10,246.77,242.06,236.94,232.22,227.99,223.78,218.98,213.38,209.50,205.69,200.94,195.71,190.67,186.52,182.72,178.02,173.86,170.25,166.61,162.53,158.31,153.74,149.43,145.48,141.40,136.83,131.37,126.47,123.96,121.46,117.81,112.36,104.96,97.07,91.81,89.61,89.33,89.01,88.60,88.15,87.68,87.33,87.50,88.38,90.06,92.88,97.30,100.85,104.15,108.08,113.59,119.54,122.94,125.28,127.73,130.78,135.04,140.08,145.70,152.19,160.63,168.62,177.26,187.53,196.19,203.87,210.58,216.94,224.88,234.09,241.29,246.82,252.30,258.56,264.23,269.46,274.55,279.91,286.18,292.56,298.90,305.43,311.43,316.68,322.00,328.13,334.25,339.47,343.81,347.73
542.05,537.97,537.37,539.38,543.18,548.35,553.51,559.09,565.29,572.06,578.55,583.91,589.50,595.67,602.01,606.85,611.46,616.15,620.79,624.88,628.99,633.84,639.49,645.08,650.05,654.18,657.66,660.48,662.17,663.50,663.60,662.14,660.67,657.58,653.75,649.73,645.81,641.69,633.97,623.40,611.38,600.86,593.24,587.53,582.76,577.08,569.90,562.65,556.37,552.06,548.50,545.33,541.96,537.91,532.66,523.95,516.03,509.71,503.68,498.01,492.56,485.94,477.39,470.49,464.83,459.15,453.38,448.64,442.94,438.63,435.39,432.04,429.99,428.81,428.11,427.67,427.29,427.10,426.93,426.71,426.47,426.20,425.66,424.81,423.46,421.26,417.73,412.69,406.54,400.98,395.57,389.96,384.20,378.33,371.95,365.98,360.05,354.09,349.00,343.81,336.80,328.90,323.50,318.37,313.62,308.56,302.68,297.82,293.80,290.02,286.30,282.84,280.94,281.22,283.88,289.62,297.91,303.81,309.38,316.45,323.73,330.91,338.44,347.10,358.28,369.44,376.96,381.24,383.13,383.81,383.02,380.68,376.74,371.70,363.09,354.16,346.27,339.73,331.44,325.80,321.16,315.66,309.09,303.13,298.06,293.66,289.27,285.51,284.04,284.68,286.89,288.63,289.79,290.34,289.89,287.68,285.61,284.14,282.98,281.28,278.39,274.08,268.83,263.13,258.04,254.03,250.20,246.18,241.97,237.09,232.36,227.91,223.44,217.78,214.04,210.58,206.32,201.41,194.94,189.84,185.75,180.44,176.10,172.61,169.22,165.44,161.86,157.73,153.73,150.06,146.47,142.76,135.87,128.75,125.83,123.65,121.45,117.59,111.22,103.56,95.44,90.82,89.55,89.16,88.71,88.26,87.81,87.40,87.25,87.94,89.15,91.11,94.71,98.24,101.73,105.36,109.80,116.94,121.24,123.95,126.28,128.69,132.53,137.69,143.56,149.62,158.75,165.93,173.49,183.95,193.05,200.86,208.03,215.05,222.79,231.58,238.79,244.44,249.57,255.80,261.77,267.26,272.29,277.04,282.75,288.92,295.25,301.57,307.81,313.09,318.15,323.92,330.45,336.43,341.38,345.44
547.00,542.68,542.19,544.02,547.14,551.04,555.16,559.38,563.97,569.52,576.98,583.19,589.15,595.27,601.39,606.67,611.51,616.42,621.67,626.67,631.33,635.94,640.84,646.41,650.99,654.85,658.13,660.73,662.56,664.22,664.52,662.97,661.30,658.42,654.80,650.82,646.73,641.82,634.84,625.36,613.59,603.51,595.89,590.00,585.29,580.67,574.09,567.36,561.60,557.69,554.12,551.43,548.37,544.07,538.66,530.09,522.11,515.66,509.89,503.63,497.82,492.10,485.65,477.56,470.62,464.58,459.25,454.44,449.81,444.85,439.45,433.75,429.21,425.64,423.30,422.35,421.73,421.53,421.42,421.27,420.99,420.84,420.20,419.06,417.27,414.31,410.58,405.66,399.88,395.04,389.90,384.45,378.98,373.75,367.80,361.84,356.24,351.19,346.45,339.97,332.52,325.18,319.55,314.12,309.34,304.57,299.59,296.85,294.55,291.80,288.73,286.63,284.99,285.69,289.10,295.26,301.58,307.25,313.38,320.66,327.76,334.62,341.93,350.75,362.61,372.97,379.72,383.81,386.09,386.63,385.58,383.18,379.19,373.13,364.50,355.54,347.54,341.16,332.43,326.62,322.11,316.96,310.77,305.04,299.92,295.47,291.86,289.08,288.66,290.04,292.29,294.20,295.35,295.89,295.73,294.46,292.59,290.35,288.00,285.81,283.05,279.13,273.73,266.82,260.33,256.34,253.11,249.80,246.09,241.78,237.25,232.62,227.72,222.32,218.20,214.59,210.85,206.34,199.56,193.88,189.20,183.40,178.49,174.88,171.83,168.87,166.34,163.23,159.79,156.12,152.18,148.33,141.50,133.58,128.13,125.65,123.55,120.95,116.90,109.70,102.33,95.14,89.74,89.35,88.94,88.54,88.12,87.67,87.30,87.53,88.32,89.67,91.70,95.00,98.93,103.04,107.28,112.88,118.43,122.59,124.96,127.32,130.40,135.44,141.95,148.60,157.68,164.75,171.72,180.93,190.09,197.86,205.50,213.59,221.94,229.29,236.08,242.17,247.23,252.91,258.90,264.57,269.56,274.07,278.64,284.31,290.77,296.78,302.85,308.42,313.57,318.67,324.78,331.37,337.67,343.16
553.13,548.48,547.77,549.60,552.64,556.07,559.64,563.00,566.32,570.30,576.62,582.81,588.77,594.52,599.93,605.33,610.62,616.15,622.18,628.29,633.22,637.74,642.39,647.52,651.70,655.40,658.74,661.43,663.31,664.97,665.22,663.61,661.90,659.56,656.47,652.53,647.41,641.95,635.47,626.98,616.13,606.84,598.85,592.37,587.44,583.36,578.07,572.03,566.46,562.70,559.09,556.01,552.54,547.99,542.42,534.39,526.76,520.41,515.05,508.96,502.62,496.57,490.80,483.27,476.17,469.79,464.23,459.49,455.14,450.21,444.51,438.25,432.63,427.57,423.09,419.50,417.32,416.35,415.65,414.90,414.14,413.81,413.19,412.05,410.14,407.19,403.20,398.50,393.54,389.25,384.38,379.47,374.63,369.72,364.11,358.08,352.56,348.06,343.57,335.53,327.78,321.55,316.23,311.26,307.61,304.61,301.80,300.52,299.26,297.20,294.37,292.00,289.77,290.15,293.52,299.61,305.42,311.64,318.31,325.34,332.13,338.61,345.83,354.81,366.60,375.82,382.54,387.12,389.36,389.70,388.26,385.54,381.37,375.13,367.34,358.66,350.18,343.11,334.38,328.03,323.12,318.24,312.35,306.91,302.07,298.01,295.27,294.01,294.57,296.25,298.39,300.56,301.74,302.28,302.21,301.14,299.20,296.56,293.57,290.52,287.23,283.05,277.61,270.89,264.72,259.75,256.02,253.12,249.85,246.09,241.97,237.61,232.98,227.74,223.14,218.98,214.98,210.56,204.05,197.68,191.81,185.88,181.17,178.15,175.82,173.49,171.37,168.68,165.66,162.19,157.75,153.51,147.45,140.16,133.25,128.43,125.64,123.48,120.65,115.44,108.82,101.10,94.04,91.08,89.59,88.91,88.47,88.01,87.55,87.40,87.70,88.48,89.69,91.97,95.44,99.70,104.36,109.11,115.36,120.63,123.59,125.98,128.58,133.25,139.86,147.25,155.78,162.94,170.11,178.84,187.65,195.34,203.22,211.77,220.26,226.82,233.08,239.14,244.47,249.68,255.35,260.96,266.07,270.58,274.78,279.81,285.73,291.85,297.71,303.05,308.24,313.74,319.64,326.38,333.49,340.26
559.84,554.99,553.81,555.61,558.88,562.37,565.72,568.54,570.86,573.23,577.44,582.90,588.48,593.69,598.34,603.62,609.38,615.66,622.57,629.72,634.76,639.26,643.89,648.43,652.27,655.94,659.47,662.50,664.35,665.75,665.80,664.12,662.47,660.74,658.33,654.46,647.97,642.25,636.20,628.63,619.00,610.50,601.87,594.61,589.33,585.39,581.49,576.27,570.86,567.06,563.33,559.43,555.16,550.30,544.61,537.30,530.18,524.04,519.15,513.62,506.81,499.93,493.98,487.81,481.21,474.60,468.50,463.75,459.31,454.73,449.67,443.84,438.11,432.33,425.85,418.98,414.54,412.01,410.09,408.31,406.82,406.16,405.53,404.45,402.56,399.90,395.68,391.28,387.29,383.43,378.89,374.67,370.57,365.80,360.44,354.39,348.90,344.58,339.82,330.62,323.01,318.22,313.89,310.11,308.24,307.59,307.28,306.92,306.12,304.37,301.49,297.98,294.69,294.31,297.20,303.12,309.35,316.39,323.46,330.03,336.47,342.68,349.90,358.94,370.10,378.37,385.43,390.74,392.79,392.95,391.06,387.82,383.29,377.22,370.62,362.46,353.49,345.31,336.81,329.78,324.18,319.51,313.88,308.76,304.40,301.05,299.36,299.89,301.39,303.24,305.28,307.66,308.82,309.23,309.01,307.69,305.45,302.58,299.21,295.31,291.23,286.42,280.92,275.06,270.05,264.07,259.47,256.56,253.44,250.11,246.44,242.59,238.55,233.48,228.41,223.51,218.80,214.21,208.27,201.32,194.21,188.37,184.34,182.17,180.61,178.71,176.59,173.90,171.12,167.94,163.18,158.50,153.34,147.25,139.81,132.22,128.08,125.52,123.19,120.43,114.79,107.91,100.73,94.26,90.90,89.48,88.85,88.39,87.92,87.50,87.31,87.55,88.36,89.40,91.89,95.91,101.16,105.63,112.12,118.21,122.19,124.64,127.00,131.09,137.32,145.55,153.38,160.74,168.48,177.22,185.54,193.18,201.13,209.66,217.97,224.22,229.90,235.60,241.30,246.21,251.39,256.76,262.03,266.69,270.92,275.25,280.28,286.76,292.55,297.54,302.78,309.09,315.07,321.68,329.15,336.90
566.19,562.10,560.03,561.23,564.60,568.68,571.97,574.37,576.09,577.67,580.78,584.42,588.76,593.55,598.29,603.27,608.96,615.62,623.33,630.66,635.85,640.27,644.61,649.00,652.82,656.66,660.56,664.07,665.76,666.64,666.31,664.62,662.95,661.38,659.42,655.84,648.61,643.36,638.07,631.38,622.63,613.91,604.32,596.42,591.02,586.71,582.85,578.50,574.00,570.01,565.76,561.27,556.29,550.75,545.08,538.25,531.46,525.47,520.88,515.60,509.19,502.42,496.09,490.50,484.40,478.01,471.73,466.36,462.12,457.73,452.83,447.48,442.46,437.19,430.83,423.31,416.65,410.84,406.45,403.32,401.01,400.01,399.00,397.55,395.42,392.34,388.14,384.13,380.70,377.14,373.17,369.38,365.56,361.02,355.61,350.11,345.02,339.97,332.70,324.95,319.33,316.24,314.69,313.68,313.61,314.07,314.48,314.01,312.71,310.51,307.22,302.78,298.49,297.09,299.41,305.99,313.13,320.29,327.13,333.52,339.84,346.33,353.65,362.21,372.17,381.18,388.50,393.75,396.16,396.41,394.15,390.17,384.74,378.25,372.11,364.84,356.36,347.29,339.03,331.54,325.38,320.73,315.48,310.64,306.84,304.54,304.60,306.70,309.22,311.72,314.12,316.16,316.88,316.59,315.47,313.81,311.04,307.54,303.70,299.87,295.58,290.24,284.30,278.51,274.32,269.88,265.53,261.38,257.18,253.69,250.25,246.69,242.88,238.37,233.17,227.65,222.12,216.95,211.47,204.91,197.90,192.25,189.15,187.22,185.52,183.56,181.20,178.16,175.14,172.15,168.36,163.55,158.02,152.03,145.64,138.84,132.17,127.38,125.06,122.78,119.42,114.43,107.91,100.39,94.38,90.89,89.23,88.76,88.30,87.84,87.44,87.25,87.61,88.43,89.91,92.71,97.71,102.70,108.77,115.17,120.70,123.31,125.77,128.92,134.01,143.01,150.80,158.34,166.41,175.31,183.66,191.48,199.25,207.17,215.04,221.40,226.66,231.65,237.15,242.48,247.28,252.11,257.28,262.36,266.45,270.03,274.30,281.23,287.69,293.23,298.66,304.88,311.86,318.12,325.20,332.99
571.64,568.51,565.98,566.70,570.13,574.83,578.02,580.31,581.92,583.20,585.26,587.46,590.58,594.65,599.26,603.88,609.41,616.25,624.35,631.51,636.72,641.10,645.24,649.51,653.46,657.48,661.62,665.45,667.22,667.51,666.73,665.07,663.32,661.77,659.67,655.83,648.58,643.72,639.03,633.21,625.41,616.34,606.40,598.11,592.21,587.51,583.51,579.51,575.43,571.34,566.62,561.61,556.11,550.13,544.55,538.06,531.73,526.17,521.83,516.62,510.51,503.97,497.56,492.02,486.51,480.75,474.72,468.77,464.48,460.03,455.09,449.98,445.27,440.28,434.28,427.08,420.07,413.53,407.70,402.80,399.28,397.20,395.10,392.68,389.80,386.10,381.58,377.44,374.04,370.72,366.92,363.28,359.71,355.64,350.40,345.19,340.21,334.98,328.04,323.10,319.71,317.81,318.04,319.57,320.88,321.78,322.13,321.26,319.33,316.61,312.95,308.03,302.86,299.95,301.06,308.26,316.08,323.32,329.94,336.14,342.58,349.20,356.45,364.55,373.69,383.50,390.95,395.99,398.69,399.05,396.38,391.81,385.81,379.02,373.08,366.25,358.06,348.71,340.68,333.03,326.61,321.99,317.21,312.79,309.73,308.65,310.18,313.40,316.79,319.87,322.41,324.14,324.62,324.01,322.42,320.27,316.66,312.36,307.95,303.93,299.67,294.30,288.27,282.37,278.10,274.51,270.61,266.13,261.43,257.42,253.87,250.42,246.64,242.43,237.31,231.42,225.07,219.25,214.18,208.47,202.31,197.21,194.48,192.46,190.51,188.38,185.86,182.55,179.09,175.79,172.59,168.09,162.42,156.34,150.66,144.93,137.18,130.58,126.94,124.69,122.67,119.36,114.32,107.37,99.73,93.95,90.44,89.22,88.68,88.21,87.71,87.27,87.23,87.78,88.62,90.39,94.29,99.57,105.38,111.88,118.38,121.84,124.56,127.20,131.38,139.97,147.82,155.46,163.64,172.65,180.87,188.87,196.66,204.25,211.70,218.08,223.17,227.70,232.69,238.19,242.97,247.48,252.09,256.83,261.49,265.30,269.27,276.08,283.29,289.64,295.41,301.48,309.50,315.60,322.08,329.34
576.10,573.97,571.57,572.12,575.57,580.75,583.74,586.19,588.19,589.61,590.62,592.02,594.15,597.13,601.24,605.47,610.81,617.58,625.57,632.29,637.40,641.78,645.88,650.02,654.20,658.40,662.63,666.56,668.63,668.28,666.94,665.33,663.46,661.79,658.87,654.15,647.68,642.99,638.65,633.63,626.86,617.55,608.05,599.62,592.81,587.76,583.58,579.30,574.98,570.86,565.81,560.38,554.58,548.53,543.08,536.90,531.21,526.40,522.25,516.98,510.97,504.71,498.55,492.57,487.67,482.88,477.53,471.22,466.51,461.70,456.56,451.42,446.38,441.19,435.49,429.38,424.21,420.08,414.37,407.50,402.44,398.46,394.54,390.55,386.48,382.03,376.85,371.98,367.96,364.69,360.47,356.62,353.29,349.92,345.24,340.12,335.07,330.56,327.41,326.16,324.83,323.42,323.86,327.26,329.46,330.20,329.90,328.46,325.96,322.78,318.90,313.99,308.11,303.20,302.34,309.85,318.00,325.40,331.92,337.88,344.65,351.14,358.07,365.84,374.71,385.08,392.53,397.30,400.13,400.53,397.48,392.54,386.41,379.61,373.67,366.69,358.41,349.44,341.65,334.20,327.89,323.34,319.11,315.26,313.19,313.44,316.01,319.84,323.82,327.26,329.63,331.22,331.77,331.40,329.96,327.21,322.53,317.33,312.21,307.51,303.42,298.60,293.01,286.98,281.63,277.69,274.20,270.54,266.25,261.44,257.41,253.81,249.90,245.61,240.76,234.76,227.63,221.19,216.44,211.92,207.33,203.23,200.21,197.85,195.64,193.28,190.72,187.32,183.31,179.19,175.84,172.01,166.63,160.49,154.85,149.94,143.08,135.61,129.30,126.59,124.55,122.42,119.59,114.67,106.97,99.06,92.93,90.00,89.11,88.60,88.10,87.59,87.22,87.28,87.91,89.05,91.09,96.14,101.97,108.40,115.09,120.14,123.30,125.99,129.66,136.45,144.38,152.00,160.05,169.09,176.93,185.01,193.04,200.73,207.88,214.09,219.28,223.73,227.96,233.20,238.37,242.87,246.53,250.15,256.13,261.27,265.56,271.68,279.53,286.79,293.06,299.08,307.92,314.13,319.92,326.16
580.51,578.74,577.18,578.34,581.76,586.07,588.48,590.55,592.40,593.86,594.86,596.10,597.76,600.17,603.94,608.01,612.79,618.72,625.97,632.58,637.84,642.32,646.41,650.53,654.89,659.54,664.26,668.33,669.64,668.22,665.92,663.73,661.78,659.37,655.74,650.98,645.63,641.09,636.94,632.11,625.50,617.16,608.30,599.95,592.77,587.31,582.37,577.80,573.45,569.02,563.66,558.33,552.79,546.99,541.66,536.25,531.43,527.23,523.13,518.13,512.89,507.26,500.94,494.41,489.12,484.39,479.52,473.66,468.30,462.92,457.56,452.49,446.78,440.97,435.57,430.99,427.45,424.67,420.53,415.02,409.67,404.73,399.50,394.45,390.08,385.51,380.32,375.01,369.76,364.42,358.88,354.07,350.24,347.37,344.06,341.36,338.90,336.51,334.76,333.64,331.90,329.76,329.26,332.76,335.23,336.13,335.86,334.33,331.77,328.68,324.99,320.00,313.62,307.36,304.60,310.47,319.06,326.75,333.16,338.80,345.58,351.94,358.68,366.24,374.97,385.00,392.36,397.20,400.01,400.36,397.17,392.13,386.05,379.52,373.74,366.40,357.81,349.58,342.20,335.47,329.72,325.24,321.25,318.26,317.36,318.90,322.63,326.31,329.75,332.79,335.23,337.31,338.20,338.14,337.03,334.38,329.57,323.99,318.18,312.38,307.75,303.45,298.91,293.65,287.39,282.65,278.61,274.74,270.69,266.10,261.42,256.98,252.91,248.14,243.24,237.09,229.54,223.05,218.27,214.62,211.78,209.61,206.90,204.27,201.59,198.69,195.79,192.60,188.98,184.84,180.06,175.47,170.45,165.03,159.52,154.91,149.71,143.59,136.58,129.52,126.55,124.77,122.75,119.63,114.95,107.33,99.33,93.54,90.17,89.08,88.60,88.09,87.60,87.27,87.50,88.23,89.65,93.07,98.32,104.78,111.79,117.62,121.52,124.52,127.60,132.43,140.69,148.17,155.68,164.48,172.44,179.93,187.48,195.19,202.63,209.01,214.07,218.32,222.52,227.43,232.68,237.53,241.63,245.59,251.64,257.69,263.48,270.23,277.49,284.81,291.66,298.09,306.37,312.65,318.25,323.76
584.79,583.64,583.08,584.76,587.89,591.05,592.92,594.60,596.25,597.75,598.90,599.99,601.30,603.25,606.62,610.74,615.05,620.06,626.29,632.69,638.14,642.81,646.96,651.17,655.69,660.81,666.01,669.97,670.42,668.00,664.69,661.63,659.44,656.36,652.22,647.45,642.87,638.41,634.10,629.06,622.53,615.53,607.58,599.60,592.31,586.38,580.81,576.02,571.62,566.81,561.34,556.32,551.24,545.83,540.67,536.15,532.27,528.72,524.88,520.17,515.51,510.38,504.03,497.02,491.06,485.94,481.11,475.51,469.78,464.02,458.57,453.68,447.82,441.70,436.66,433.46,431.13,429.04,426.29,422.46,417.28,411.82,405.87,400.19,395.45,390.68,385.52,380.02,373.96,366.77,359.82,354.02,349.80,347.70,346.01,345.68,345.69,345.13,343.72,341.68,338.88,335.78,334.06,337.38,340.27,341.88,342.31,340.72,337.63,334.20,330.54,325.63,319.05,311.66,306.96,310.81,319.83,327.75,333.96,339.30,345.99,352.27,358.89,366.35,375.03,384.50,391.61,396.41,399.12,399.24,396.23,391.38,385.38,379.17,373.57,365.97,357.12,349.43,342.62,336.70,331.60,327.39,323.88,322.10,322.44,324.93,329.13,332.34,335.23,338.01,340.69,343.26,344.46,344.63,343.74,341.32,336.69,331.00,324.67,317.88,312.39,308.35,304.69,300.29,293.88,288.50,283.67,279.13,275.02,270.66,265.49,260.24,255.66,250.15,245.10,238.95,231.48,225.80,221.61,218.92,217.34,216.19,213.82,211.16,208.15,204.61,201.19,197.92,194.56,190.56,184.88,179.41,174.45,169.59,164.43,159.95,155.93,151.21,144.47,134.48,129.93,127.37,125.25,123.38,121.45,115.34,107.00,98.94,92.83,90.28,89.21,88.62,88.06,87.45,87.25,87.62,88.73,90.53,94.86,101.03,108.22,114.63,119.44,122.93,125.63,128.89,136.38,143.76,151.13,159.39,167.41,174.48,181.55,189.00,196.56,203.07,208.10,212.34,216.76,221.61,227.04,232.43,237.42,242.34,248.39,255.04,262.12,269.61,276.12,283.30,290.62,297.41,304.69,310.99,316.57,321.51
588.76,589.29,589.69,591.17,593.38,595.56,597.17,598.82,600.52,602.12,603.17,603.78,604.58,606.01,608.81,613.36,617.68,622.01,626.98,632.61,638.27,643.25,647.58,652.13,656.83,662.30,667.59,670.83,670.85,667.90,663.72,659.49,656.53,653.44,649.18,644.01,639.02,634.42,629.15,623.28,617.17,611.70,605.24,598.24,591.15,584.69,579.15,574.40,569.76,564.55,559.49,555.01,550.48,545.59,540.77,537.16,534.19,531.49,528.61,523.98,518.97,513.78,508.00,500.79,494.07,487.97,482.18,475.89,470.57,465.18,459.88,455.37,451.02,445.65,441.13,438.61,436.54,434.15,431.34,427.88,423.21,417.71,412.24,406.70,400.86,395.28,389.81,384.59,379.19,372.12,364.10,357.70,353.92,353.47,353.48,353.87,354.20,353.82,351.65,348.21,344.34,340.43,337.53,341.13,345.28,348.80,351.21,349.29,344.16,338.92,334.61,330.25,324.10,315.71,308.96,311.05,320.42,328.29,334.16,339.24,345.82,352.12,358.76,366.25,375.01,384.03,390.46,394.72,397.23,396.81,394.59,390.45,384.54,378.57,373.13,365.65,356.77,348.91,342.96,337.75,333.26,329.88,327.65,327.79,329.43,331.99,334.80,337.19,340.26,343.72,346.86,349.48,350.76,350.88,349.80,347.49,343.26,337.81,331.42,324.13,317.42,312.97,309.44,305.55,300.80,295.51,289.83,284.15,279.33,274.56,269.42,263.88,257.92,251.22,246.00,240.27,233.93,230.88,229.16,227.82,226.09,223.08,220.74,218.59,215.72,211.56,207.28,203.03,198.96,194.98,190.61,184.92,179.17,173.98,169.63,165.15,160.59,155.92,150.73,144.01,136.81,131.14,127.44,125.52,123.59,120.59,115.38,107.29,99.21,93.28,90.04,89.06,88.45,87.83,87.31,87.21,88.00,89.21,92.07,97.01,103.97,110.97,116.95,121.20,124.12,126.95,130.69,138.12,146.59,153.72,161.28,168.85,175.90,182.46,189.28,195.66,201.03,205.79,210.64,216.18,222.24,228.43,234.62,241.07,247.81,254.56,261.54,269.16,275.38,282.45,289.85,296.56,302.68,308.88,314.49,319.11
592.34,593.65,594.77,596.65,598.95,600.98,602.81,604.39,605.84,607.07,607.71,608.24,608.63,609.62,612.82,617.07,620.55,623.81,627.83,633.02,638.83,644.01,648.49,653.34,658.23,663.85,669.10,671.82,671.14,666.98,661.90,657.45,654.15,650.81,646.39,641.09,635.69,630.00,624.19,618.57,613.40,608.57,602.92,596.65,590.05,583.65,578.31,573.65,569.07,564.04,559.33,555.47,551.95,548.31,544.16,540.40,537.24,534.57,531.96,528.09,522.96,517.27,511.33,504.31,497.32,490.24,483.11,476.54,471.42,466.60,462.04,458.29,454.84,450.69,446.86,444.03,441.48,438.41,435.28,432.01,427.90,422.60,417.35,411.90,405.75,399.34,393.38,387.85,382.29,375.54,367.62,362.19,359.82,360.17,360.87,361.34,361.33,360.46,358.14,353.91,349.02,344.28,341.17,344.71,350.30,355.43,358.07,356.14,350.27,343.62,337.82,333.63,328.22,319.99,312.58,313.30,321.41,328.95,335.00,340.30,346.57,352.62,359.12,366.52,375.10,384.01,390.34,394.32,396.26,395.59,393.55,389.64,383.84,378.09,372.79,365.89,357.73,349.97,344.08,339.22,335.35,332.92,332.15,333.86,336.38,339.12,342.19,344.51,346.97,349.73,352.62,355.16,356.76,357.07,355.75,352.86,348.89,344.07,338.38,331.46,323.66,317.88,313.56,309.88,305.93,301.20,295.40,288.94,283.21,278.02,272.45,266.17,259.10,252.10,247.06,242.19,237.37,235.52,234.63,233.64,231.94,228.93,226.73,224.62,221.79,217.73,213.51,208.67,203.96,199.69,195.71,190.51,184.53,178.78,174.29,169.94,165.36,160.70,155.91,150.37,143.13,136.32,130.94,127.77,125.58,123.50,120.15,114.12,105.57,97.91,92.45,89.57,88.83,88.21,87.59,87.19,87.40,88.36,90.17,93.79,99.79,106.83,113.42,118.71,122.59,125.22,127.76,133.47,140.94,148.42,155.26,162.03,168.42,174.44,180.57,186.32,192.39,199.16,206.84,213.77,220.42,226.99,233.60,240.43,247.34,254.09,260.96,268.46,274.60,281.49,288.68,295.11,300.34,305.99,311.28,315.61
595.76,597.60,599.47,601.91,604.49,606.56,608.62,610.06,611.14,611.91,612.19,612.88,613.11,613.87,617.61,621.19,623.54,625.73,629.06,634.03,639.78,644.96,649.50,654.66,659.76,665.39,670.48,672.84,671.33,665.80,659.94,655.64,652.15,648.45,643.94,638.75,633.13,626.19,620.02,614.92,610.66,606.10,600.91,595.24,589.21,583.17,578.07,573.56,569.23,564.72,560.39,557.17,554.67,552.36,548.99,544.81,541.04,537.93,535.09,532.03,526.98,520.82,514.41,507.37,500.33,492.39,483.90,477.27,472.50,468.43,464.85,462.02,459.19,456.23,453.00,449.51,446.22,442.40,438.76,435.40,431.73,426.76,421.61,416.26,410.19,403.08,396.51,390.36,384.36,378.08,371.18,367.52,366.84,367.53,368.27,368.42,367.76,366.17,363.92,359.32,353.62,348.11,345.25,348.43,355.19,361.53,363.71,361.82,355.99,348.48,341.15,336.75,331.87,324.21,316.82,316.30,322.75,330.10,336.61,342.16,348.01,353.72,360.02,367.25,375.55,384.46,390.78,394.55,396.05,395.25,393.04,389.03,383.33,377.79,372.66,366.50,359.30,351.85,345.73,341.02,337.73,336.30,336.91,339.82,343.00,346.13,350.12,352.67,354.26,355.92,358.48,360.85,362.67,363.14,361.55,357.84,353.91,349.73,344.98,338.81,330.35,323.04,317.48,313.61,309.96,305.89,300.38,293.55,286.90,281.25,274.98,267.77,259.88,253.17,248.72,245.08,241.94,240.61,239.65,238.43,236.66,234.22,232.06,229.77,226.93,223.32,219.59,214.32,209.11,204.66,200.84,196.32,190.40,184.14,179.06,174.67,170.18,165.50,160.58,155.19,148.94,142.02,135.28,130.50,127.62,125.33,123.03,119.59,111.87,103.36,95.83,90.59,89.31,88.59,87.96,87.36,86.99,87.77,88.81,91.16,95.77,102.48,109.36,115.69,120.80,123.59,126.11,129.63,135.18,143.05,149.25,154.83,160.37,166.07,171.88,177.34,184.50,193.73,204.56,212.91,220.03,226.75,233.39,240.08,246.80,253.42,260.14,267.40,273.62,280.25,287.01,293.10,297.68,302.60,307.38,311.35
599.22,602.39,605.54,607.99,609.77,611.06,612.38,613.45,614.39,615.24,615.89,616.93,617.91,619.28,622.20,624.92,626.66,628.47,631.61,636.69,641.60,646.08,650.51,655.96,661.38,666.81,671.51,673.67,671.22,665.11,659.01,654.64,650.69,646.72,642.50,637.99,632.86,625.85,619.29,613.75,609.29,605.00,600.23,595.01,589.43,583.80,578.82,574.61,570.82,567.07,563.43,560.64,558.40,556.32,553.60,549.93,545.92,541.88,538.07,534.59,530.04,524.46,517.71,508.98,501.77,493.57,484.30,477.78,474.41,471.52,468.81,466.92,464.61,461.79,458.44,454.65,450.95,446.88,442.49,438.09,434.19,429.68,424.78,419.52,413.62,406.49,399.12,392.24,386.13,380.65,376.41,374.83,375.16,375.86,375.89,375.16,373.81,371.88,369.47,365.14,359.30,353.45,351.00,353.10,359.49,365.94,367.98,365.98,360.83,354.01,346.73,341.21,335.36,327.82,320.60,318.58,324.86,333.16,340.30,345.30,350.60,356.17,362.31,369.28,377.41,386.01,391.63,395.09,397.27,396.35,393.58,389.17,383.41,377.99,373.25,367.66,361.08,354.14,348.23,343.46,340.49,340.05,341.39,344.61,348.38,352.39,356.92,359.54,360.80,362.35,365.50,367.62,368.76,368.70,366.87,362.73,358.25,353.95,349.57,344.13,336.56,328.74,321.81,316.58,312.75,308.82,303.99,297.92,290.60,284.29,277.05,268.98,261.08,255.41,252.74,251.08,249.56,248.56,246.89,244.78,242.23,239.00,236.31,233.78,231.03,227.90,224.79,218.98,213.75,210.24,207.38,202.89,197.19,191.12,185.44,179.86,174.98,170.20,165.10,159.56,153.58,147.15,140.69,135.10,130.16,127.07,124.82,122.19,117.92,109.13,100.29,93.72,90.19,88.98,88.31,87.66,87.16,87.33,88.09,89.50,92.29,98.15,105.03,111.89,117.94,121.92,124.61,127.35,131.14,136.66,143.11,148.40,153.45,159.06,166.05,173.66,182.98,193.58,204.25,212.75,219.90,226.62,233.28,239.73,245.76,251.82,258.25,265.31,271.81,277.97,284.05,289.91,294.36,298.63,302.69,306.04
604.17,607.57,610.70,612.86,614.15,614.86,615.71,616.57,617.49,618.52,619.68,620.99,622.48,624.27,626.57,628.65,630.11,631.88,635.02,639.50,643.54,647.53,651.98,657.48,662.78,667.91,672.35,674.45,671.22,665.25,659.40,654.75,650.06,645.85,641.82,637.70,632.97,626.58,619.91,613.84,608.94,604.90,600.66,595.85,590.55,585.40,580.69,576.70,573.23,570.06,567.03,564.49,562.29,560.26,557.86,554.42,549.93,544.94,540.55,536.48,531.99,526.68,519.74,509.75,502.27,494.48,485.91,479.96,477.48,475.20,472.85,471.33,469.30,466.67,463.34,459.28,455.07,450.67,445.66,440.38,435.86,431.50,426.85,421.90,416.38,409.21,401.34,394.31,388.79,384.74,382.61,382.20,382.72,383.13,382.86,381.67,379.87,377.55,374.60,370.69,365.55,360.22,357.60,359.16,365.09,371.09,372.59,370.44,366.03,360.18,353.42,347.07,340.34,332.49,324.87,321.37,327.69,336.27,343.45,348.25,353.53,359.19,365.28,372.05,379.96,387.85,393.07,396.52,398.91,397.85,394.67,390.11,384.48,378.67,374.09,369.06,363.20,356.79,350.61,346.14,343.91,344.31,346.16,349.66,353.73,357.96,362.20,365.03,367.05,369.20,372.00,373.51,373.77,373.00,370.85,366.72,361.67,356.98,352.56,347.37,340.38,332.87,325.63,319.40,314.95,310.72,306.08,300.54,293.38,286.64,278.75,270.44,263.47,259.76,258.62,258.07,257.21,255.89,253.66,250.92,247.78,244.23,240.98,237.80,234.71,231.81,229.21,223.58,218.39,215.02,212.62,208.53,203.38,197.76,192.00,186.15,180.73,175.33,169.70,163.89,157.81,151.68,145.62,139.79,133.78,129.48,126.47,124.13,121.70,114.31,105.48,97.43,91.85,89.63,88.66,88.00,87.41,87.11,87.58,88.44,90.03,94.09,100.48,107.54,114.33,119.77,123.02,125.60,128.33,132.02,137.83,142.87,148.08,154.29,162.22,171.41,182.16,193.50,203.83,212.32,219.44,226.14,232.78,238.97,244.45,249.70,255.36,262.32,268.89,274.79,280.47,286.11,290.50,294.23,297.41,299.81
610.43,613.01,614.96,616.65,617.84,618.22,618.89,619.70,620.67,621.94,623.64,625.13,626.80,628.70,630.68,632.41,633.85,635.86,639.06,642.30,645.56,649.37,653.95,659.22,663.99,668.74,673.07,675.26,671.50,666.30,661.12,656.05,650.31,645.87,641.89,637.85,633.33,627.99,621.51,614.98,609.60,605.76,602.09,597.64,592.51,587.89,583.60,579.75,576.38,573.57,570.98,568.50,566.21,564.09,561.68,558.08,552.84,546.90,542.39,537.74,532.86,527.43,520.45,509.93,502.13,495.30,488.77,483.88,481.65,479.35,476.85,475.05,473.03,470.71,467.53,463.16,458.35,453.52,448.08,442.19,436.82,432.31,427.88,423.37,418.34,411.05,403.11,396.56,392.33,390.20,389.46,389.30,389.31,389.25,389.08,387.87,385.89,383.19,379.50,376.02,372.25,368.19,364.88,366.45,371.88,376.94,377.56,375.31,371.59,366.76,360.81,354.02,346.64,338.17,329.66,324.72,331.06,339.13,345.88,350.94,356.73,362.66,368.76,375.37,383.07,389.90,395.00,398.69,400.77,399.52,396.15,391.76,386.44,379.89,375.19,370.66,365.59,359.70,353.06,349.30,348.18,349.21,351.39,355.15,359.18,362.94,366.26,369.50,373.11,376.26,377.74,378.26,377.61,376.01,373.41,369.62,364.08,358.82,354.00,348.58,341.76,335.22,328.67,321.98,316.57,311.64,306.70,301.35,295.07,288.17,280.11,272.31,267.19,266.10,265.99,265.60,264.38,262.16,259.59,256.48,253.07,249.78,246.07,241.99,238.15,235.15,232.86,228.13,223.11,219.09,216.49,213.08,208.75,203.78,198.45,193.27,187.30,180.93,174.50,168.26,161.79,155.65,149.91,144.33,138.34,132.63,128.20,125.71,123.26,118.73,111.14,101.57,94.32,90.57,89.01,88.36,87.69,87.11,87.23,87.87,88.95,90.55,95.92,102.79,110.08,116.99,121.30,124.18,126.58,129.29,133.54,138.28,144.21,151.63,160.10,170.06,181.30,192.75,202.94,211.47,218.55,225.23,231.89,237.81,242.91,247.19,251.67,258.42,264.86,270.70,276.27,281.65,285.98,289.25,291.49,292.73
615.52,618.29,620.34,621.96,622.90,622.74,622.65,623.25,624.27,625.64,627.51,629.46,631.26,632.89,634.42,635.99,637.59,639.61,642.33,645.12,648.19,651.98,656.45,660.99,665.33,669.85,674.11,676.48,673.02,668.69,664.16,658.87,651.83,646.91,642.96,639.13,634.74,629.41,623.14,616.94,611.78,607.65,603.89,599.72,595.13,590.97,586.98,583.36,580.16,577.49,574.95,572.47,569.91,567.21,564.36,560.49,554.36,547.30,542.68,537.85,532.79,527.36,520.71,510.68,502.95,496.85,491.96,488.53,486.34,483.77,480.76,477.94,475.55,472.88,469.34,464.61,459.32,454.25,448.67,442.67,437.09,432.44,427.91,423.24,418.00,410.83,403.67,398.24,395.39,394.96,395.03,395.13,395.17,395.05,394.37,393.10,391.30,388.82,385.56,382.29,379.16,375.88,372.31,373.50,377.46,381.07,381.57,379.72,376.39,372.06,366.58,359.55,351.65,342.99,334.23,328.09,333.54,341.22,348.32,354.39,360.47,366.26,372.00,378.43,386.64,392.20,396.51,400.08,402.21,400.60,397.26,393.19,388.37,382.30,377.21,372.36,367.42,362.43,357.88,355.43,354.82,355.85,357.96,361.18,364.69,368.19,371.69,375.75,379.22,381.52,382.14,381.79,380.48,378.09,374.57,370.43,364.65,359.04,353.82,348.32,341.99,335.72,329.42,322.99,317.01,311.49,306.26,301.07,295.31,288.46,281.21,275.33,272.96,272.73,272.64,271.84,269.94,267.03,263.91,260.49,256.95,253.71,250.26,246.40,242.34,238.46,235.64,231.90,228.00,224.33,220.82,217.02,212.92,208.49,203.58,198.54,193.03,186.91,180.10,173.02,166.02,159.56,153.69,148.25,142.48,136.36,130.97,127.33,124.71,121.46,115.27,106.18,97.49,91.84,89.41,88.69,88.04,87.42,87.08,87.33,88.25,89.34,92.81,98.53,105.69,112.83,119.07,122.74,125.08,127.46,130.53,134.91,141.20,149.38,158.45,168.81,179.60,190.34,200.57,209.80,217.07,223.89,230.83,236.50,241.14,244.97,248.65,253.51,259.64,265.46,270.69,275.34,279.72,282.52,284.22,285.15
620.25,623.52,625.96,627.56,628.24,627.74,626.97,627.32,628.37,629.88,631.83,634.01,635.75,637.03,638.21,639.64,641.37,643.34,645.62,648.45,651.67,655.28,659.11,662.75,666.58,670.98,675.31,677.76,675.12,671.68,667.78,662.52,654.64,648.92,644.64,640.88,636.55,631.11,625.04,619.21,614.33,610.05,606.27,602.38,598.26,594.27,590.56,587.16,584.07,581.36,578.72,576.15,573.30,570.00,566.51,561.89,554.90,547.09,542.30,537.49,532.46,527.16,521.07,512.34,505.19,499.65,495.68,493.27,491.00,488.11,484.56,480.63,477.44,474.05,469.86,464.62,459.06,453.88,448.31,442.41,436.96,432.24,427.57,422.69,417.26,410.50,404.57,400.55,399.01,399.72,400.25,400.54,400.63,400.45,399.41,398.12,396.47,394.27,391.56,388.60,385.97,383.34,379.99,380.59,382.99,385.17,385.44,383.88,380.68,376.43,370.96,363.62,355.25,346.57,337.91,331.23,335.93,343.27,350.77,357.84,363.85,369.54,375.05,381.24,389.49,394.06,397.79,401.28,403.55,401.54,398.29,394.44,389.90,384.50,379.50,374.51,369.58,365.22,362.55,361.23,361.08,362.22,364.26,367.07,370.24,373.67,377.49,381.93,384.72,385.92,385.83,384.68,382.75,379.60,375.12,370.25,364.23,358.31,352.76,347.26,341.39,335.19,329.03,323.05,316.68,310.78,305.46,300.47,295.10,288.73,283.17,279.82,279.83,279.98,279.54,278.11,275.45,271.89,268.08,264.16,260.32,256.86,253.74,250.39,246.47,242.05,238.58,235.39,232.33,229.13,225.12,220.27,216.07,212.25,207.95,203.22,198.09,192.28,185.49,177.81,170.27,163.25,156.95,151.63,146.21,140.15,134.16,129.24,126.20,123.52,118.80,111.12,101.17,93.80,90.22,89.02,88.39,87.78,87.12,86.98,87.66,88.67,90.50,94.85,101.36,108.46,115.99,120.74,123.62,125.91,128.25,132.14,138.47,147.19,156.79,167.18,177.38,187.37,197.41,207.17,214.91,222.11,229.29,234.81,239.10,242.67,245.82,248.98,254.25,259.68,264.47,268.38,272.61,275.13,276.62,277.60
624.78,628.75,631.51,633.01,633.54,633.19,632.15,632.27,633.34,635.10,637.13,638.95,640.23,641.17,642.28,643.54,645.20,647.08,649.29,652.85,656.64,659.62,661.83,664.45,667.54,672.05,676.68,678.98,677.83,675.34,672.01,667.20,659.53,652.50,647.14,643.01,638.71,633.38,627.46,621.74,616.96,612.99,609.62,606.10,602.11,597.77,594.35,591.12,587.94,584.95,582.06,579.24,576.14,572.44,568.07,561.77,554.05,546.37,541.27,536.73,532.01,527.10,521.88,515.65,509.97,504.75,500.33,497.85,495.33,492.15,488.15,483.30,478.61,473.95,468.75,462.81,457.29,452.20,446.81,441.22,436.30,431.63,426.91,422.01,416.77,410.89,406.74,404.48,404.05,404.81,405.35,405.63,405.61,405.13,404.38,403.14,401.44,399.29,396.91,394.55,392.48,390.49,388.16,387.90,388.98,389.96,389.47,387.69,384.24,379.45,373.20,365.28,356.53,347.95,339.85,333.92,338.57,345.62,353.25,360.90,366.25,372.09,377.82,383.67,390.65,394.91,398.76,402.48,404.84,402.47,399.28,395.40,390.64,385.68,381.90,377.59,372.68,368.24,365.84,364.99,365.45,367.21,369.40,372.42,375.83,379.49,383.42,387.12,388.99,389.37,388.69,386.82,384.20,380.35,375.03,368.98,362.56,356.36,350.59,345.26,339.62,333.37,327.32,321.81,315.24,309.43,304.37,299.69,294.63,289.57,287.02,286.80,288.04,288.39,287.32,285.04,281.59,277.38,272.66,267.88,263.25,259.09,256.13,253.36,250.14,246.22,242.23,238.65,235.44,232.47,229.12,222.43,217.65,214.58,211.34,207.56,202.16,196.24,190.06,182.53,174.43,166.47,159.35,154.13,149.26,143.81,137.76,131.73,127.84,124.92,121.80,116.50,105.61,97.06,91.86,89.33,88.71,88.09,87.47,87.05,87.13,88.02,89.19,92.14,97.23,104.31,111.35,117.58,122.15,124.52,126.91,130.04,135.92,144.90,154.89,164.73,174.44,183.98,193.29,202.91,211.60,219.59,226.79,232.40,236.59,240.07,243.09,245.69,249.05,253.34,257.56,260.92,264.52,267.15,268.96,270.35
629.25,633.43,636.34,637.90,638.53,638.56,638.20,638.55,639.47,640.76,642.13,643.36,644.40,645.33,646.38,647.94,650.67,653.46,655.58,658.40,661.31,663.51,664.96,666.54,669.33,674.25,679.25,681.20,680.43,678.56,675.61,671.05,664.57,657.22,650.72,645.54,641.53,636.91,631.07,625.13,620.24,616.28,613.06,609.88,606.20,601.52,598.03,594.78,591.37,587.74,584.70,581.82,578.45,574.10,568.59,561.44,553.73,546.60,541.66,537.35,533.19,529.15,525.19,520.62,516.04,511.35,506.86,503.51,500.16,496.28,491.68,486.10,479.71,473.92,467.97,461.51,455.86,450.58,445.32,440.30,436.23,432.05,427.49,422.64,417.66,412.88,410.44,409.48,409.55,410.24,410.70,411.01,411.03,410.42,409.86,408.87,407.30,405.14,402.99,400.67,398.57,396.69,394.80,393.72,393.59,393.48,392.39,390.46,386.83,381.58,374.59,365.96,356.25,347.81,340.99,336.80,341.71,348.56,355.78,362.93,368.53,374.78,380.76,386.31,391.94,395.99,400.38,404.60,406.77,404.46,401.00,396.87,392.15,387.68,384.45,380.97,376.88,372.64,370.69,370.46,371.49,373.61,375.98,378.59,381.59,384.92,388.24,390.72,391.89,391.87,390.69,388.80,385.38,380.42,374.03,367.14,360.55,354.26,348.38,343.04,336.61,330.78,325.67,320.74,314.32,308.95,304.41,300.30,296.26,293.39,292.40,292.78,293.71,293.73,292.50,290.18,286.69,282.18,276.97,271.69,266.67,262.29,258.87,256.13,253.17,249.32,245.20,241.61,238.41,235.48,232.44,227.25,221.66,216.95,213.97,210.49,205.34,199.56,193.54,186.57,177.81,169.13,161.55,156.01,151.23,146.33,140.95,135.06,129.58,126.25,123.58,119.57,110.85,100.81,93.60,89.77,89.00,88.36,87.74,87.21,86.98,87.51,88.42,90.27,93.88,100.57,107.33,113.92,119.39,122.87,125.58,128.53,133.99,142.63,152.98,162.65,171.79,180.59,189.21,198.08,206.83,215.11,222.53,228.65,232.98,236.10,238.53,240.96,243.96,247.86,251.75,254.74,257.59,260.21,262.62,265.11
633.75,637.95,640.91,642.61,643.46,643.89,644.37,645.12,645.92,646.60,647.20,647.89,648.75,649.74,650.84,652.83,656.55,660.16,662.15,663.96,665.80,667.32,668.36,669.16,672.01,677.13,682.13,683.72,682.90,681.38,678.71,674.47,669.34,662.22,654.85,648.52,644.62,640.72,635.17,629.12,623.95,619.87,616.62,613.68,610.33,605.37,601.66,598.26,594.52,590.19,586.96,584.03,580.49,575.58,568.90,561.37,554.11,547.82,543.33,539.36,535.84,532.72,529.86,526.34,522.44,518.24,513.81,509.51,505.23,500.51,495.18,488.89,480.93,474.25,467.92,461.32,455.53,449.97,444.81,440.33,436.98,433.37,429.02,424.21,419.47,415.85,414.94,415.12,415.62,416.33,416.72,417.06,417.16,416.59,416.06,415.29,413.86,411.65,409.57,407.02,404.62,402.55,400.70,398.87,397.56,396.37,394.72,392.60,388.93,383.39,375.79,366.47,355.62,347.33,342.06,340.05,345.28,351.93,358.59,365.07,371.18,377.73,383.80,389.04,393.52,397.62,402.66,407.28,409.13,407.18,403.58,399.21,394.51,390.35,387.33,384.57,381.43,377.72,376.37,376.74,378.21,380.49,382.86,384.87,387.27,390.06,392.45,393.75,394.25,393.82,392.11,390.38,386.14,379.98,372.53,365.07,358.36,352.05,346.15,340.76,333.65,328.53,324.53,320.15,314.21,309.59,305.76,302.38,299.60,298.76,298.56,298.55,298.59,298.07,296.71,294.46,291.09,286.46,280.99,275.44,270.23,265.77,261.87,258.97,256.00,252.10,247.96,244.49,241.32,238.28,235.33,232.34,226.43,219.91,216.22,212.70,207.98,202.44,196.40,189.89,180.61,171.44,163.56,157.58,152.84,148.49,143.89,138.42,131.52,127.64,124.89,121.65,115.89,104.77,95.75,90.62,89.32,88.61,88.00,87.42,87.01,87.10,87.88,88.93,91.21,97.15,103.79,110.40,116.44,121.24,124.35,127.36,132.43,140.49,151.01,160.61,169.25,177.35,185.29,193.21,201.56,209.84,217.53,224.15,228.70,231.47,233.28,235.59,238.72,242.57,246.24,248.92,251.16,254.02,257.32,261.12
638.46,642.65,645.62,647.46,648.57,649.26,649.83,650.93,651.92,652.45,652.99,653.57,654.18,655.05,656.70,658.92,661.73,664.35,666.20,667.97,670.02,671.48,672.25,673.33,676.91,681.09,684.58,686.05,685.06,683.24,680.77,677.38,672.88,666.67,659.58,652.71,647.76,643.86,639.44,634.18,628.41,624.13,620.53,617.48,614.29,609.30,605.28,601.45,597.26,592.50,588.68,585.55,582.20,577.50,569.87,562.55,556.39,551.51,547.90,544.78,541.91,539.14,536.24,532.53,528.34,524.06,519.75,515.25,510.55,505.02,498.69,491.50,482.69,475.86,470.19,464.71,458.92,453.14,448.00,443.65,440.05,436.69,432.44,427.57,422.92,420.31,420.45,421.68,423.20,424.48,424.94,425.24,425.47,425.31,424.34,423.34,421.86,419.56,417.03,414.03,411.08,408.37,405.90,403.50,401.05,398.64,396.33,393.74,390.46,385.23,377.44,367.68,355.81,347.66,343.97,344.41,349.86,356.10,362.45,369.02,375.43,381.47,386.96,391.81,396.06,401.06,406.50,410.87,412.28,411.25,408.46,404.21,398.96,394.47,391.32,388.54,385.79,383.38,383.03,383.76,385.20,387.18,388.92,390.46,392.45,394.66,395.91,396.78,396.52,395.06,392.52,390.62,385.63,378.56,370.43,362.90,355.87,349.61,343.96,338.56,332.58,328.55,325.22,321.25,316.52,313.25,310.53,308.11,306.48,305.99,305.56,304.89,303.95,302.88,300.87,298.00,294.26,289.71,284.32,278.85,273.63,269.02,265.44,262.32,259.01,255.09,250.97,247.46,244.14,240.79,237.48,234.68,230.73,225.10,218.09,214.09,209.68,204.48,198.44,191.39,182.33,173.23,165.08,158.86,154.61,150.81,146.42,140.74,134.06,129.42,126.04,123.14,119.09,108.79,99.32,92.79,89.81,88.86,88.28,87.73,87.23,86.92,87.46,88.39,90.13,94.29,101.11,108.05,114.50,120.05,123.50,126.68,131.48,138.83,148.81,158.22,166.79,174.68,182.00,189.03,196.47,204.31,212.16,218.68,223.39,226.26,227.93,229.74,232.75,236.73,240.38,242.68,245.00,249.32,254.16,259.01
643.11,647.18,650.13,652.25,653.76,654.77,655.60,656.77,657.73,658.22,658.72,658.98,659.20,659.81,661.54,663.73,666.12,668.43,670.53,672.56,674.48,675.69,676.33,677.77,681.92,685.49,687.78,688.73,687.68,685.88,683.53,680.45,676.40,670.81,664.10,657.12,651.37,647.03,643.09,638.58,633.18,628.78,624.89,621.56,618.32,613.74,608.88,604.38,599.95,595.10,590.57,587.00,583.61,579.22,571.93,565.31,560.37,556.91,554.09,551.08,548.30,545.60,542.61,538.67,534.12,529.34,524.59,520.12,515.43,509.58,502.44,493.93,484.75,478.33,473.42,468.76,463.32,457.58,452.26,447.63,443.76,440.39,436.30,431.72,427.66,426.52,427.55,429.14,430.63,431.74,431.88,432.01,432.29,432.42,431.78,430.84,429.25,426.69,423.78,420.11,416.42,413.07,410.19,407.39,404.11,400.69,397.56,394.56,391.42,386.49,379.06,369.86,358.55,350.43,347.00,349.01,354.24,359.81,365.65,372.12,378.70,384.77,390.16,394.86,399.09,404.53,410.29,414.62,415.69,415.07,412.60,408.76,403.88,399.05,395.44,392.47,390.02,388.57,388.90,389.83,391.14,392.83,394.22,395.63,397.25,398.78,399.38,399.60,398.65,396.56,393.55,390.88,384.76,376.80,368.32,360.66,353.65,347.96,343.46,339.69,335.60,332.47,329.26,325.09,320.91,318.26,316.13,314.23,312.89,312.26,311.57,310.56,309.16,307.67,305.18,301.71,297.40,292.76,287.76,282.65,277.61,272.97,269.18,265.70,262.16,258.32,254.24,250.47,246.77,243.06,239.41,236.37,233.08,227.88,219.64,215.06,210.59,205.59,199.76,192.58,183.93,175.10,166.86,160.26,156.18,152.62,148.39,142.83,136.51,131.08,127.09,124.35,121.13,112.47,103.06,95.18,90.54,89.20,88.57,88.01,87.47,86.96,87.08,87.83,89.24,92.05,99.05,106.19,112.95,119.19,122.94,126.18,130.68,137.45,147.01,156.21,164.56,172.18,179.13,185.50,191.98,199.03,206.54,213.11,217.89,220.92,222.69,224.28,226.88,230.73,234.73,238.00,241.52,247.31,253.14,258.35
647.59,651.48,654.41,656.88,658.90,660.27,661.57,662.59,663.33,663.80,664.17,663.97,663.74,664.00,665.46,667.52,670.00,672.67,675.35,677.78,679.26,680.06,680.70,682.45,686.85,690.07,691.60,691.79,690.82,689.25,686.91,683.63,679.89,674.75,668.42,661.57,655.37,650.33,646.23,642.28,637.94,633.51,629.45,625.78,622.32,618.45,612.67,607.40,602.79,598.05,592.83,588.65,584.99,580.93,574.99,569.41,565.68,563.48,561.25,557.81,554.68,551.83,548.73,544.65,539.79,534.33,528.74,524.26,519.81,514.07,506.43,496.47,487.22,481.50,477.30,473.08,468.25,462.71,457.12,451.95,447.82,444.25,440.42,436.51,433.55,434.10,435.74,437.07,437.73,438.10,437.73,437.63,437.88,438.16,438.32,437.62,435.83,432.92,429.75,425.38,420.90,416.87,413.65,410.55,406.76,402.56,398.50,395.19,391.96,387.31,380.62,372.64,363.13,355.07,350.92,353.65,358.25,362.95,368.12,374.27,380.96,387.55,393.27,398.04,402.36,407.85,413.81,418.27,419.18,418.46,415.97,412.74,408.91,403.84,399.60,396.31,394.03,393.20,393.94,395.01,396.25,397.71,399.06,400.55,401.74,402.50,402.82,402.19,400.62,398.22,394.90,391.00,383.54,374.86,366.39,358.64,352.14,347.54,344.84,343.80,341.92,339.51,336.07,331.31,327.01,324.26,322.26,320.55,318.87,317.80,316.82,315.67,314.16,312.35,309.58,305.68,300.72,295.78,291.37,286.75,281.95,277.43,273.06,269.12,265.40,261.67,257.73,253.54,249.28,245.10,241.13,237.59,233.78,228.51,220.94,215.77,211.03,206.13,200.62,193.69,185.60,177.21,169.07,161.99,157.66,154.02,149.97,144.88,138.86,132.68,128.13,125.36,122.31,115.84,106.87,97.76,91.66,89.66,88.84,88.26,87.72,87.19,86.79,87.24,88.44,90.42,97.35,104.57,111.66,118.59,122.58,125.81,130.00,136.28,145.55,154.56,162.58,169.83,176.58,182.51,188.10,194.08,200.77,207.41,212.19,215.38,217.46,219.16,221.31,224.98,229.69,234.89,240.42,247.44,253.70,258.80
651.11,655.25,658.33,660.92,663.15,664.91,666.65,667.77,668.36,668.47,668.33,668.01,667.65,667.76,669.34,671.81,674.69,677.73,680.76,683.44,684.82,685.47,686.10,688.02,691.40,693.95,695.30,695.48,694.82,692.97,690.14,686.52,682.75,678.72,672.72,665.50,659.60,654.25,649.61,645.33,641.10,636.70,632.87,629.32,625.86,622.19,617.71,612.33,606.73,601.77,596.64,591.98,587.84,583.90,578.97,574.52,571.39,569.30,567.11,564.00,560.67,557.34,553.90,549.90,545.24,539.91,534.00,528.03,523.24,517.80,510.60,500.81,491.27,485.37,481.14,477.04,472.52,467.10,461.44,456.04,451.53,447.80,444.61,442.09,440.89,441.83,442.90,443.63,443.98,444.17,443.99,444.04,444.31,444.50,444.22,442.96,440.82,437.91,434.65,430.69,425.87,420.61,416.13,412.61,408.77,404.26,399.31,395.83,392.61,388.25,382.09,374.31,366.38,359.27,355.22,357.69,361.23,364.98,369.48,375.34,382.32,389.48,395.54,400.38,404.89,410.66,416.49,420.76,421.75,420.90,419.02,416.36,412.75,408.00,403.61,399.81,397.12,396.66,397.99,399.69,401.43,403.19,404.69,405.82,406.19,405.95,405.69,404.39,402.25,399.15,394.69,389.40,381.55,373.17,365.45,358.69,353.93,351.12,349.88,349.82,348.87,346.98,343.86,339.18,334.05,330.76,328.76,327.44,325.96,324.48,322.76,320.87,318.87,316.59,313.76,309.93,304.93,299.50,295.19,290.51,285.54,281.39,277.16,272.74,268.48,264.69,261.22,256.93,251.97,246.83,242.49,238.13,233.73,228.63,222.21,216.73,212.19,207.55,202.05,195.31,188.07,180.52,172.79,165.28,159.68,155.56,151.84,147.45,141.26,134.70,129.63,126.36,123.41,119.12,110.75,100.96,94.21,90.42,89.07,88.52,87.97,87.44,86.92,87.04,87.86,89.61,95.17,102.39,110.34,118.03,122.32,125.52,129.35,135.07,144.13,153.12,161.05,167.99,174.14,180.01,185.04,189.90,195.14,200.92,205.56,208.97,211.53,214.03,217.05,221.70,227.48,233.90,240.85,248.02,254.25,259.59
654.27,658.56,661.76,664.44,666.91,669.22,671.20,672.38,672.78,672.43,671.72,671.32,671.13,671.48,673.36,676.40,679.70,682.98,686.08,688.63,689.99,690.68,691.42,693.44,696.01,697.99,699.12,699.26,698.59,696.31,693.00,689.09,685.20,681.86,676.35,669.27,663.46,658.02,652.99,648.29,643.86,639.45,635.74,632.29,628.85,625.28,621.96,617.09,611.31,606.06,601.12,596.40,592.01,587.95,583.77,580.11,577.26,574.99,572.70,569.84,566.35,562.54,558.65,554.52,549.95,544.84,538.93,531.99,526.42,520.98,514.44,505.53,496.46,490.21,485.51,481.24,476.72,471.22,465.47,459.96,455.23,451.64,449.28,448.09,448.24,449.20,449.85,450.32,450.73,451.05,451.14,451.17,451.06,450.51,449.39,447.45,444.99,442.12,438.88,435.47,430.71,424.85,419.52,415.36,411.28,406.58,401.12,397.10,393.63,389.24,383.11,375.34,368.51,362.60,359.25,361.36,363.76,366.56,370.43,376.02,382.97,390.50,396.91,401.98,406.70,412.78,418.40,422.49,424.02,423.47,422.25,420.06,416.60,412.26,407.86,403.99,401.39,401.28,402.83,404.77,406.79,408.74,410.16,410.85,410.55,409.49,408.44,406.33,403.49,399.58,393.90,387.29,379.73,372.48,366.13,360.57,357.42,356.05,355.77,355.96,355.37,353.87,351.21,346.96,341.64,338.01,335.93,334.82,333.57,331.94,329.67,327.02,324.24,321.28,318.12,314.27,309.34,303.56,299.44,295.08,290.06,284.98,280.82,276.29,271.78,267.92,264.69,260.36,254.74,248.57,243.76,238.88,234.07,229.11,223.62,218.12,213.96,209.73,204.44,198.02,191.41,184.49,177.13,169.32,162.62,157.78,153.99,150.04,143.75,137.04,131.42,127.36,124.41,121.47,113.95,104.29,97.01,91.25,89.28,88.74,88.20,87.66,87.13,86.95,87.36,88.93,92.71,99.86,108.66,116.90,121.86,125.21,128.69,133.84,142.80,151.33,159.09,165.92,171.58,177.29,181.99,186.06,190.02,194.61,198.85,202.56,205.98,209.70,213.94,219.59,226.27,233.64,241.47,248.46,254.56,260.19
657.09,661.28,664.51,667.28,670.12,673.22,675.14,676.20,676.33,675.48,674.22,673.71,674.04,675.24,677.64,681.33,684.97,688.26,691.00,692.89,694.22,695.22,696.28,698.35,700.88,702.50,703.17,702.97,701.67,698.89,695.27,691.20,687.16,683.56,678.82,672.86,666.58,661.35,656.31,651.31,646.47,641.97,638.06,634.49,631.07,627.59,624.40,620.89,616.58,611.08,606.23,602.09,597.90,593.44,589.65,586.21,583.24,580.67,578.23,575.27,571.61,567.48,563.00,558.30,553.43,548.39,542.91,536.38,529.47,523.50,517.62,510.27,503.01,496.47,490.81,485.98,481.02,475.13,469.20,463.69,459.03,456.10,454.75,454.51,455.12,455.92,456.77,457.66,458.57,459.33,459.57,459.19,458.01,455.75,453.52,450.97,448.25,445.40,442.31,439.30,435.15,429.91,424.73,419.61,414.86,410.03,404.65,399.45,395.28,390.22,383.40,375.60,369.14,364.60,362.72,364.63,365.91,367.76,371.09,376.40,382.69,390.24,397.04,402.55,407.50,413.88,419.25,423.33,426.03,426.58,425.90,424.01,420.83,416.90,412.59,409.49,407.99,408.23,409.30,410.72,412.44,414.24,415.09,415.37,414.76,413.27,411.17,407.95,404.20,399.40,392.60,384.92,378.55,373.46,369.27,364.94,362.76,361.99,361.88,361.67,360.88,359.63,357.49,354.00,349.81,346.36,344.11,342.87,341.68,340.37,338.02,334.75,330.86,326.92,322.92,318.65,313.79,307.99,304.31,301.09,296.38,288.17,283.69,279.63,275.51,271.63,268.09,263.71,257.60,250.46,244.99,240.23,235.41,230.42,225.33,220.23,216.59,212.96,208.30,202.44,195.94,189.17,182.03,174.16,166.92,161.11,156.53,152.47,146.34,139.79,133.56,128.34,125.25,122.25,115.96,107.65,99.79,92.08,89.49,88.93,88.39,87.85,87.37,86.92,86.91,88.21,89.98,96.97,106.35,114.75,121.06,124.80,127.96,132.59,141.58,148.88,156.24,163.27,168.72,174.07,178.68,182.55,185.75,188.86,192.36,196.52,201.36,206.77,212.37,218.66,225.83,233.93,241.88,248.51,254.47,260.31
659.56,663.69,667.18,670.58,673.96,676.97,678.42,679.17,679.06,677.91,676.43,675.95,676.62,678.57,682.30,686.30,689.82,692.87,695.38,696.96,698.45,700.20,702.25,704.37,706.04,706.90,707.04,706.38,704.49,701.39,697.50,693.10,688.70,684.97,680.47,674.90,668.67,663.76,658.87,653.79,648.72,644.12,640.12,636.50,633.01,629.25,625.93,622.95,619.75,615.58,610.94,607.13,603.52,599.69,595.99,592.50,589.27,586.25,583.25,579.95,576.15,571.73,566.65,561.63,556.32,550.80,545.07,539.02,531.81,525.55,519.84,513.40,507.14,501.37,496.06,491.10,485.89,480.27,474.31,468.48,463.99,461.70,460.96,461.11,461.82,462.79,463.85,464.66,465.02,464.78,464.22,463.13,461.45,459.09,456.54,453.72,450.73,447.63,444.53,441.84,438.28,433.50,427.85,422.83,418.23,413.49,408.06,401.92,396.84,391.05,383.61,375.14,369.84,367.50,367.48,369.19,369.97,370.88,372.77,376.37,381.53,389.00,396.03,401.85,407.24,413.50,418.98,423.55,427.13,429.10,429.23,428.00,425.51,422.04,418.23,415.41,413.98,414.20,415.12,416.69,418.61,420.39,420.66,420.19,418.79,416.52,413.69,409.50,404.68,398.77,391.17,384.77,379.90,376.26,373.63,371.23,369.44,368.52,368.10,367.50,366.43,365.05,362.99,359.93,356.34,353.43,351.35,349.96,348.75,347.12,344.83,341.94,338.32,333.83,328.49,323.13,317.84,311.76,307.90,304.73,300.75,294.23,287.51,282.98,279.25,275.09,271.24,266.29,259.88,252.70,246.86,242.56,238.60,234.65,230.71,226.72,222.97,218.56,213.07,207.24,201.00,194.29,187.00,178.96,171.41,165.16,159.88,154.97,148.82,142.49,136.01,130.05,126.45,123.34,118.34,111.37,102.89,94.20,90.41,89.12,88.59,88.08,87.58,87.06,86.83,87.63,88.89,94.97,103.64,112.26,120.15,124.26,127.22,131.47,139.93,146.47,153.19,159.93,165.47,170.44,174.98,178.84,181.91,184.91,188.49,193.68,200.05,206.00,211.94,218.41,225.66,233.69,241.07,247.30,253.22,259.30
661.92,666.11,670.16,674.10,677.63,680.08,680.98,681.49,681.29,680.10,678.56,678.34,679.57,682.38,687.04,691.06,694.34,697.16,699.58,701.23,703.04,705.48,708.32,710.33,711.10,711.18,710.75,709.54,707.12,703.70,699.56,694.86,690.13,686.14,681.60,676.20,670.31,665.68,660.98,655.97,650.84,646.20,642.16,638.45,634.78,630.66,627.23,624.48,622.10,619.45,615.34,611.85,608.87,605.94,602.41,598.81,595.24,591.66,587.96,584.22,580.23,575.58,569.97,564.66,559.04,553.09,547.00,541.20,534.11,527.67,521.94,516.26,510.67,505.77,501.13,496.31,490.97,485.60,479.74,473.92,469.89,468.24,467.93,468.24,468.93,470.01,471.00,471.31,470.65,469.06,467.43,465.63,463.68,461.61,459.06,456.12,452.91,449.56,446.40,443.85,440.72,436.31,430.18,425.41,421.03,416.39,410.89,404.16,398.22,391.69,383.72,374.93,371.32,371.25,372.82,374.21,374.73,374.74,375.10,376.71,380.45,387.46,394.44,400.44,406.19,412.22,417.96,423.14,427.44,430.82,431.98,431.61,429.92,427.09,424.07,421.61,420.20,420.47,421.56,423.44,425.50,426.94,426.53,425.09,422.73,419.60,415.93,410.70,404.99,398.37,390.67,386.27,383.00,380.46,378.80,378.00,376.59,375.49,374.74,373.83,372.52,370.85,368.64,365.71,362.41,359.94,358.05,356.57,355.30,353.29,351.06,348.64,345.56,340.78,334.35,327.80,321.69,315.30,311.10,307.64,304.25,300.09,291.51,286.42,282.85,278.30,274.13,268.66,262.16,255.26,249.37,245.52,242.49,239.68,236.86,233.91,229.99,224.77,218.37,212.26,206.22,199.44,191.88,183.85,176.06,169.44,163.51,157.71,151.52,145.41,138.81,132.23,127.80,124.53,120.68,114.96,106.17,97.00,91.70,89.31,88.79,88.31,87.78,87.25,86.88,87.14,88.31,93.08,100.55,109.68,119.07,123.56,126.42,130.29,137.74,143.82,149.86,156.00,161.71,166.57,171.13,175.12,178.45,182.02,186.09,192.29,199.82,205.93,211.91,218.33,225.41,233.04,239.71,245.54,251.37,257.54
664.22,668.90,674.24,677.89,680.02,681.29,681.81,682.45,682.68,682.05,680.76,681.37,684.19,688.24,691.71,695.11,698.23,701.13,703.83,706.42,708.87,711.29,713.52,714.96,715.46,715.14,714.11,712.18,709.31,705.45,701.05,696.37,691.59,686.82,681.81,676.59,671.50,666.89,662.33,657.66,652.91,648.48,644.44,640.44,636.28,631.98,628.65,626.07,623.91,621.77,619.10,616.22,613.57,611.27,608.56,604.96,600.90,596.60,592.19,587.80,583.57,578.79,572.89,567.18,561.84,556.20,550.06,543.69,537.00,530.53,524.69,519.87,514.74,509.96,505.64,501.49,496.21,490.23,484.75,480.39,477.78,476.78,476.69,477.01,477.61,478.36,478.26,477.14,475.02,472.38,469.84,467.60,465.52,463.34,461.01,458.18,454.98,451.57,448.39,445.41,442.18,438.04,432.06,426.91,422.14,417.29,411.85,405.47,399.08,391.82,383.60,376.35,375.41,376.97,378.79,379.45,379.73,379.09,378.45,378.75,380.51,385.89,392.12,398.03,403.53,409.43,415.52,421.27,426.10,430.41,433.10,433.91,432.92,431.34,429.61,428.32,427.86,428.78,430.84,432.94,434.25,434.18,432.73,429.89,426.51,422.63,417.39,410.85,404.93,399.24,393.51,390.98,389.32,387.45,385.42,384.43,383.86,383.35,382.71,381.75,380.43,378.37,375.59,372.18,368.71,365.86,363.88,362.60,361.21,359.32,356.97,354.29,351.09,346.44,340.32,333.07,325.27,318.75,314.31,310.63,306.90,302.15,295.13,290.15,285.91,280.94,276.40,271.17,265.04,258.55,253.36,249.56,246.76,244.32,241.63,238.78,235.13,230.44,224.50,217.60,211.37,204.27,196.45,189.13,181.10,173.76,167.21,161.23,155.11,149.17,142.48,135.23,129.30,125.73,122.48,117.74,109.76,100.77,93.50,89.52,89.03,88.51,87.97,87.44,86.96,86.81,87.75,90.55,96.66,107.17,117.55,122.41,125.41,128.84,134.19,140.34,145.71,150.77,156.62,162.33,167.21,171.58,175.87,180.84,185.94,192.45,199.83,205.98,211.97,218.09,224.64,231.61,237.73,243.24,248.63,254.39
