357.27,357.39,358.11,359.57,361.72,364.55,367.67,371.37,375.86,380.74,384.22,387.00,388.22,387.53,384.51,380.02,375.80,373.66,375.06,378.56,380.62,381.58,381.48,379.61,376.24,372.47,369.02,366.58,365.11,365.33,367.70,371.94,375.31,378.04,379.72,380.35,380.03,378.68,376.30,372.86,368.16,362.99,359.75,360.83,366.44,373.63,380.71,385.41,388.24,390.64,394.45,398.94,403.06,406.15,408.38,409.87,411.11,412.30,413.65,415.97,419.12,422.87,427.34,432.95,437.45,441.39,445.02,448.16,451.09,454.12,457.19,460.17,463.56,467.63,472.17,476.87,481.10,486.66,492.54,498.11,502.89,507.21,511.96,516.16,518.58,520.18,520.15,518.78,516.41,513.93,511.46,508.86,506.04,502.59,497.49,490.82,484.15,477.91,469.82,462.83,455.93,449.34,444.60,440.22,435.92,430.95,424.51,417.11,409.98,404.15,400.13,397.72,396.60,396.50,396.29,394.15,390.96,386.92,381.96,375.38,365.94,357.53,350.73,345.22,340.04,334.32,329.60,325.54,321.40,317.12,311.95,305.81,299.26,294.35,290.72,288.72,287.75,286.89,286.49,285.90,285.13,284.14,282.57,280.63,279.05,278.06,277.87,280.03,284.56,289.81,294.03,297.37,301.44,306.77,313.01,318.10,323.36,329.87,336.87,342.57,347.60,353.09,358.83,365.04,373.36,379.96,385.23,389.93,395.15,399.94,404.15,407.92,411.52,416.12,421.59,427.30,433.07,439.16,444.44,450.38,457.50,465.64,471.67,476.43,480.98,485.90,490.75,494.93,499.30,503.95,508.13,512.36,516.91,521.52,525.75,529.72,532.63,535.01,536.77,536.71,535.16,532.80,529.75,525.84,522.81,520.41,517.93,515.40,515.11,515.56,516.42,516.97,515.43,512.80,509.12,504.41,498.49,491.90,485.68,479.91,474.31,468.04,463.15,459.84,457.45,454.70,451.40,446.11,440.05,434.29,427.99,420.92,413.76,407.02,401.15,395.36,394.67,398.63,405.91,417.32,426.36,433.62,440.37,447.72,451.21,452.29,452.01,451.05,449.76,451.38,456.19,463.82,471.17,476.67,481.90,487.71
360.47,360.75,362.51,365.04,367.76,370.27,372.81,376.27,380.95,386.30,389.79,392.30,393.25,392.45,389.60,385.46,381.04,379.07,381.49,384.44,386.29,387.22,387.14,385.54,382.17,378.09,374.14,371.32,370.29,371.17,373.37,376.71,380.89,384.56,386.77,387.43,386.63,384.30,380.72,376.54,372.16,367.58,364.52,365.40,370.72,378.26,385.19,390.17,393.65,396.69,401.26,406.16,410.54,413.97,416.63,418.70,420.11,421.17,422.65,424.30,426.38,429.32,433.78,439.86,444.75,448.69,451.99,455.00,457.97,462.05,466.49,469.88,473.00,476.32,479.73,483.19,487.03,492.13,497.43,502.31,506.31,510.64,515.56,519.57,521.18,521.96,521.30,519.71,517.47,514.96,512.48,510.30,507.98,504.67,500.84,494.59,487.72,481.33,474.61,467.77,460.30,452.79,447.05,442.58,438.37,434.03,429.01,421.90,415.85,411.46,408.76,406.94,405.28,403.55,401.37,398.05,393.95,388.90,383.09,375.95,365.91,356.61,349.00,342.57,335.71,330.22,326.08,322.36,318.15,313.64,307.26,300.65,294.97,290.95,288.55,287.36,286.81,286.13,284.90,283.27,281.83,280.92,279.97,278.85,278.44,279.35,282.35,286.92,292.00,297.00,301.48,305.51,309.83,313.76,316.65,318.12,320.07,324.70,331.29,337.72,343.79,349.49,354.74,359.85,366.56,373.48,379.62,384.84,389.72,395.10,400.16,404.43,407.80,412.19,417.93,423.95,430.04,437.08,442.91,448.79,455.57,463.82,470.40,475.37,479.92,484.90,489.95,494.03,498.14,502.44,506.25,510.37,515.23,520.34,524.99,529.32,532.92,536.00,538.35,539.10,538.25,536.36,533.84,531.04,528.53,526.45,524.51,522.77,522.47,522.40,522.24,521.63,519.77,517.00,513.13,508.10,501.72,494.90,488.87,483.69,479.08,474.10,469.67,465.85,462.40,458.89,455.19,450.68,445.04,438.23,432.03,425.12,417.95,410.97,404.79,399.10,397.74,400.99,408.78,419.41,427.97,435.46,442.90,450.06,454.13,455.76,455.82,455.19,454.22,454.29,457.03,463.72,471.23,476.90,482.17,487.65
364.57,365.61,367.82,370.61,373.41,375.88,378.57,382.69,387.61,392.51,395.87,398.01,398.83,398.34,396.37,393.30,390.07,388.70,390.55,392.50,393.83,394.25,393.72,392.20,388.39,383.75,379.17,375.70,374.91,376.20,378.91,382.84,387.37,391.48,394.10,395.06,394.28,391.30,386.90,381.98,377.08,372.26,368.91,369.64,375.13,383.05,389.40,394.36,398.62,403.00,408.13,413.07,417.41,420.92,423.75,425.78,427.27,428.53,429.97,431.09,432.60,435.34,440.07,445.83,450.50,454.50,458.25,462.17,465.44,469.57,474.18,478.05,481.30,484.20,486.91,489.65,493.02,497.58,502.26,506.61,510.51,514.79,519.04,522.13,522.89,522.44,521.25,519.68,517.78,515.53,513.27,511.29,509.11,505.92,502.50,497.19,491.19,485.31,479.26,472.87,465.94,458.46,450.90,445.81,441.61,437.58,433.13,426.60,421.16,417.40,415.41,414.44,412.62,409.51,405.56,401.32,396.15,390.20,383.82,376.61,366.87,357.69,349.76,342.50,334.52,328.73,324.50,320.63,316.03,310.83,303.90,297.29,292.35,289.61,289.59,290.15,290.28,289.35,287.56,285.04,282.53,280.62,279.47,279.06,280.14,282.93,287.25,292.33,297.96,303.85,309.51,313.69,317.40,320.27,321.86,322.15,322.61,324.69,328.38,333.30,339.50,345.28,350.56,355.61,360.89,366.79,372.94,378.92,384.08,389.55,395.03,400.14,404.56,409.18,414.98,421.21,427.69,435.13,441.37,447.04,453.24,461.36,468.50,473.72,478.13,482.78,488.02,492.53,496.92,501.25,504.95,508.86,513.71,519.06,524.11,528.79,532.86,536.54,539.62,541.11,540.82,539.48,537.65,535.79,533.76,531.88,530.28,529.13,528.67,528.02,526.93,525.34,523.21,520.39,516.50,511.50,505.21,498.33,492.71,488.26,484.62,480.85,476.55,472.13,467.83,463.78,459.34,454.62,448.96,441.98,435.54,428.85,421.73,414.47,408.07,402.44,400.75,403.44,410.74,420.67,428.90,436.52,444.42,451.82,456.90,459.60,460.39,459.87,458.73,457.91,459.23,464.34,470.85,476.63,482.17,487.67
368.97,370.94,373.28,375.94,378.69,381.39,384.69,389.75,394.82,398.84,401.97,403.78,404.56,404.57,403.80,402.10,400.64,400.04,400.63,401.54,402.26,402.04,400.82,399.15,394.75,389.52,384.32,380.11,379.21,380.81,384.40,389.50,394.13,398.47,401.40,402.71,402.17,398.75,393.82,388.26,382.53,377.10,373.28,373.92,379.68,387.86,393.64,398.54,403.60,409.38,414.83,419.60,423.72,427.14,429.92,431.62,433.20,434.89,436.34,437.04,438.29,441.10,446.05,451.00,455.23,459.40,463.94,469.04,472.78,476.69,481.01,485.32,488.90,491.58,493.90,496.29,499.22,503.23,507.33,511.24,515.20,519.18,522.33,524.06,523.73,521.98,520.39,518.94,517.42,515.57,513.70,511.84,509.63,506.52,503.06,498.87,494.23,489.20,483.50,477.83,472.04,465.23,456.00,449.96,445.46,441.43,437.09,431.35,426.19,422.54,420.80,420.56,418.73,414.57,409.16,404.06,397.95,391.17,384.35,377.38,368.56,359.94,351.99,344.19,335.43,328.91,324.18,319.88,314.73,308.55,301.44,295.24,291.22,290.15,292.89,295.38,296.19,294.79,292.62,289.43,285.88,282.77,281.18,281.34,283.67,287.77,292.23,297.11,303.35,310.45,317.25,321.27,324.12,326.36,327.96,328.56,328.72,328.40,328.43,330.63,335.91,341.19,346.48,351.93,356.08,360.45,366.04,372.55,378.27,383.66,389.34,395.35,401.41,406.54,412.39,418.73,425.51,433.06,439.64,445.12,450.64,458.28,465.88,471.51,475.90,480.09,485.40,490.50,495.40,499.98,503.80,507.59,512.40,517.85,523.21,528.17,532.60,536.83,540.65,542.81,543.07,542.36,541.25,540.14,538.57,536.89,535.58,534.88,534.17,532.99,531.11,528.60,526.06,523.13,519.31,514.54,508.74,502.13,497.08,493.33,490.48,487.71,483.47,478.50,473.45,468.91,463.70,458.20,452.21,445.47,438.67,432.18,425.17,417.69,411.14,405.53,403.68,405.87,412.30,421.61,429.59,437.21,445.35,453.27,459.66,463.69,465.36,464.87,463.39,462.11,462.42,465.59,470.43,476.09,481.93,487.58
372.37,374.46,376.88,379.88,383.20,386.67,390.89,395.77,400.31,403.94,406.79,408.61,409.55,409.88,409.83,409.04,408.24,407.89,408.32,409.40,410.00,409.56,407.98,405.38,400.99,395.73,390.31,385.66,383.37,385.62,389.94,394.86,399.73,404.69,407.91,409.10,408.33,404.64,399.54,393.84,387.89,382.38,378.64,379.18,384.57,392.38,398.61,404.26,409.81,415.30,420.43,425.05,428.98,432.04,434.42,436.10,438.10,440.50,442.65,443.17,444.31,446.83,450.86,454.78,459.16,463.92,468.85,473.40,477.80,482.90,488.20,492.62,496.32,498.94,501.14,503.46,506.36,510.02,513.75,517.18,520.07,522.85,524.99,525.25,522.62,520.38,518.70,517.25,515.81,514.24,512.91,511.46,509.42,506.19,502.85,499.24,495.31,490.97,486.09,481.67,476.95,471.19,463.53,456.17,450.20,445.43,441.40,436.65,431.42,427.50,425.61,424.79,422.57,418.21,412.31,405.95,399.95,392.43,384.93,378.38,371.06,362.38,354.64,347.40,337.91,330.17,324.67,319.95,314.30,307.04,299.88,294.74,292.86,294.49,298.52,301.27,301.84,300.25,297.83,294.55,291.27,288.87,288.10,288.44,289.88,292.50,296.53,303.03,310.21,316.87,322.01,325.90,329.15,332.00,334.34,335.73,336.31,336.17,335.63,335.39,337.04,339.45,343.20,348.50,352.43,356.43,361.02,366.30,372.13,378.06,384.06,390.43,397.32,403.34,409.64,415.90,422.28,430.03,437.06,442.75,447.80,453.89,461.42,468.14,473.50,477.63,482.49,487.49,492.53,497.44,501.75,506.29,511.57,517.18,522.50,527.44,532.33,537.10,541.31,543.93,545.25,545.23,544.40,543.70,542.59,541.49,540.72,540.36,539.43,538.13,535.75,532.24,528.47,524.92,521.07,516.68,511.63,506.63,502.30,498.68,495.78,493.16,489.71,484.67,478.64,473.18,467.95,461.84,455.11,448.18,441.35,434.94,428.08,420.73,413.99,408.45,406.23,407.95,414.44,423.30,430.93,438.26,446.23,454.64,462.68,467.93,470.09,469.97,468.72,467.37,466.84,468.03,470.96,475.71,481.13,486.72
375.57,377.62,380.27,383.61,387.41,391.63,396.39,401.12,405.31,408.69,411.42,413.21,414.23,414.78,415.28,415.48,415.58,415.71,416.01,416.74,416.96,415.99,413.71,410.46,406.33,401.23,395.75,390.83,387.58,390.28,395.17,400.08,405.24,410.14,413.37,414.59,413.57,409.86,404.67,398.92,393.05,387.40,383.73,384.32,389.52,396.79,403.11,409.04,414.76,420.13,425.17,429.91,433.97,437.15,440.04,442.09,444.25,446.70,448.98,449.64,450.91,453.25,456.54,459.71,463.79,468.34,472.98,477.25,482.69,488.89,494.80,499.04,502.70,505.58,508.15,510.73,513.50,516.52,519.53,522.30,524.42,526.21,527.35,526.36,522.22,519.31,517.12,515.35,513.89,512.49,511.21,509.86,508.01,505.05,501.96,498.67,495.24,491.63,487.75,484.37,480.60,475.93,469.88,462.51,455.65,449.96,445.70,441.53,436.66,432.72,430.36,428.62,425.84,421.20,414.87,407.50,401.73,393.79,385.85,379.57,373.05,364.77,357.28,350.23,340.61,331.69,325.49,320.50,314.50,306.48,299.07,294.92,295.25,298.88,303.94,307.13,307.93,306.66,303.99,300.63,297.52,295.39,294.59,294.66,295.53,297.57,301.81,308.92,316.13,322.19,326.44,330.37,334.18,337.71,340.65,342.46,343.26,343.46,343.12,342.08,341.57,341.87,343.73,347.44,350.26,353.64,357.38,361.58,366.88,372.54,378.65,385.37,392.79,399.67,406.46,412.84,419.02,426.58,433.63,439.56,444.63,449.77,456.88,464.28,470.67,475.41,480.20,485.19,490.25,495.17,499.75,505.19,511.12,516.96,522.21,527.13,532.40,537.52,541.89,544.94,547.14,547.87,547.53,547.18,546.48,545.80,545.32,544.93,543.77,542.25,539.59,535.63,531.07,526.95,522.95,518.85,514.54,510.82,507.10,503.62,500.60,497.85,494.72,489.84,483.44,476.89,471.34,464.88,457.79,450.71,443.94,437.62,430.99,423.89,416.95,411.14,408.43,410.04,417.49,426.04,433.11,439.90,447.42,455.52,464.13,470.10,473.07,474.19,473.61,472.51,471.60,471.49,472.75,476.05,480.53,485.77
378.72,380.67,383.72,387.29,391.38,396.22,401.06,405.80,409.93,413.18,415.97,417.72,418.77,419.52,420.49,421.81,423.16,424.06,424.13,423.72,423.17,421.23,417.81,414.29,410.60,405.76,400.31,395.37,391.92,394.76,400.02,405.36,410.85,414.94,417.86,419.31,418.01,414.50,409.23,403.45,397.90,392.04,388.38,389.20,394.51,401.08,406.91,412.43,418.00,423.75,429.13,434.32,438.87,442.73,447.12,449.83,451.84,453.65,455.40,456.66,458.37,460.72,463.63,466.33,469.52,472.92,476.58,481.13,487.85,494.72,500.53,504.38,507.91,511.34,514.68,517.80,520.28,522.34,524.25,526.14,527.97,529.20,529.35,527.51,523.03,519.12,515.90,513.46,511.78,510.38,508.51,506.84,505.19,502.96,500.21,497.11,494.02,491.19,488.42,485.71,482.76,479.15,474.17,468.36,461.55,454.97,449.93,445.80,441.80,438.14,435.02,432.20,428.75,423.60,416.73,408.74,403.13,395.24,387.25,380.96,374.32,367.01,359.76,352.31,343.28,333.38,326.60,321.49,315.36,306.96,299.11,295.70,297.99,302.61,308.70,312.79,314.43,314.03,311.24,307.86,304.66,302.00,299.95,299.34,300.37,303.25,308.44,314.73,320.88,326.38,330.99,335.13,339.46,343.51,346.71,348.45,349.16,349.52,349.75,349.75,349.29,348.80,348.76,349.41,350.07,352.31,355.35,358.86,362.89,367.30,373.15,380.18,387.88,395.51,402.75,409.50,415.91,422.85,429.38,435.50,441.14,446.25,452.67,460.17,467.45,473.50,478.75,483.99,488.96,493.52,498.01,504.38,511.04,517.19,522.40,527.32,532.86,538.11,542.42,545.87,548.67,550.19,550.63,550.63,550.27,549.82,549.28,548.47,547.08,545.13,542.36,538.60,533.92,529.43,525.23,521.30,517.68,514.62,511.38,508.09,504.92,501.84,498.38,493.79,487.74,480.09,473.73,467.20,460.28,453.20,446.56,440.39,434.04,427.25,420.13,413.75,410.47,412.33,421.48,429.88,436.15,442.13,448.89,455.81,463.65,469.79,474.01,477.32,477.86,477.38,476.65,476.03,475.95,477.37,480.37,484.93
382.38,384.13,387.22,390.73,394.89,400.32,405.63,409.95,413.57,416.83,420.25,422.74,424.81,426.70,428.51,430.23,431.65,432.52,432.50,431.64,430.10,427.26,423.11,418.64,414.23,409.19,403.97,399.62,396.85,399.66,404.98,410.87,416.72,421.28,424.13,424.91,422.76,418.87,412.98,406.84,401.80,396.97,393.77,394.60,399.49,405.06,410.36,415.57,421.00,427.12,433.98,439.59,444.23,448.27,452.07,454.61,456.93,459.54,462.72,465.86,468.73,471.25,473.24,474.52,476.99,480.16,483.81,488.12,494.16,499.96,504.95,509.12,513.27,516.56,519.36,521.90,524.07,526.03,527.65,528.92,529.85,530.53,530.36,528.63,524.70,520.25,516.24,512.67,509.56,507.04,504.52,502.67,501.14,499.18,496.66,493.93,491.45,489.40,487.20,485.06,482.67,479.56,474.90,470.14,464.41,458.72,454.18,449.94,445.93,442.11,438.48,434.92,430.97,425.28,417.86,409.54,403.74,396.77,389.46,382.72,375.72,368.61,361.29,353.67,345.41,335.54,328.27,322.69,316.54,308.10,300.23,296.87,299.47,305.07,313.02,317.79,319.25,319.34,318.28,316.54,314.20,311.25,308.28,307.51,308.52,311.27,316.29,322.57,327.98,332.36,336.16,340.37,344.84,348.64,351.23,352.91,354.02,354.98,355.77,356.05,355.90,355.55,355.25,355.10,354.87,355.49,356.74,358.56,361.14,364.94,369.49,375.13,382.61,390.89,398.22,405.45,412.89,419.69,425.88,431.96,437.97,443.79,450.46,457.95,465.48,472.29,478.09,483.40,488.33,492.88,497.38,504.16,511.10,517.35,522.58,527.42,533.05,538.43,542.86,546.56,549.53,551.59,552.82,553.30,553.37,553.35,553.04,552.09,550.33,547.86,544.72,540.88,536.43,532.13,528.39,525.13,522.19,519.61,516.97,513.42,508.94,505.41,501.80,496.96,490.69,483.19,476.13,469.43,462.94,456.55,450.13,444.10,437.76,430.88,423.91,418.20,414.92,416.36,425.39,433.52,439.03,443.83,449.31,455.81,462.80,469.20,474.89,479.93,482.37,483.02,482.64,481.55,480.37,480.51,482.12,485.32
386.45,387.88,390.69,393.95,398.21,404.35,409.69,413.49,416.80,420.34,424.45,428.05,431.23,434.08,436.50,438.29,439.44,440.04,439.95,438.91,436.71,433.33,428.81,423.41,418.16,412.70,407.64,404.18,402.54,405.47,410.75,416.92,422.90,427.72,430.24,430.25,427.56,423.16,416.75,410.46,406.07,402.24,399.54,400.41,404.92,409.85,414.76,419.62,424.86,431.28,438.92,444.57,449.21,453.46,456.59,459.20,462.25,466.06,470.70,475.25,478.80,481.27,482.56,482.92,484.92,488.02,491.71,495.57,500.55,505.18,509.45,513.84,518.25,521.15,523.26,525.13,526.95,528.79,530.20,531.01,531.16,531.36,530.99,529.49,526.20,521.60,517.06,512.50,508.02,504.22,500.80,498.40,496.61,494.63,492.34,490.16,488.39,487.04,485.30,483.63,481.37,478.13,473.78,470.03,465.75,461.40,457.61,453.34,449.22,445.20,441.22,437.16,432.81,426.70,418.90,410.36,404.21,398.10,391.63,384.74,377.32,370.01,362.40,354.65,347.22,337.73,330.15,324.12,317.91,309.52,301.80,298.27,300.46,306.60,315.76,321.12,322.73,323.64,324.41,324.34,323.11,320.55,317.70,317.15,318.12,320.48,324.92,331.05,335.64,338.79,341.59,345.60,349.97,353.31,355.23,356.96,358.70,360.23,361.34,361.64,361.69,361.57,361.40,361.16,360.63,360.08,359.88,360.29,361.65,364.70,367.87,371.92,378.52,386.52,393.67,401.15,409.25,416.16,422.56,428.84,435.15,441.71,448.83,456.35,463.94,471.21,477.37,482.74,487.73,492.41,496.99,503.96,511.00,517.28,522.57,527.39,532.99,538.40,542.95,546.81,549.95,552.51,554.47,555.54,556.19,556.63,556.63,555.72,553.71,550.71,547.12,543.11,538.88,534.89,531.76,529.23,526.91,524.65,522.35,518.61,513.25,509.25,505.35,500.25,493.90,486.84,479.37,472.49,466.21,460.31,454.04,447.96,441.51,434.54,427.66,422.64,419.64,420.80,429.17,437.25,442.22,445.95,450.07,455.68,461.89,468.70,475.78,482.10,486.39,488.42,488.73,487.61,485.81,484.88,485.08,486.74
391.21,392.11,394.02,396.79,401.38,408.53,412.45,415.78,419.59,424.05,428.61,433.75,437.66,440.32,442.57,444.02,444.75,445.01,444.82,443.86,441.94,438.98,434.73,428.93,423.28,417.20,411.95,409.69,409.82,413.40,418.59,424.27,429.68,433.35,434.77,434.29,432.27,427.41,421.09,415.49,411.95,408.22,405.85,406.92,411.52,416.96,421.86,426.26,431.14,437.63,443.49,448.22,452.89,457.77,461.39,465.25,469.82,474.94,479.86,483.69,486.19,487.95,489.45,490.76,492.93,495.74,498.95,502.23,506.38,510.74,515.01,518.93,522.11,524.47,526.38,528.02,529.46,530.52,531.42,532.07,532.09,531.99,531.31,529.70,526.70,522.64,518.10,513.27,508.29,503.59,498.63,494.63,491.62,489.22,487.24,485.94,484.99,484.08,482.86,481.50,478.35,473.79,470.16,467.74,465.13,462.17,458.90,454.91,450.96,446.98,442.90,438.72,434.08,427.91,420.19,411.50,404.83,398.88,393.18,387.20,379.42,371.31,363.06,355.17,348.52,339.69,332.23,325.97,319.53,311.25,303.85,299.96,301.03,306.52,314.67,320.50,323.89,326.66,328.33,328.89,328.76,328.28,328.04,328.29,329.22,331.17,334.78,339.84,343.19,345.21,347.28,350.52,354.32,357.22,358.90,360.97,363.55,365.32,366.14,366.28,366.06,365.81,365.69,365.69,365.62,365.36,365.32,365.68,366.60,368.06,370.30,373.43,377.77,383.11,389.63,396.68,403.93,411.25,419.22,426.46,433.01,439.84,447.42,455.09,462.70,469.98,475.98,481.49,486.74,491.70,496.50,503.44,510.41,516.69,522.07,527.03,532.43,537.65,542.18,546.03,549.66,552.80,555.35,557.16,558.71,559.63,559.89,559.29,557.44,553.99,549.93,545.68,541.43,537.71,535.06,533.10,531.24,529.00,526.31,522.85,518.51,514.01,509.44,504.39,498.64,491.97,484.80,477.76,471.00,464.53,458.23,451.61,444.92,438.11,430.93,425.81,423.51,425.19,432.68,441.35,446.35,449.53,452.39,455.46,461.07,468.58,476.72,483.45,489.02,492.62,494.43,494.41,493.12,491.23,489.97,490.05
397.38,398.36,399.63,402.12,406.09,411.31,414.51,417.81,422.10,427.51,433.00,438.51,442.70,445.75,448.47,450.03,450.63,450.57,449.82,448.49,446.61,443.79,439.74,434.31,428.27,422.07,417.43,416.74,418.29,421.92,426.38,431.18,436.31,440.20,441.18,439.75,437.42,433.25,427.96,422.95,419.11,415.28,413.09,414.40,419.29,425.10,429.53,433.56,438.17,443.99,448.64,453.31,458.32,463.60,468.34,473.01,477.99,483.08,487.56,490.75,492.84,494.63,496.63,498.45,500.60,503.01,505.77,509.15,512.98,516.97,520.84,524.10,526.27,527.90,529.35,530.65,531.44,532.01,532.62,533.10,532.91,532.31,531.37,529.71,526.81,523.10,518.73,513.94,508.87,503.75,498.20,492.76,487.92,484.37,481.84,480.39,479.31,478.15,476.69,475.07,472.52,469.27,466.62,464.95,463.24,461.17,458.53,455.18,451.61,447.86,443.88,439.84,435.19,429.31,422.01,413.36,406.31,400.19,394.65,389.18,381.94,373.68,364.89,356.53,350.13,342.13,335.13,328.78,321.97,314.15,307.40,303.09,302.42,306.04,311.59,317.06,321.96,326.30,329.65,331.51,332.56,333.36,334.39,335.66,337.15,339.19,342.60,346.96,350.16,352.36,354.31,356.80,359.87,362.60,364.75,367.24,369.85,371.63,372.46,372.48,372.05,371.63,371.41,371.39,371.21,370.94,371.12,371.90,373.16,375.35,378.38,381.55,384.32,387.58,391.85,396.66,401.90,407.86,414.66,422.03,429.67,437.39,445.59,453.38,460.92,468.19,474.21,479.59,484.99,490.42,495.54,501.98,508.87,515.46,521.12,526.21,531.42,536.44,541.02,545.16,549.06,552.51,555.49,558.05,560.12,561.58,562.19,561.56,559.80,556.52,552.50,548.25,544.36,541.30,538.85,536.80,534.94,532.63,529.87,526.51,522.43,517.86,513.23,508.28,502.90,497.05,490.51,483.71,476.80,469.82,462.86,455.45,448.24,441.32,434.25,428.76,426.59,428.72,436.47,445.62,451.56,455.18,457.32,458.89,462.94,469.81,478.04,484.53,490.33,494.83,497.93,499.25,498.76,497.40,496.00,495.12
404.06,405.27,406.10,408.25,411.06,413.44,416.22,419.79,424.64,430.90,437.29,442.64,447.08,450.92,454.19,455.99,456.63,456.32,454.98,453.00,450.97,448.16,444.31,439.56,433.40,427.45,423.74,424.58,427.17,430.51,434.10,438.02,442.95,447.53,448.47,446.18,443.23,440.10,435.98,431.34,426.81,422.93,420.93,422.47,427.58,433.54,437.47,441.19,445.43,450.27,454.39,459.44,464.89,470.40,476.18,481.34,486.21,490.78,494.58,497.30,499.39,501.50,504.00,506.02,508.08,510.18,512.63,516.26,519.90,523.36,526.49,528.98,530.37,531.32,532.26,533.16,533.27,533.53,533.83,533.95,533.50,532.39,531.25,529.59,526.70,523.23,519.10,514.46,509.44,504.21,498.54,491.91,485.17,479.95,476.21,473.89,472.20,470.67,468.97,467.19,465.81,464.62,462.84,461.40,460.15,458.75,456.82,454.31,451.30,447.92,444.25,440.47,435.98,430.53,423.83,415.50,408.29,401.83,396.08,390.81,384.45,376.50,367.59,358.89,352.44,345.27,338.79,332.46,325.32,317.98,311.76,306.93,304.34,305.69,308.38,313.01,318.74,323.96,328.90,332.30,334.57,336.22,338.09,340.45,342.81,345.38,349.05,353.04,356.53,359.36,361.48,363.44,365.95,368.75,371.69,374.60,376.99,378.71,379.69,379.71,379.24,378.69,378.25,377.92,377.28,376.72,377.10,378.55,380.63,384.32,388.52,391.99,393.74,395.46,397.14,399.32,402.42,406.52,411.15,417.80,426.06,434.59,443.40,451.29,458.70,465.91,472.10,477.34,482.81,488.68,494.16,499.96,506.69,513.61,519.58,524.98,530.09,534.96,539.57,544.10,548.25,551.92,555.24,558.45,560.88,562.92,563.96,563.28,561.56,558.72,555.05,551.02,547.68,545.35,543.01,540.62,538.42,535.93,533.13,529.75,525.61,521.13,516.66,511.74,506.53,501.56,495.75,489.37,482.53,475.18,467.38,459.09,451.24,444.12,437.37,431.59,429.42,431.95,440.25,449.58,456.60,461.10,463.14,463.89,465.91,471.26,478.77,484.78,490.49,495.68,499.97,502.67,503.33,503.21,502.36,501.09
410.15,411.09,411.83,412.88,414.14,415.55,417.77,422.09,427.88,434.54,440.68,445.89,451.38,456.59,459.51,461.14,461.93,461.85,460.49,457.72,455.10,452.22,448.73,444.48,439.41,434.34,431.33,432.89,435.38,438.29,441.58,445.42,449.98,454.50,455.82,454.03,451.10,448.29,443.97,438.92,434.30,430.88,429.56,431.20,435.72,441.24,445.50,448.93,452.22,456.21,461.54,467.27,472.97,478.47,483.68,488.66,493.52,498.02,501.48,504.40,506.93,509.28,511.54,513.43,515.38,517.71,520.51,523.57,526.68,529.06,530.86,532.49,533.58,534.46,535.20,535.68,535.53,535.65,535.16,534.11,533.23,532.04,530.93,529.29,526.43,523.14,519.14,514.51,509.43,504.39,498.75,491.72,483.86,476.38,470.15,465.91,463.38,462.38,461.95,461.41,460.77,459.79,457.77,455.53,454.32,453.63,452.66,451.15,448.88,446.23,443.31,439.96,435.73,430.62,424.58,417.45,410.66,403.77,397.44,391.97,386.06,379.29,371.71,363.93,357.25,350.43,344.17,337.96,330.99,323.43,316.76,311.04,307.01,306.73,308.54,311.95,316.01,319.69,324.34,328.98,332.52,334.74,338.14,341.48,344.92,348.80,353.54,357.94,361.52,364.36,366.60,369.00,371.94,375.35,379.02,382.26,384.89,386.73,387.83,388.31,388.43,388.01,387.12,385.76,384.19,382.79,383.11,385.47,388.94,392.83,396.48,399.40,401.17,402.59,403.42,404.79,407.41,411.11,414.56,418.51,423.72,431.30,440.45,448.44,455.62,462.61,469.19,474.81,480.32,486.03,491.84,497.34,503.63,510.25,516.44,522.84,528.29,533.13,537.70,542.40,547.14,551.19,554.72,558.25,561.02,563.62,565.36,565.23,563.38,561.03,558.04,554.63,551.90,550.00,547.82,545.18,542.22,539.26,535.94,532.27,528.21,523.67,519.05,513.84,508.37,503.61,498.33,492.40,485.90,478.69,470.59,461.56,453.09,445.80,439.55,434.30,432.72,435.61,443.49,451.85,458.76,464.17,467.69,468.47,468.38,470.93,476.18,482.00,488.34,494.65,500.07,503.80,506.50,507.77,507.97,507.45
415.08,415.91,416.63,417.05,417.48,418.53,420.73,425.41,431.39,437.81,443.69,449.29,455.27,460.74,463.41,465.25,466.65,467.28,466.45,463.75,460.26,456.53,452.77,449.12,444.93,440.90,438.66,440.20,442.58,445.24,448.36,452.08,456.15,460.29,462.09,461.31,458.72,455.85,451.60,446.76,442.23,438.40,437.06,438.61,442.73,447.56,451.69,455.03,458.28,462.56,468.27,474.00,479.60,485.03,490.12,495.19,500.06,504.45,507.77,510.88,513.72,516.31,518.59,520.60,522.69,525.15,527.84,530.00,532.23,533.63,534.52,535.63,536.61,537.48,537.99,537.93,537.38,536.69,535.33,533.59,532.50,531.41,530.20,528.44,525.69,522.58,518.63,514.02,509.02,504.13,498.48,491.36,483.01,474.04,466.02,460.29,456.75,455.39,455.42,455.51,455.22,454.27,452.34,450.13,449.01,448.58,448.06,447.03,445.31,443.19,440.70,437.72,433.92,429.37,424.10,418.04,411.86,405.15,398.79,393.35,387.87,381.92,375.25,368.18,361.74,355.52,349.31,343.05,336.56,329.31,322.39,315.78,310.21,308.13,310.09,313.61,317.24,320.25,324.49,328.26,330.46,331.34,335.18,339.61,344.33,349.44,355.04,360.31,364.66,368.38,371.80,374.65,377.89,381.67,385.80,389.48,392.06,393.52,394.32,395.17,395.87,395.79,394.81,392.90,390.75,388.88,389.23,392.17,396.46,400.43,403.93,406.82,408.87,410.42,410.94,411.75,413.83,417.40,420.47,423.10,426.17,431.46,438.45,445.44,452.23,458.93,465.40,471.21,477.01,483.07,489.23,494.61,500.25,506.31,512.86,520.48,526.33,531.22,535.89,540.89,546.09,550.58,554.42,558.16,561.40,564.65,567.06,567.48,565.94,563.91,561.29,558.24,555.66,553.70,551.44,548.62,545.23,541.95,538.26,534.26,530.00,525.42,520.79,515.29,509.38,504.47,499.41,493.91,487.82,480.72,472.03,462.80,454.22,446.90,441.08,436.42,435.58,438.86,446.07,453.32,460.20,466.46,471.33,473.00,472.46,473.07,475.64,479.72,485.29,492.17,499.03,504.54,508.75,511.18,512.30,512.39
418.87,419.80,420.53,420.88,421.25,422.42,425.08,429.61,434.99,440.70,446.47,452.88,458.72,463.31,465.99,468.52,471.00,472.74,472.81,471.01,466.57,461.44,456.83,453.69,449.99,447.03,445.61,446.55,448.79,451.36,454.34,457.84,461.41,465.04,467.47,468.06,466.12,462.94,459.07,454.89,450.44,445.39,443.35,444.64,448.54,452.51,456.06,459.52,463.62,469.13,474.29,479.40,484.62,490.00,495.54,500.97,505.86,510.05,513.47,516.71,519.70,522.51,525.13,527.54,529.97,532.37,534.43,535.52,536.65,537.27,537.71,538.60,539.53,540.34,540.53,539.78,538.57,536.54,534.35,532.45,531.35,530.41,528.98,526.97,524.41,521.48,517.51,512.97,508.18,503.38,497.68,490.72,482.43,472.84,463.96,457.30,452.61,449.97,449.42,449.38,449.06,448.19,446.74,445.35,444.36,443.71,443.14,442.03,440.63,438.78,436.44,433.79,430.55,426.73,422.31,417.13,411.72,405.81,400.05,394.90,389.87,384.26,377.90,371.23,365.42,360.02,353.72,347.25,341.47,335.07,328.22,320.90,313.82,309.75,312.65,317.58,322.21,325.64,329.56,330.78,329.54,327.51,330.25,335.44,341.39,347.51,353.70,360.23,365.97,371.41,376.94,380.19,383.47,387.37,391.83,396.02,398.34,399.10,399.31,400.37,401.56,401.93,401.21,399.26,396.97,395.07,395.50,398.62,403.15,407.30,411.27,414.73,417.06,418.94,419.43,419.78,421.17,424.72,428.09,430.88,433.18,435.26,437.98,442.85,448.91,455.20,461.09,466.79,473.02,479.84,486.45,491.89,496.81,502.15,509.13,517.97,524.26,529.32,534.35,539.78,545.29,550.20,554.46,558.32,562.17,566.09,569.09,570.02,569.15,567.28,564.72,561.69,558.79,556.29,553.67,550.70,547.30,543.87,540.03,535.68,530.89,526.23,521.66,515.94,509.55,504.28,499.18,494.06,488.36,481.15,471.65,462.81,454.69,447.50,442.05,438.06,438.12,441.89,448.37,454.53,461.44,468.34,474.12,477.33,478.06,477.94,477.93,479.05,482.40,488.95,497.11,504.91,510.11,513.53,515.43,515.92
422.10,423.12,423.90,424.37,425.03,426.63,429.23,433.09,437.85,443.41,449.68,456.27,461.59,465.56,468.90,472.89,476.40,478.74,479.21,477.95,474.02,469.18,464.26,459.63,455.87,453.52,452.58,453.16,454.52,456.60,459.31,462.60,466.13,470.74,474.43,476.28,475.42,472.69,468.12,462.68,457.08,451.58,449.45,450.43,453.62,456.76,460.30,463.98,468.27,473.80,478.87,483.88,489.27,495.14,500.78,506.13,510.86,515.04,518.96,522.65,525.73,528.51,531.37,534.33,536.74,538.71,540.15,540.85,541.39,541.67,541.77,541.89,542.27,542.73,542.19,540.16,537.99,535.70,533.37,531.24,529.78,528.19,526.56,524.70,522.30,519.35,515.47,511.09,506.43,501.69,496.13,489.52,481.56,471.94,463.22,455.78,450.04,446.48,444.64,444.11,443.69,442.88,441.55,439.88,438.53,437.60,436.91,435.54,434.02,432.40,430.62,428.61,425.84,422.43,418.59,414.52,410.14,405.30,400.38,395.67,390.99,385.42,379.13,372.64,366.89,361.72,355.23,348.53,343.11,337.48,331.00,324.12,317.20,311.44,315.10,321.08,326.44,330.38,334.10,336.01,335.48,332.65,331.03,332.74,337.57,344.48,351.27,359.17,365.86,372.23,379.15,382.67,386.10,390.63,396.13,400.63,403.62,405.37,406.43,407.44,408.59,408.82,407.97,406.06,403.88,402.07,402.25,404.95,409.82,415.03,420.14,424.14,425.83,426.71,426.66,426.92,428.43,431.65,435.08,437.97,440.11,441.32,442.24,444.59,448.28,453.19,458.97,464.32,469.99,476.45,483.76,489.78,494.72,499.80,506.67,515.32,522.19,528.19,534.09,540.06,545.92,550.99,555.34,559.42,563.54,567.58,570.91,572.56,571.82,570.20,567.79,564.62,561.04,557.59,554.37,551.21,547.88,544.42,540.50,535.79,530.25,524.70,519.67,513.94,507.82,502.83,497.97,492.99,486.88,478.68,469.49,461.50,454.26,447.77,442.88,440.42,442.12,446.98,453.30,458.85,464.82,470.73,475.94,479.96,482.55,484.02,484.84,485.72,486.85,489.95,495.47,503.35,510.40,515.29,518.27,519.58
425.36,426.58,427.70,428.54,429.53,431.36,433.69,436.78,440.86,446.32,453.28,459.58,464.36,468.20,472.56,478.01,482.25,484.81,485.46,484.74,481.93,478.18,473.59,467.59,463.50,461.25,460.27,460.21,460.60,461.90,464.07,467.25,471.44,476.90,481.30,483.72,483.41,480.98,476.00,469.55,462.79,457.54,455.88,456.70,459.06,461.59,465.44,469.46,473.69,478.60,483.39,488.50,494.08,500.07,505.64,510.75,515.44,519.85,524.17,528.05,531.10,533.95,537.21,540.56,542.84,544.35,545.24,545.73,545.94,546.02,545.88,545.35,545.07,544.74,543.25,540.16,537.18,534.60,532.05,529.59,527.65,525.45,523.71,521.99,519.63,516.62,512.81,508.56,504.03,499.36,494.12,487.98,480.44,471.03,462.77,455.13,448.74,444.15,440.55,438.64,437.41,436.29,434.83,433.07,431.63,430.64,429.92,428.55,427.06,425.66,424.35,422.74,420.31,417.34,414.17,411.03,407.74,403.98,399.93,395.72,391.41,385.84,379.49,372.85,366.70,361.51,355.01,348.28,342.95,337.63,331.66,325.63,319.49,312.95,316.92,323.57,329.65,334.18,338.29,341.62,342.61,339.81,334.49,332.44,335.12,341.56,348.74,357.44,364.82,371.95,379.90,383.79,387.41,392.57,399.14,404.14,408.32,411.51,413.65,414.70,415.70,415.79,414.98,413.38,411.61,409.93,409.74,411.76,416.41,422.28,428.07,432.46,434.09,434.50,434.08,434.07,435.32,438.12,441.54,444.54,446.73,447.74,447.89,448.41,450.10,453.68,458.84,463.64,468.83,475.07,482.77,489.21,494.36,499.48,506.17,514.00,521.22,528.08,534.73,541.00,547.05,552.29,556.78,561.00,565.19,569.24,572.83,575.08,574.42,572.82,570.38,566.91,562.37,558.01,554.23,550.86,547.56,544.15,540.01,534.76,528.32,521.72,516.32,510.84,505.29,500.60,496.01,490.65,483.93,475.50,466.95,459.79,453.45,447.93,444.20,443.95,447.46,453.17,459.19,464.60,470.00,474.91,479.06,483.17,487.55,490.80,492.76,493.94,493.74,493.88,496.17,502.23,510.26,516.53,520.78,523.12
428.92,430.61,432.65,434.23,435.52,437.00,438.90,441.24,444.57,449.76,457.54,462.84,467.21,471.80,477.66,484.21,488.52,490.77,491.38,491.32,490.28,488.50,485.31,479.09,474.40,471.37,469.40,468.07,467.66,467.74,468.90,472.10,478.23,483.58,487.23,488.86,487.78,485.02,480.75,474.70,467.29,463.40,463.12,464.11,465.60,467.98,472.54,477.06,480.98,484.53,488.46,493.82,499.39,504.49,509.76,514.56,519.50,524.53,528.92,532.25,535.09,538.30,542.32,545.67,547.79,548.96,549.44,549.78,549.97,549.97,549.69,548.98,548.05,546.21,543.52,540.11,536.67,533.28,530.04,527.06,524.54,522.19,520.47,518.71,516.19,513.16,509.28,505.06,500.69,496.08,491.51,485.99,478.93,469.98,462.33,455.63,449.37,443.30,437.34,432.35,428.90,426.68,424.77,423.76,423.08,422.48,421.91,421.25,420.20,419.09,417.87,416.01,413.68,411.41,409.13,406.52,404.29,401.53,398.30,394.67,390.76,385.31,378.69,371.33,364.12,358.66,352.54,346.19,340.55,334.59,329.32,324.52,319.64,314.08,317.47,324.19,331.06,336.30,341.95,346.79,349.06,346.99,340.86,336.46,335.88,339.44,346.50,354.80,362.51,370.40,378.98,383.50,387.36,392.92,400.29,406.26,412.31,417.06,420.16,421.47,422.32,422.56,422.31,421.63,420.71,419.20,418.57,419.62,422.87,428.15,433.38,437.83,441.04,442.67,442.46,441.65,441.50,443.86,447.20,450.33,452.74,453.90,454.24,454.53,455.75,458.55,461.83,465.78,471.14,477.97,485.29,491.53,496.94,502.51,509.18,515.49,522.51,529.73,536.62,542.69,548.61,554.11,559.02,563.13,567.14,571.22,575.00,577.54,577.11,575.02,572.11,568.14,562.18,557.18,553.05,549.44,546.08,542.79,538.14,531.97,524.42,516.81,511.44,506.70,501.96,497.34,492.92,486.27,478.90,472.22,464.46,457.88,452.28,448.01,446.60,449.58,454.88,460.70,465.85,471.89,477.96,482.61,485.35,488.34,494.11,498.47,500.65,501.97,502.31,501.96,501.62,502.94,509.72,517.00,522.71,526.37
435.31,436.97,438.73,440.12,441.29,442.58,444.14,446.13,449.33,454.38,461.07,466.12,471.23,477.14,483.90,489.42,493.10,495.53,497.06,498.01,497.96,497.10,495.03,490.80,486.84,483.68,481.13,478.98,477.57,477.10,478.05,481.16,486.81,491.50,493.76,493.66,491.65,488.03,483.56,478.09,472.16,470.28,470.95,472.23,473.58,475.53,479.29,483.36,487.23,490.86,494.71,499.34,504.06,508.54,513.25,518.18,523.52,528.75,532.55,535.63,539.11,543.02,546.91,549.56,551.02,551.82,552.22,552.50,552.51,552.38,551.99,551.07,549.88,547.57,544.58,541.25,537.76,533.88,529.82,525.77,522.12,519.16,517.07,515.10,512.47,509.18,505.25,501.38,497.66,493.48,488.96,483.25,476.31,468.40,461.56,455.54,449.56,443.16,436.56,430.46,425.36,421.37,418.54,417.19,416.44,415.85,415.18,414.41,413.24,412.00,410.70,408.96,407.06,405.42,403.92,402.24,400.62,398.53,395.92,392.72,388.83,383.86,376.82,368.28,360.55,354.52,348.18,341.71,335.86,330.23,325.89,322.00,318.19,315.08,317.91,324.09,331.20,337.13,343.70,349.13,352.07,351.15,346.53,341.22,338.11,338.79,344.67,352.56,360.14,367.80,376.00,381.24,386.01,392.13,399.73,406.44,413.67,419.38,423.26,425.61,427.20,428.06,428.38,428.25,427.94,427.00,426.43,426.85,428.95,433.33,438.46,443.42,447.31,449.18,449.18,448.27,447.48,449.05,452.21,455.64,458.62,460.47,461.32,461.91,462.93,464.75,466.70,470.28,475.82,482.74,489.09,494.36,499.63,505.46,512.10,518.25,525.43,532.75,539.43,544.94,550.49,555.93,560.94,564.96,568.94,573.24,577.31,579.98,579.08,576.33,573.02,568.88,562.30,556.90,552.36,548.37,544.78,541.15,535.77,529.10,521.46,513.33,507.63,502.81,498.09,493.28,488.25,482.25,476.43,471.47,464.91,458.76,453.53,450.02,450.12,454.81,460.69,466.78,473.30,480.77,486.69,490.77,493.17,495.44,499.67,503.16,505.37,507.10,508.10,508.05,507.02,506.00,509.52,516.97,524.25,529.54
442.09,443.63,444.90,445.93,446.90,448.03,449.32,451.10,454.24,459.06,464.30,469.69,475.95,483.00,489.99,494.02,497.24,500.26,502.96,504.74,505.14,504.57,503.24,501.24,498.43,495.62,492.96,490.43,488.29,487.48,488.29,491.05,495.53,499.42,500.25,498.34,495.35,490.84,486.02,481.36,477.73,477.66,478.82,480.16,481.44,482.90,485.62,489.14,493.04,497.04,500.98,504.68,508.43,512.42,516.64,521.89,527.49,532.56,535.88,539.11,543.30,547.65,551.02,552.85,553.60,554.07,554.47,554.70,554.51,554.21,553.68,552.57,551.26,548.98,546.13,542.99,539.54,535.33,530.56,525.52,520.79,517.13,514.28,511.65,508.66,505.02,501.21,497.80,494.73,490.98,486.22,480.02,473.05,466.48,460.50,455.00,449.33,443.08,436.39,429.82,423.52,417.92,414.04,411.77,410.51,409.64,408.79,407.69,406.30,404.88,403.51,402.10,400.82,399.78,398.92,398.11,396.89,395.23,393.03,390.05,386.14,381.68,374.34,364.77,356.69,349.93,343.16,336.44,330.39,325.46,322.13,319.22,316.71,316.25,319.05,324.60,331.42,337.76,344.69,350.43,353.98,354.34,351.73,346.35,341.51,339.62,343.49,350.53,357.69,364.84,372.36,378.32,384.08,390.64,398.14,405.46,413.36,419.77,424.54,428.24,430.91,432.62,433.62,434.08,434.38,434.19,433.93,434.00,435.14,438.57,443.73,449.18,453.22,454.95,455.17,454.42,453.35,454.01,457.03,460.83,464.47,467.08,468.54,469.58,470.52,471.44,472.45,475.89,481.51,488.25,493.61,497.92,502.94,508.92,515.55,522.00,529.32,536.50,542.70,547.63,552.73,557.92,562.83,566.82,570.80,575.24,579.55,582.28,580.69,577.34,573.74,569.49,562.69,557.14,552.36,548.06,544.12,539.83,533.80,526.97,519.68,511.42,505.21,499.89,494.93,490.15,484.80,480.16,476.33,472.75,467.26,461.30,456.06,452.88,454.06,459.63,465.80,472.43,480.87,489.51,494.89,498.29,500.64,502.38,504.53,506.80,509.06,511.32,513.10,513.62,512.59,510.32,510.31,517.17,525.53,532.36
446.48,448.23,449.88,451.18,452.18,453.05,454.21,455.75,458.31,462.29,467.38,474.40,481.68,488.42,493.88,497.64,502.07,506.57,509.96,511.50,511.34,510.18,508.42,506.54,504.65,503.15,501.72,499.85,498.14,496.96,496.77,498.31,502.36,505.68,505.83,503.10,499.09,494.33,489.83,486.60,485.48,485.54,485.94,486.38,486.91,488.00,490.92,494.73,498.65,502.12,505.67,509.07,512.48,516.15,520.53,526.17,531.25,535.49,539.62,544.10,548.13,551.50,554.00,555.51,556.08,556.40,556.68,556.71,556.46,555.97,555.18,553.95,552.51,550.72,548.40,545.36,541.80,537.36,532.48,527.45,522.66,518.65,514.03,509.22,504.95,500.98,497.74,494.82,491.79,487.83,482.73,475.91,468.91,463.97,458.74,453.50,448.11,442.20,435.16,427.94,421.35,415.63,410.84,407.06,404.58,403.01,401.99,400.84,399.61,398.36,397.23,396.47,396.05,395.57,394.96,394.27,393.24,391.60,389.16,385.82,382.28,377.99,370.95,361.66,353.09,345.44,338.30,331.41,325.06,321.01,318.57,317.38,317.35,318.29,323.02,328.40,333.69,339.43,345.51,351.64,356.35,358.03,356.07,351.86,347.36,344.04,344.21,348.67,354.98,361.93,368.99,375.54,381.72,388.05,394.95,402.72,410.19,417.24,423.63,428.69,432.57,435.29,437.42,439.18,440.34,441.00,441.43,441.72,442.24,445.02,450.00,455.31,458.67,460.23,460.61,460.11,459.06,458.88,462.00,466.26,470.38,473.30,475.25,476.61,477.55,478.17,478.98,482.48,487.87,494.04,499.09,503.50,508.52,514.40,521.13,527.73,534.67,541.10,546.49,551.21,555.91,560.56,565.07,569.24,573.10,577.22,581.35,584.15,582.00,578.50,574.74,570.29,563.70,558.51,554.26,550.23,545.61,540.06,534.03,527.76,521.08,513.50,506.55,500.38,495.24,491.68,488.17,484.90,481.79,478.29,472.82,466.24,460.10,456.28,458.00,463.48,470.37,478.40,487.87,495.58,500.06,502.79,504.64,506.07,508.14,510.58,513.25,516.11,519.00,519.92,518.84,516.25,514.38,518.94,526.43,534.00
452.09,454.28,456.02,457.27,458.18,458.91,459.66,460.75,462.62,465.90,471.43,479.17,486.67,493.00,497.73,502.11,507.94,513.48,516.77,518.05,517.62,516.12,514.10,512.57,511.53,510.88,510.14,508.63,506.42,504.89,504.34,505.35,508.98,511.80,511.54,508.40,503.76,499.09,494.96,492.64,493.02,493.50,493.48,493.28,493.24,493.96,496.56,500.08,503.68,506.74,509.95,513.12,516.59,520.70,525.53,531.12,535.88,539.88,544.28,548.77,552.25,554.89,556.91,558.34,558.89,559.09,559.14,558.90,558.43,557.66,556.61,555.24,553.75,552.21,550.30,547.62,544.02,539.68,534.52,529.01,524.34,520.24,514.79,508.94,503.97,499.65,495.88,492.35,488.75,484.38,478.35,471.39,464.88,460.38,455.48,450.63,445.57,439.80,432.61,425.44,419.12,413.64,408.54,404.08,400.79,398.33,396.42,394.93,393.69,392.22,390.69,390.19,390.06,389.63,388.91,388.10,386.94,385.29,383.01,380.08,377.13,373.16,366.59,357.79,349.05,341.11,333.54,326.69,321.53,319.13,318.18,319.32,322.45,325.18,330.22,334.66,338.35,342.57,347.48,353.75,359.23,361.75,360.72,357.74,353.91,349.98,347.40,348.78,353.49,359.80,366.26,372.67,379.24,385.59,391.90,399.37,406.63,414.13,421.52,427.82,432.96,437.26,440.97,444.03,446.24,447.59,448.46,448.99,449.44,452.28,457.00,461.75,464.54,466.22,467.05,467.16,466.62,466.14,468.44,472.17,476.19,479.42,481.96,483.77,485.10,486.09,486.96,489.96,494.35,499.43,504.31,509.02,514.25,520.17,526.82,533.37,539.83,545.69,550.70,555.42,560.23,564.63,568.62,572.37,576.06,579.93,583.69,586.08,583.56,579.81,575.75,571.14,565.13,560.03,555.94,552.12,547.51,541.95,536.24,530.13,523.44,516.62,509.37,503.50,499.47,497.09,494.73,492.15,489.10,485.05,479.26,472.02,464.66,459.54,461.50,467.60,475.66,484.65,493.75,500.37,504.22,506.69,508.47,509.84,512.05,514.86,518.31,522.61,525.69,526.42,525.27,522.62,519.32,521.52,527.57,535.18
458.69,461.44,463.05,464.06,464.82,465.48,465.66,466.18,467.35,470.08,476.20,483.84,490.94,496.89,501.69,507.27,514.34,520.35,523.10,524.35,524.14,522.77,520.84,519.73,519.26,518.98,518.50,517.15,513.93,512.12,511.67,512.69,515.79,518.07,517.59,514.42,509.61,505.31,501.48,499.47,500.38,501.47,501.36,500.84,500.45,500.77,502.59,505.30,508.31,511.11,514.11,517.21,521.05,525.98,531.32,536.45,541.07,545.31,549.46,553.01,555.79,558.07,559.98,561.47,562.09,562.19,561.90,561.34,560.47,559.33,557.98,556.44,554.94,553.40,551.74,549.60,546.07,542.11,536.63,530.36,525.72,521.66,516.27,510.43,505.36,500.71,495.66,490.75,486.10,481.00,473.66,466.92,461.27,456.26,451.34,446.90,442.18,436.43,429.44,422.97,417.34,412.35,407.50,403.18,399.50,396.07,392.75,390.53,388.90,386.72,384.21,383.52,383.11,382.33,381.27,380.22,378.64,376.85,374.96,372.95,370.69,367.16,361.20,353.12,344.63,336.92,329.13,322.78,320.14,320.02,321.03,324.73,331.00,335.67,339.61,342.58,344.83,347.06,350.70,356.73,362.44,365.45,365.67,363.88,360.88,357.00,352.76,350.91,353.44,358.61,364.43,370.20,377.07,383.62,389.45,396.07,403.24,410.88,418.66,425.98,432.51,438.77,444.33,448.63,451.98,453.88,455.03,455.79,456.65,460.01,464.32,468.24,470.73,472.87,474.44,475.41,475.67,475.30,476.05,478.39,481.81,485.32,488.46,490.85,492.91,494.80,496.00,498.12,500.99,504.61,509.26,514.24,519.79,525.84,532.25,538.66,544.64,550.14,555.19,560.06,565.34,569.77,573.23,576.17,579.69,583.34,586.59,588.19,585.51,581.38,576.86,572.12,566.94,561.68,557.38,553.63,549.51,544.89,539.74,533.54,526.43,520.40,513.52,508.92,506.74,505.22,503.15,500.59,497.17,492.31,486.07,478.27,469.55,462.68,464.63,472.08,481.52,490.92,498.65,504.26,507.82,510.38,512.40,513.94,516.50,519.81,524.21,530.25,532.67,532.78,531.49,528.90,524.66,524.61,528.83,535.92
464.51,467.37,469.33,470.70,471.63,472.11,472.25,472.46,473.20,475.39,480.75,488.05,494.83,500.55,505.73,512.11,518.69,524.17,527.59,530.10,531.60,531.99,531.03,528.53,527.07,526.85,527.11,526.71,524.83,522.81,521.79,522.42,524.31,525.42,524.77,522.38,518.68,514.86,510.64,508.05,508.68,509.28,509.01,508.45,507.94,507.73,509.00,510.97,513.21,515.71,519.07,523.23,527.52,531.74,536.58,541.09,545.36,549.42,553.20,556.57,559.45,561.95,564.07,565.48,566.06,566.00,565.39,564.40,562.89,561.11,559.23,557.38,555.75,554.08,552.37,550.37,547.30,543.77,538.97,533.10,527.31,523.05,517.98,512.65,508.00,503.32,498.21,492.79,486.83,479.60,471.54,464.94,459.60,454.38,449.26,444.60,439.81,434.52,429.02,423.63,418.80,414.60,410.79,407.44,403.69,399.52,395.25,391.48,387.84,383.85,380.00,378.23,377.01,375.91,374.80,373.54,371.21,368.49,365.97,363.95,362.04,358.78,353.81,347.35,340.07,333.00,326.69,322.87,323.56,325.89,329.05,333.57,339.31,344.30,347.23,349.42,351.34,353.12,356.12,360.65,365.35,368.95,370.71,370.00,367.84,364.53,360.05,356.29,356.24,359.54,365.31,371.09,377.47,383.89,390.03,396.01,402.11,408.84,416.19,424.07,432.51,440.33,447.17,452.63,456.66,459.12,460.81,462.16,463.75,466.89,470.28,473.53,476.62,479.90,482.47,484.18,484.86,484.45,483.55,484.28,486.73,490.11,493.31,496.42,499.48,502.35,504.50,506.30,508.21,510.64,514.13,518.62,523.96,529.84,536.05,542.74,548.70,554.13,559.26,564.52,569.96,574.47,577.98,580.97,584.38,587.58,590.11,591.04,588.67,583.99,578.83,573.91,569.26,563.99,559.20,554.95,550.87,546.50,542.07,536.54,529.80,524.38,520.12,516.98,514.59,512.22,509.26,506.03,502.39,497.85,491.80,483.98,474.44,466.20,467.84,477.16,487.18,495.83,502.70,508.13,511.99,514.69,516.58,518.66,522.58,526.77,531.14,536.27,537.60,537.12,535.56,532.86,529.15,527.19,529.23,535.64
470.26,473.18,475.53,477.14,478.04,478.21,478.27,478.30,478.79,480.55,484.93,492.00,498.48,503.92,509.50,516.35,522.44,527.64,532.06,535.76,538.69,540.63,540.78,537.71,535.10,534.33,534.73,535.09,534.82,533.29,532.23,532.51,533.10,533.04,531.95,529.88,526.90,523.32,519.05,516.21,516.45,516.69,516.58,516.30,515.97,515.72,516.57,517.89,519.50,521.68,525.06,529.50,533.71,537.25,541.35,545.37,549.31,553.20,557.01,560.73,563.75,566.22,568.23,569.37,569.75,569.45,568.51,567.09,565.01,562.59,560.04,557.65,555.82,554.12,552.43,550.56,547.90,544.81,540.96,535.96,529.45,524.71,519.80,514.96,510.73,506.13,501.11,495.47,488.76,480.24,471.80,465.29,460.19,455.17,449.90,444.93,440.08,435.37,431.18,426.82,422.63,418.70,414.92,412.03,408.42,404.07,399.26,394.22,389.05,383.65,378.48,374.88,372.17,370.32,368.99,367.45,364.36,360.35,356.84,354.68,353.14,350.25,346.19,341.12,335.20,329.12,325.38,324.91,328.30,332.41,336.89,341.60,346.42,350.82,352.97,354.82,356.88,358.98,361.61,364.90,368.74,372.81,375.79,376.09,374.57,371.67,367.54,362.69,360.23,361.27,366.47,372.55,379.05,385.69,392.19,397.91,403.28,409.12,415.72,423.51,433.23,442.02,449.70,456.16,460.58,463.48,465.73,467.77,470.03,472.85,475.78,479.00,482.87,486.76,489.89,491.97,492.73,492.25,490.53,490.11,491.56,494.66,498.08,502.05,506.28,510.26,513.11,514.70,515.88,517.21,519.38,523.05,527.75,533.13,539.21,546.05,551.86,557.10,562.24,567.72,573.68,578.48,582.03,585.23,588.92,591.89,593.79,594.02,591.71,586.74,581.20,576.10,571.77,566.75,561.48,556.51,552.33,548.04,544.25,539.73,534.13,529.48,527.20,525.00,522.17,518.84,514.74,510.63,506.56,502.13,496.29,488.63,478.82,470.06,471.96,482.30,492.38,500.32,506.66,512.08,516.28,519.45,521.80,524.37,528.66,533.02,537.13,541.20,541.98,541.33,539.68,536.90,533.76,530.58,530.73,535.91
476.16,479.18,481.80,483.27,483.72,483.40,483.15,483.11,483.59,485.09,488.63,495.66,501.84,506.86,512.83,519.70,525.83,531.54,537.08,541.46,544.88,547.49,548.68,546.95,543.44,541.21,540.60,541.19,542.19,542.32,542.30,542.39,541.75,540.72,538.77,535.97,532.67,528.88,525.32,523.11,523.08,523.53,524.10,524.52,524.84,525.38,525.97,526.81,528.04,529.87,532.54,535.59,538.84,542.19,545.50,549.25,553.00,556.86,561.41,566.08,569.06,570.89,572.16,572.75,572.71,572.04,570.75,568.95,566.49,563.50,560.18,556.85,554.78,553.21,551.76,550.12,547.68,545.05,542.25,538.55,532.44,526.82,521.73,517.19,513.18,508.78,503.70,498.05,491.60,483.70,475.30,468.79,464.00,459.74,454.49,449.24,444.46,440.37,436.74,433.24,429.39,424.78,419.08,415.51,412.31,408.57,403.72,398.21,392.83,387.07,380.73,374.38,369.20,365.91,363.92,361.94,358.17,352.59,347.81,345.56,344.49,342.25,338.83,334.53,329.94,325.29,325.43,328.98,333.67,338.39,342.71,347.15,351.51,354.40,356.12,358.12,360.80,363.97,366.51,369.41,373.05,377.35,380.97,382.20,380.97,377.98,374.74,369.74,365.29,363.65,367.24,373.86,381.71,389.29,395.98,402.02,407.54,412.90,418.48,425.23,435.07,443.89,451.86,459.07,463.53,466.66,469.44,472.21,474.94,477.54,480.95,485.18,489.81,493.19,496.09,497.96,498.36,497.81,496.69,496.00,496.50,499.26,503.31,508.31,513.84,519.11,522.01,523.45,524.09,524.41,525.26,527.86,531.33,535.78,541.82,548.48,553.72,558.50,563.52,568.85,576.06,581.47,584.88,588.29,592.90,596.07,597.51,596.98,594.16,589.41,583.99,578.71,574.47,570.08,564.42,558.57,554.22,549.95,546.55,543.37,539.96,536.36,534.29,532.07,529.09,525.13,519.90,514.78,509.88,504.86,499.04,491.68,482.35,474.37,477.55,487.33,496.82,504.49,510.67,516.12,520.59,524.73,528.65,531.48,534.21,537.45,541.20,544.82,546.09,545.95,544.59,541.82,538.80,535.50,534.40,537.44
483.42,485.99,487.89,489.00,489.49,489.42,488.81,488.27,488.42,489.98,493.81,499.51,504.84,509.86,516.13,523.46,530.69,537.12,542.31,546.99,551.12,553.99,555.03,553.64,550.32,547.73,546.60,547.25,549.12,550.39,550.88,550.53,549.39,547.89,545.54,542.42,538.97,535.37,531.94,529.90,530.34,531.77,532.91,533.65,534.16,534.83,535.21,535.66,536.66,538.77,541.07,543.23,545.39,547.65,550.00,553.44,557.35,561.68,566.74,570.69,573.15,574.63,575.43,575.55,575.07,574.07,572.52,570.34,567.45,564.13,560.55,556.91,553.96,552.00,550.49,548.94,546.89,544.70,542.44,539.39,534.12,529.10,524.27,519.73,515.56,511.11,506.05,500.50,494.42,487.57,480.67,474.35,468.79,464.11,459.49,454.58,449.62,444.99,441.49,438.24,434.53,429.93,424.06,419.04,415.07,411.21,406.37,400.29,394.93,389.22,382.46,374.71,367.79,362.66,359.17,356.56,352.01,345.93,340.48,337.25,335.99,334.34,332.04,329.36,327.09,325.91,328.38,333.09,338.01,342.02,346.17,350.51,354.68,357.74,359.58,361.54,364.28,368.24,372.06,375.53,379.34,383.80,387.61,389.05,388.05,385.19,381.64,376.17,370.61,366.75,367.15,373.77,382.14,390.55,398.26,404.61,410.44,415.85,421.16,427.29,436.50,445.36,453.51,460.70,465.43,469.42,473.13,476.65,479.91,483.03,487.01,491.62,496.15,499.65,502.73,504.78,505.42,505.24,504.40,503.48,503.38,505.70,509.96,515.24,520.74,525.67,528.88,530.65,531.41,531.44,531.31,532.77,535.16,538.75,544.27,550.14,555.01,559.66,564.65,570.20,577.68,583.40,587.34,591.71,596.81,600.10,601.37,600.41,597.29,592.42,587.11,581.97,577.39,573.21,568.18,562.74,557.95,553.98,550.82,548.23,545.90,542.99,540.36,537.55,534.32,530.40,525.39,519.41,513.29,507.60,501.59,494.02,485.06,477.99,481.37,490.24,499.17,506.74,512.97,518.78,523.98,528.77,533.01,536.11,538.81,541.88,545.35,548.63,550.59,551.11,549.76,546.27,543.41,540.82,539.14,539.87
490.32,492.44,493.64,494.50,495.19,495.53,494.83,493.93,493.75,495.21,499.18,503.37,507.83,513.00,519.76,527.78,535.89,542.68,547.43,552.46,556.96,559.74,560.38,559.16,556.52,554.14,552.86,553.47,555.79,557.73,558.49,557.88,556.86,555.36,552.77,549.30,545.69,542.29,538.91,537.06,538.20,540.61,542.17,543.06,543.61,544.38,544.77,545.00,545.82,548.00,549.85,551.27,552.44,553.58,555.10,558.19,562.15,566.75,571.82,574.80,576.67,577.86,578.29,578.07,577.22,575.90,574.07,571.44,568.03,564.41,560.70,556.84,552.97,550.54,548.87,547.37,545.72,543.94,541.99,539.35,535.08,531.03,526.60,522.03,517.60,513.02,508.01,502.66,497.03,491.25,485.90,479.85,473.48,468.01,463.95,459.55,454.48,449.19,445.51,442.22,438.50,433.97,428.25,421.87,416.91,412.68,407.84,401.45,396.20,390.61,383.62,375.04,366.73,359.78,354.61,351.34,346.31,340.11,334.44,330.76,329.46,328.52,327.44,326.36,326.13,328.08,332.05,336.98,341.68,344.84,348.93,353.32,357.46,361.07,363.21,365.14,367.87,372.50,377.64,381.99,386.31,391.06,394.84,396.07,395.00,392.10,388.09,382.41,376.18,370.40,367.40,372.85,381.35,390.53,399.21,405.82,411.89,417.67,423.19,428.86,437.27,446.17,454.49,461.47,466.64,471.61,476.27,480.49,484.28,488.14,492.68,497.41,501.62,505.50,508.98,511.47,512.66,513.10,512.62,511.68,511.23,513.04,516.96,521.97,527.01,531.36,534.93,537.17,538.20,538.15,537.50,538.11,539.85,543.00,547.99,552.67,556.98,561.36,566.18,571.83,579.05,584.96,589.66,595.13,600.51,603.94,605.21,603.97,600.54,595.52,590.40,585.63,580.84,576.56,572.25,567.55,562.43,558.84,555.79,553.37,551.47,548.96,545.68,542.21,538.68,534.83,530.21,523.56,516.42,510.18,503.90,495.99,487.42,481.29,484.51,492.31,500.59,508.02,514.30,520.40,526.50,532.00,536.39,539.81,542.92,546.15,549.50,552.63,555.24,556.36,555.12,551.15,548.33,546.41,544.40,543.15
494.58,496.81,498.44,499.66,500.56,501.08,501.16,500.93,500.75,501.26,503.69,507.03,511.16,516.55,524.50,533.63,540.71,546.44,551.95,557.92,561.41,563.27,563.94,563.45,561.99,560.58,559.81,560.33,562.00,563.58,564.38,564.35,564.79,564.38,561.64,557.22,553.25,549.67,546.71,545.62,547.49,549.97,551.61,552.43,552.99,554.55,555.54,556.12,556.67,557.58,558.39,559.03,559.68,560.51,561.83,564.51,567.84,571.47,575.17,577.99,579.56,580.31,580.53,580.23,579.25,577.65,575.34,572.08,567.81,563.76,559.80,555.38,551.19,548.54,546.75,545.30,543.88,542.39,540.55,538.18,535.04,531.64,527.57,523.13,518.62,513.86,508.91,503.93,498.94,493.86,488.70,482.96,476.72,470.57,466.15,462.09,457.53,452.37,447.91,444.19,440.17,435.22,428.82,422.28,416.87,412.11,407.19,401.48,396.43,390.71,383.42,374.45,365.19,356.87,350.37,346.56,342.20,335.94,330.99,329.60,329.44,329.75,329.71,329.25,329.04,330.87,335.09,340.08,344.17,347.38,351.83,356.60,361.00,364.66,367.03,369.19,372.26,377.56,382.69,387.90,393.48,399.10,402.52,402.94,400.82,397.04,393.29,388.66,382.31,375.23,369.74,370.64,378.73,388.59,397.32,403.97,409.91,416.50,423.12,428.41,436.22,445.21,453.72,460.68,466.62,472.29,477.58,482.33,486.51,491.16,496.10,500.79,504.78,509.19,513.42,516.80,519.00,520.44,520.92,520.63,520.34,521.47,523.58,527.32,531.91,536.55,540.38,542.98,544.07,543.97,544.02,544.76,547.21,551.25,556.21,558.99,561.77,565.12,569.23,574.17,580.38,586.31,591.94,598.14,603.54,607.27,608.84,607.48,603.57,598.53,593.92,590.01,585.81,580.88,576.52,572.33,567.56,564.27,561.11,558.18,555.63,552.95,549.51,545.78,541.87,537.50,532.38,525.62,518.54,512.22,505.59,497.47,489.44,484.28,487.24,493.73,501.03,508.04,514.19,519.92,526.98,533.80,539.08,543.00,546.41,549.91,553.57,557.10,559.99,561.39,560.83,557.95,554.81,552.47,550.27,548.37
498.84,501.47,503.53,505.24,506.62,507.44,507.66,507.32,506.80,506.63,508.04,510.77,514.63,520.37,529.62,538.13,544.15,549.61,556.07,561.97,564.93,566.69,567.95,568.31,567.55,566.31,565.53,566.27,567.66,569.12,570.12,570.67,571.86,571.45,568.51,563.81,559.25,555.75,553.85,553.85,555.91,558.04,559.61,560.54,561.21,562.73,563.86,564.65,565.25,565.73,566.05,566.34,566.82,567.63,568.68,570.41,572.74,575.44,578.16,580.82,581.97,582.26,582.40,582.04,580.85,578.85,576.00,572.25,567.47,562.86,558.41,553.80,549.66,546.81,544.77,543.16,541.68,539.97,538.08,536.00,533.64,530.57,526.76,522.54,518.17,513.62,508.94,504.32,499.80,495.20,490.40,484.98,478.83,472.16,467.23,463.16,458.79,453.61,448.58,444.32,439.67,434.10,427.37,420.41,414.70,409.97,405.54,400.36,395.08,388.97,381.49,372.61,363.27,354.41,346.98,342.23,338.29,333.40,330.24,330.67,331.69,332.79,333.32,333.27,333.41,335.18,339.50,344.62,348.63,352.11,356.20,360.47,364.62,368.58,371.76,374.63,377.99,382.92,388.06,393.95,400.25,406.17,409.78,410.38,408.01,403.51,398.90,394.26,388.42,381.32,373.96,371.23,377.44,386.13,394.12,401.75,407.91,414.86,421.96,427.12,434.06,442.93,451.75,459.05,465.66,471.99,477.81,482.95,487.47,492.70,497.97,502.74,506.76,511.64,516.60,520.84,523.98,526.41,527.98,528.53,528.58,529.10,529.92,532.28,536.08,540.90,544.97,548.21,549.94,550.30,550.64,551.65,554.34,558.26,562.34,564.31,566.56,569.46,573.10,577.36,582.71,588.42,594.38,600.77,606.25,610.04,611.64,610.31,606.81,601.97,597.63,594.23,590.80,586.50,582.31,577.96,572.95,569.50,566.20,562.84,559.42,555.74,551.85,547.81,543.54,538.72,533.25,526.75,520.07,513.75,506.90,499.13,491.70,487.19,490.72,496.54,502.92,509.22,515.18,521.06,528.31,535.42,541.18,545.58,549.30,553.01,556.90,560.93,564.13,565.88,566.06,564.48,561.99,559.35,556.48,553.71
503.23,506.49,509.03,511.28,513.20,514.40,514.40,513.44,512.31,511.66,512.39,514.63,518.44,524.71,534.93,541.87,547.02,552.74,560.03,565.26,568.16,570.48,572.63,573.81,573.43,571.98,570.94,571.99,573.27,574.73,575.98,576.96,578.20,576.98,573.81,569.31,564.21,561.02,560.45,561.56,563.50,565.11,566.55,567.67,568.52,569.51,570.47,571.38,572.21,572.85,573.12,573.36,573.89,574.78,575.50,576.12,577.33,579.16,581.17,583.48,584.12,583.98,584.00,583.44,581.96,579.53,576.15,572.03,566.98,561.82,556.87,552.35,548.39,545.33,542.89,540.90,539.11,536.90,534.82,532.99,531.05,528.11,524.52,520.61,516.55,512.45,508.20,503.94,499.72,495.43,491.12,486.11,480.10,473.12,467.58,463.25,458.74,453.32,447.80,442.86,437.45,431.25,424.44,416.99,411.19,406.88,403.17,398.20,392.41,385.83,378.32,369.84,361.01,352.17,344.19,338.67,334.98,332.34,331.58,333.31,335.41,336.99,337.76,338.03,338.71,340.61,345.02,350.29,354.52,358.22,361.42,364.69,368.40,372.83,377.15,381.02,384.66,388.71,393.83,400.07,406.53,412.31,416.45,417.78,415.80,410.95,404.88,399.56,394.44,388.03,379.45,373.94,377.33,383.70,390.56,399.38,405.98,412.98,420.09,425.33,431.26,439.81,448.90,456.73,463.97,470.94,477.24,482.70,487.55,493.17,498.71,503.65,507.89,513.23,518.85,523.87,527.87,531.22,533.90,535.40,535.94,536.04,536.10,537.17,539.98,544.77,549.14,553.09,555.68,556.77,557.14,558.38,560.92,564.14,567.14,569.25,571.61,574.38,577.58,581.15,585.72,591.01,596.88,603.17,608.71,612.43,613.94,612.83,610.27,605.83,601.65,598.48,595.75,592.64,588.78,584.06,578.61,574.51,570.97,567.29,563.00,557.88,553.29,548.85,544.24,539.06,533.42,527.41,521.27,515.03,508.04,500.89,494.10,490.18,494.80,500.46,506.17,511.86,517.69,523.88,530.64,537.26,543.13,547.86,551.81,555.64,559.74,564.32,567.81,569.90,570.79,570.45,569.13,566.50,563.00,559.45
507.98,512.22,515.54,518.15,520.21,521.59,521.93,520.55,518.67,517.24,517.18,518.99,523.73,531.16,540.16,546.55,551.72,557.52,564.54,569.46,573.14,576.46,579.34,580.72,580.82,580.07,579.41,579.89,580.69,581.86,582.91,583.52,583.63,581.48,577.98,573.70,569.20,566.72,566.56,567.83,569.77,571.42,572.94,574.15,575.05,575.98,576.91,577.84,578.75,579.59,580.09,580.49,580.97,581.56,582.11,582.57,583.27,584.26,585.37,586.37,586.56,586.19,585.42,583.83,581.96,579.33,575.71,571.37,566.01,560.87,556.15,551.72,547.59,544.13,541.01,538.12,535.73,533.23,530.93,528.87,526.74,523.92,520.69,517.24,513.63,509.98,506.23,502.29,498.12,493.82,490.05,485.85,480.65,474.01,467.81,462.94,457.81,451.41,444.97,439.11,433.29,427.13,420.23,412.94,407.77,404.01,400.11,394.25,388.11,381.59,374.40,366.25,358.20,349.53,341.78,337.78,334.49,333.87,335.02,337.25,339.91,341.87,342.99,343.58,344.46,346.81,351.58,356.96,360.88,363.87,365.88,368.64,372.88,377.77,382.93,387.64,391.87,395.89,400.71,405.99,411.48,416.88,421.31,422.88,421.75,417.92,411.29,405.63,400.12,393.63,385.39,378.03,378.72,383.22,389.37,397.10,404.04,411.13,418.06,423.63,428.76,436.60,445.36,453.42,461.58,469.04,475.75,481.72,487.00,492.75,498.53,503.81,508.36,514.23,520.29,525.86,530.56,534.49,537.98,540.48,541.91,542.22,542.29,542.85,544.85,549.03,554.04,557.86,560.48,561.96,562.44,563.49,565.69,568.95,573.00,576.44,578.77,580.75,582.83,585.23,588.80,593.49,599.20,605.74,610.90,614.60,616.54,616.16,614.19,610.54,606.88,603.68,600.41,597.02,593.46,589.54,584.80,579.06,574.88,571.10,566.57,560.65,555.11,549.90,544.82,539.62,534.21,528.56,522.75,516.66,509.71,502.49,496.41,493.93,499.37,505.26,511.68,518.32,524.55,529.96,535.23,540.81,546.48,550.80,554.32,558.11,562.58,567.67,571.18,573.44,574.62,574.56,573.68,572.20,570.00,567.34
513.02,517.88,521.61,524.47,526.72,528.31,529.27,528.60,527.13,525.47,524.19,525.07,529.89,537.51,544.94,550.72,556.30,562.47,569.14,573.82,578.21,582.29,585.55,587.00,587.45,587.36,587.21,587.49,588.12,589.05,589.82,589.99,588.99,585.77,581.80,577.72,573.94,572.26,572.65,574.18,576.12,577.74,579.19,580.39,581.35,582.32,583.40,584.54,585.69,586.74,587.32,587.77,588.06,588.12,588.14,588.19,588.35,588.64,588.99,589.00,588.67,587.82,586.08,583.63,581.43,578.62,574.84,570.47,565.30,560.43,555.92,551.43,547.04,543.11,539.32,535.59,532.47,529.57,526.89,524.38,521.93,519.26,516.35,513.29,510.15,506.89,503.20,499.07,494.72,490.95,488.17,485.18,481.22,475.44,468.58,463.20,457.46,450.12,443.04,436.30,429.96,423.62,416.42,409.60,404.88,401.02,396.20,389.31,383.25,377.13,370.25,362.67,355.59,347.39,340.07,337.51,335.42,336.69,339.49,342.39,345.37,347.66,349.36,350.61,351.82,354.13,358.35,363.11,366.77,369.27,370.74,373.24,377.62,382.93,388.74,394.08,398.82,403.09,407.60,411.99,416.54,421.38,425.79,427.42,426.98,424.04,417.10,410.74,404.68,398.10,390.18,381.82,380.27,383.06,388.55,395.20,402.37,409.45,416.18,422.17,427.06,434.12,442.29,450.51,459.29,467.04,474.05,480.43,486.12,492.04,498.02,503.64,508.71,515.07,521.38,527.22,532.41,536.90,541.33,544.85,547.09,547.78,548.08,548.77,550.59,554.17,558.90,562.32,564.87,566.79,568.11,569.43,571.46,574.54,578.90,582.97,585.42,587.10,588.58,590.28,592.98,596.90,602.10,608.43,613.25,617.01,619.47,620.02,618.97,616.49,613.32,609.75,605.84,601.60,597.65,593.94,589.88,583.85,578.86,574.51,569.94,563.83,557.76,552.04,546.63,541.28,535.78,530.08,524.27,518.27,511.48,503.93,498.53,497.66,503.44,509.67,516.74,524.08,530.55,535.58,540.13,544.96,550.06,553.99,557.27,561.19,565.97,570.97,574.49,577.02,578.59,578.90,578.38,577.62,576.35,574.48
518.33,523.23,526.83,529.86,532.43,534.33,536.15,537.58,538.09,537.05,534.13,533.38,536.84,543.14,549.05,553.97,560.27,567.29,573.75,578.21,583.04,587.41,590.63,592.09,592.72,593.01,593.38,594.18,595.17,595.95,596.41,596.21,594.41,589.99,585.41,581.48,578.38,577.57,578.89,581.02,582.92,584.28,585.45,586.51,587.52,588.61,590.04,591.62,593.16,594.37,594.77,595.08,595.02,594.33,593.35,592.43,591.90,591.68,591.49,591.11,590.20,588.47,585.69,582.84,580.40,577.38,573.50,569.38,565.07,560.68,556.16,551.43,546.76,542.32,537.93,533.58,529.59,526.06,522.76,519.63,516.82,514.36,511.67,508.87,506.16,503.14,498.91,493.97,489.24,486.74,485.56,484.19,481.85,477.44,470.04,464.28,458.12,450.13,442.90,435.50,428.42,421.39,413.61,407.49,402.74,397.87,391.37,383.50,378.10,372.65,366.00,359.27,353.35,346.04,339.32,337.55,337.77,340.80,344.92,348.85,351.94,354.54,357.05,359.41,361.21,362.78,365.14,368.31,371.87,374.44,376.39,378.87,382.68,388.28,394.51,400.20,405.26,409.94,414.20,418.10,422.02,426.17,430.12,431.71,431.54,428.97,421.90,414.29,407.68,401.11,393.14,384.85,381.78,383.08,387.81,393.89,401.10,408.04,414.57,421.03,426.40,432.71,440.10,448.46,457.37,465.15,472.28,478.94,484.99,491.15,497.27,503.20,509.03,515.77,522.09,527.92,533.32,538.44,544.07,548.55,551.41,552.58,553.28,554.82,557.25,560.40,563.61,566.40,568.92,571.45,574.51,576.80,578.92,581.40,584.63,588.12,590.93,593.13,594.85,596.61,598.63,601.63,605.83,611.26,615.85,619.77,622.78,624.41,624.77,623.83,621.08,616.77,612.33,606.85,601.57,597.01,593.28,588.95,583.07,577.53,572.98,567.39,561.45,555.68,550.11,544.40,538.26,531.99,525.80,519.76,513.24,505.21,500.47,501.25,506.76,513.34,520.63,527.93,534.30,539.76,544.81,549.47,553.63,557.35,560.79,565.12,570.05,574.17,577.82,580.81,582.99,583.98,583.83,582.99,581.74,580.16
522.40,527.83,531.87,535.16,538.00,540.40,542.50,544.33,545.61,545.72,543.51,540.98,542.15,546.64,551.73,556.68,563.98,571.77,578.09,583.31,588.19,592.30,595.26,596.89,597.93,598.45,599.07,600.49,601.89,602.53,602.41,601.40,599.14,594.40,589.57,585.76,583.87,584.30,586.37,588.82,590.73,591.97,592.94,593.85,594.78,595.89,597.03,598.09,598.88,599.10,599.12,599.22,599.07,598.37,597.14,595.89,594.83,593.86,592.75,591.67,590.29,588.22,585.20,582.19,579.25,575.94,572.21,568.52,564.90,560.92,556.47,551.54,546.73,542.04,537.40,532.63,527.33,522.78,518.64,514.86,511.77,509.38,507.00,504.49,501.66,497.84,493.23,488.53,484.63,483.18,482.67,482.07,480.38,476.16,469.80,464.50,458.88,451.86,444.96,438.45,431.21,422.95,414.25,407.27,401.67,395.74,388.00,380.01,374.82,369.35,362.58,356.39,350.42,344.22,339.29,338.73,341.44,345.95,350.64,354.63,357.83,360.70,363.73,366.81,369.18,370.32,371.13,372.95,376.80,380.28,383.15,386.07,389.69,394.72,400.50,405.91,410.75,415.24,419.64,423.64,427.48,431.29,434.78,435.98,434.86,431.23,424.53,416.73,408.76,401.00,393.66,386.81,384.75,385.75,388.90,393.83,400.42,407.05,413.50,420.12,425.79,432.09,439.39,447.77,456.51,464.43,471.80,478.65,484.72,490.68,496.57,502.60,509.10,516.13,522.33,528.06,533.65,539.40,545.93,550.97,554.17,556.12,558.00,560.20,562.88,566.00,568.70,571.09,573.49,576.34,580.20,583.11,585.28,587.43,590.34,593.81,596.70,599.00,600.78,602.30,603.89,606.34,609.76,614.05,618.37,622.36,625.73,628.01,628.90,628.87,627.17,623.53,618.41,612.29,605.97,600.23,595.86,591.94,586.53,580.85,575.64,570.46,564.84,559.11,553.35,547.40,540.56,533.78,527.20,520.76,514.27,506.97,503.55,505.70,511.29,517.22,523.35,529.62,535.90,541.60,547.14,552.08,556.19,560.19,564.06,568.41,573.06,577.28,581.75,585.49,588.14,589.35,589.45,588.75,587.69,586.42
526.34,532.24,536.71,540.24,543.33,546.26,548.61,550.48,552.00,552.75,551.40,547.72,546.97,549.72,554.33,559.77,567.80,576.04,582.44,588.42,593.25,597.04,599.82,601.68,603.20,604.11,605.07,606.92,608.53,608.89,608.11,606.22,603.47,598.72,593.95,590.51,590.02,591.62,594.11,596.54,598.31,599.41,600.23,600.96,601.73,602.70,603.25,603.51,603.35,602.55,602.23,602.00,601.64,600.95,599.63,598.13,596.59,594.97,593.16,591.50,589.71,587.45,584.45,581.34,577.89,574.34,570.84,567.62,564.54,560.92,556.62,551.64,546.79,542.09,537.38,532.30,525.95,520.21,515.07,510.54,506.93,504.47,502.34,500.00,496.88,492.31,487.45,483.06,479.87,478.87,478.37,477.93,476.55,472.72,468.10,463.77,459.09,453.44,447.14,441.75,434.67,425.53,415.91,407.88,401.29,394.46,386.04,378.05,372.47,366.56,359.63,353.76,347.74,342.84,340.06,341.04,345.86,351.42,356.31,360.03,363.34,366.74,370.30,373.79,376.50,377.30,376.94,377.78,381.97,386.38,390.20,393.65,397.13,401.35,406.50,411.54,416.16,420.33,424.79,428.93,432.79,436.37,439.51,440.05,437.57,432.46,425.96,418.23,408.95,400.00,393.68,388.98,388.73,390.09,392.02,395.81,401.40,407.20,413.06,419.47,425.28,431.72,439.11,447.51,456.12,464.14,471.71,478.70,484.73,490.44,496.08,502.17,509.20,516.37,522.40,528.02,533.78,540.04,547.18,552.57,556.13,559.02,562.18,565.10,568.10,571.35,574.05,576.32,578.76,581.80,585.73,588.83,590.98,592.98,595.85,599.42,602.26,604.58,606.45,607.74,609.03,611.01,613.70,616.93,620.87,624.86,628.44,631.06,632.20,632.53,631.57,628.71,623.22,616.92,609.92,603.18,598.03,594.08,589.37,583.81,577.89,572.99,567.68,561.97,556.02,549.89,542.60,535.43,528.46,521.57,515.06,508.92,507.33,511.14,516.58,521.63,526.48,531.53,537.18,542.86,548.71,553.98,558.30,562.63,566.91,571.24,575.73,580.57,586.00,590.40,593.38,594.67,594.96,594.43,593.59,592.61
530.90,536.72,541.09,544.67,547.98,551.34,554.38,556.73,557.85,557.28,555.18,552.44,551.62,553.35,557.85,564.49,572.18,579.97,587.10,592.95,597.73,601.55,604.48,606.69,608.70,610.61,612.43,614.09,615.21,614.87,613.38,610.80,607.15,602.59,598.56,596.26,597.28,599.47,601.55,603.20,604.32,605.14,605.87,606.43,606.85,607.22,606.83,606.25,605.52,604.58,604.20,603.30,602.15,600.91,599.36,597.32,595.29,593.51,592.03,590.39,588.34,585.88,582.97,579.74,576.04,572.44,569.23,566.42,563.59,560.22,556.23,551.61,546.99,542.71,538.23,532.98,526.77,519.67,513.19,507.63,502.72,499.84,497.66,495.16,491.65,487.42,482.55,477.80,473.88,471.74,469.91,468.57,467.32,465.47,463.40,460.87,457.53,453.10,447.82,442.88,436.49,427.99,417.71,409.44,402.11,394.88,387.17,378.80,371.42,364.34,357.42,351.37,346.39,343.22,342.58,345.89,351.44,357.01,361.57,364.87,368.27,373.05,377.38,380.68,383.02,383.47,382.89,383.69,388.07,392.68,397.16,401.03,404.26,407.66,412.29,417.30,422.08,426.07,430.05,433.93,437.62,441.05,444.17,443.53,439.45,432.86,425.51,417.75,408.03,399.00,394.30,392.64,394.53,397.27,399.81,402.97,406.96,410.50,414.11,419.44,425.04,431.47,438.88,447.37,456.24,464.22,471.73,478.77,484.85,490.57,496.21,502.38,509.63,516.52,522.36,527.92,533.77,540.24,547.27,552.77,556.90,561.00,565.05,569.09,572.95,576.48,579.86,582.70,585.67,588.82,591.45,593.67,595.61,597.76,600.78,604.24,606.97,609.40,611.59,612.89,614.14,615.57,617.41,620.13,623.42,627.23,630.71,633.08,634.40,633.98,632.29,629.29,624.49,618.86,612.11,605.19,599.64,595.47,590.94,585.42,579.18,574.32,569.13,563.33,557.14,550.97,544.02,536.75,529.39,522.19,515.75,511.03,512.24,518.83,523.23,527.50,531.86,535.93,539.38,544.32,550.00,555.36,559.93,564.33,568.65,573.16,578.23,584.48,590.63,595.25,598.26,599.64,599.98,599.54,598.87,598.14
534.98,540.05,544.28,548.24,552.12,555.87,558.93,561.33,562.50,561.99,560.07,557.68,556.60,557.63,561.81,568.43,576.00,583.79,591.21,597.22,602.22,606.27,609.46,612.23,615.17,617.83,620.05,621.61,622.17,621.19,619.08,616.00,612.16,607.49,603.83,602.25,603.84,606.02,607.98,609.57,610.78,611.83,612.49,612.73,612.54,611.93,610.21,608.57,607.20,605.94,604.74,603.19,601.54,599.80,597.57,595.44,593.49,591.74,590.27,588.64,586.56,584.14,581.34,577.85,574.00,570.52,567.63,564.99,562.29,559.05,555.28,551.10,547.03,543.23,539.15,534.33,528.77,521.43,514.26,507.80,501.84,497.45,493.84,490.39,486.69,482.40,477.33,472.35,468.08,464.98,462.60,460.99,460.00,459.45,458.73,457.27,454.94,451.52,447.12,442.56,436.94,429.46,419.30,410.70,402.77,395.50,388.84,380.73,371.41,362.84,355.92,350.40,347.27,346.28,347.53,351.82,357.40,362.85,367.37,370.86,374.86,379.68,383.88,387.12,389.55,390.00,389.36,389.80,393.44,398.38,403.66,408.33,411.93,414.76,418.61,423.14,427.81,431.91,435.52,438.93,442.09,444.79,446.69,444.51,439.34,432.03,423.60,416.52,407.29,399.20,397.17,398.08,401.31,405.30,409.25,412.56,415.34,417.14,418.71,421.63,425.48,431.27,438.63,447.25,456.33,464.22,471.70,478.83,484.90,490.64,496.31,502.50,509.64,516.01,521.74,527.44,533.50,540.07,547.22,552.93,557.35,561.85,566.36,571.36,576.25,580.57,584.78,587.98,590.94,593.81,596.09,598.40,600.69,603.18,606.20,609.49,612.18,614.68,617.07,618.75,619.73,620.54,621.62,623.55,626.15,629.74,633.37,635.89,636.74,634.96,632.31,629.13,624.43,618.76,612.21,605.69,600.43,596.05,591.42,585.79,579.41,574.60,569.52,563.71,557.41,551.28,544.71,537.64,530.31,523.14,517.28,516.53,520.27,526.84,531.90,535.56,538.89,541.95,544.53,548.56,553.18,557.78,562.13,566.38,570.71,575.55,581.29,588.38,594.75,599.84,603.47,605.23,605.46,604.91,604.16,603.41
538.63,542.65,546.67,551.13,555.73,559.81,562.63,564.99,566.63,567.10,565.97,563.62,561.98,562.25,565.88,571.74,579.41,587.52,594.90,601.11,606.40,610.72,614.25,617.81,621.87,625.08,627.39,628.88,628.96,627.59,625.12,621.72,617.98,613.17,609.71,608.56,610.19,612.36,614.52,616.43,617.94,619.19,619.51,619.14,618.16,616.42,613.31,610.54,608.42,606.69,604.41,602.26,600.22,598.00,594.98,593.00,591.35,589.74,588.12,586.49,584.54,582.32,579.70,576.00,572.19,568.86,566.07,563.25,560.57,557.42,553.85,550.19,546.84,543.52,539.91,535.78,531.09,524.15,516.76,509.64,502.90,496.67,491.08,486.25,482.12,477.34,471.96,466.87,462.42,458.53,456.02,454.48,453.79,454.05,453.87,452.87,451.11,448.49,445.00,440.99,436.29,430.06,420.64,411.85,403.51,396.34,390.72,383.26,372.21,362.19,355.26,350.53,349.59,350.86,353.69,358.21,363.49,368.72,373.35,377.37,382.09,386.35,390.17,393.60,396.44,397.09,396.46,396.31,398.66,403.78,409.86,415.40,419.62,422.24,425.37,429.25,433.56,437.75,441.12,443.98,446.39,447.99,447.97,444.14,438.15,430.48,421.03,414.75,406.71,400.40,401.30,404.27,408.44,413.57,419.13,423.04,425.13,425.82,425.80,426.02,427.42,431.81,438.53,447.02,456.21,464.03,471.47,478.64,484.74,490.54,496.27,502.43,509.28,515.06,520.74,526.72,533.09,539.67,547.08,553.00,557.49,561.90,566.74,572.57,578.50,583.77,588.77,592.26,595.07,597.65,600.22,603.13,606.01,608.88,611.85,615.04,617.87,620.47,622.93,625.18,625.87,626.06,626.39,627.43,629.36,632.68,636.38,639.06,638.94,635.68,632.03,628.50,623.51,617.43,611.11,605.27,600.60,595.99,591.05,585.28,578.91,574.13,569.12,563.35,557.10,551.11,544.93,538.28,531.29,524.53,519.93,523.74,529.48,534.79,541.02,544.36,546.72,548.93,551.33,554.34,557.56,561.07,564.96,568.97,573.25,578.34,584.53,591.93,598.26,603.97,608.47,610.72,610.92,610.33,609.55,608.75
541.52,544.67,548.25,553.00,558.13,562.39,565.39,568.42,571.39,573.65,573.80,571.44,568.49,566.86,569.39,574.10,582.28,591.04,597.93,603.81,608.99,613.31,617.23,622.20,627.24,630.65,632.73,634.04,634.15,633.51,631.65,628.28,624.36,619.95,616.83,615.75,617.41,621.01,624.27,626.49,627.33,627.22,625.81,623.99,622.01,619.37,615.47,611.73,608.64,606.27,603.59,601.01,598.39,595.56,592.45,590.46,588.92,587.43,585.71,584.07,582.30,580.48,578.46,575.10,571.96,568.54,564.63,560.70,557.73,554.73,551.59,548.62,545.92,542.98,539.70,536.02,531.93,525.59,518.55,511.52,504.64,497.77,491.23,484.92,478.69,472.33,466.85,461.74,456.82,452.51,449.96,448.45,447.84,448.31,447.98,446.30,444.01,441.64,439.49,437.08,433.79,428.93,421.34,413.33,405.05,397.74,392.28,385.58,374.21,363.81,356.88,352.24,353.01,355.78,359.39,364.02,369.14,374.11,378.86,383.42,388.05,392.46,397.02,401.53,404.95,405.90,405.18,404.30,405.10,409.40,415.77,421.64,426.01,429.53,432.92,436.38,439.90,443.38,446.68,449.25,450.84,450.92,448.91,443.76,436.84,428.58,419.08,412.24,406.40,403.28,405.66,409.47,414.73,420.77,426.89,431.60,434.55,435.73,435.71,435.27,434.81,435.75,439.25,446.23,455.17,463.01,470.32,477.33,483.78,489.71,495.63,501.76,508.12,513.74,519.43,525.71,532.54,539.11,546.87,552.76,556.86,561.05,566.69,573.16,579.61,585.42,590.57,594.52,597.96,601.28,604.73,608.03,611.18,614.20,617.26,620.96,624.53,627.46,629.78,632.51,633.43,633.19,632.63,632.96,634.54,637.18,640.04,641.81,640.16,636.41,632.07,627.39,621.77,615.40,609.52,604.38,599.82,594.82,589.45,583.69,577.74,572.65,567.53,561.97,556.15,550.52,544.84,538.84,532.61,527.13,525.72,530.39,536.31,541.64,546.99,551.05,554.13,556.47,558.24,560.23,562.77,565.84,569.39,573.14,577.17,581.81,587.25,593.71,600.20,606.50,611.55,614.13,615.08,615.30,615.28,615.04
545.03,547.38,550.57,555.28,560.51,564.89,568.65,572.84,576.90,579.99,580.69,578.46,574.88,571.95,572.76,576.41,584.92,594.13,600.55,606.08,611.18,615.70,620.21,626.38,632.07,635.62,637.62,638.97,639.36,639.31,638.11,635.22,631.12,626.86,623.91,622.89,624.59,628.77,632.33,634.29,634.23,632.96,630.43,627.61,624.76,621.51,617.26,613.07,609.40,606.51,603.59,600.71,597.58,594.11,590.73,588.40,586.66,585.09,583.26,581.65,580.11,578.66,577.14,574.57,572.07,568.70,564.17,559.36,555.81,552.54,549.44,546.84,544.52,541.87,538.89,535.63,531.95,526.06,519.39,512.60,505.79,498.77,491.81,484.85,477.68,469.95,464.20,459.12,454.10,449.40,446.07,443.61,442.12,442.00,440.88,438.61,436.20,434.38,433.18,431.93,429.79,426.23,420.55,414.11,406.65,399.49,393.75,387.44,376.63,366.34,359.04,354.38,356.15,359.75,363.75,368.40,373.58,378.75,383.86,388.90,393.88,399.37,405.02,410.12,413.24,414.17,413.63,412.75,412.89,415.76,421.25,426.83,431.52,435.81,439.63,443.11,446.41,449.61,452.55,454.14,454.21,452.49,449.13,443.29,435.71,426.76,417.01,410.16,406.93,407.02,410.41,414.67,420.63,427.23,433.53,438.24,441.54,443.25,443.67,443.17,442.00,441.02,441.95,446.50,454.50,461.96,468.93,475.64,482.21,488.38,494.45,500.51,506.45,511.94,517.55,523.97,531.24,538.11,546.17,552.14,556.06,560.05,566.14,573.06,579.87,585.96,591.17,595.58,599.71,603.83,608.05,611.62,614.93,618.29,622.01,626.16,630.04,633.22,635.73,638.58,639.79,639.53,638.64,638.61,639.83,641.80,643.61,643.99,641.09,636.89,631.99,626.49,620.45,613.98,608.42,603.66,599.07,593.74,588.11,582.43,576.87,571.50,566.39,561.13,555.72,550.42,544.96,539.37,533.92,529.95,531.45,536.32,541.98,547.49,552.70,557.10,560.37,562.64,564.10,565.81,568.59,571.82,575.10,578.32,581.78,585.57,589.90,595.29,601.50,607.72,613.17,616.95,618.68,619.63,620.29,620.58
549.49,551.17,554.06,558.37,563.22,567.74,572.76,578.39,583.13,585.85,586.25,584.26,580.97,577.56,576.13,578.97,587.47,596.68,602.72,607.97,613.21,618.22,623.50,630.56,636.48,640.14,642.30,643.94,644.77,644.96,644.35,642.38,638.28,633.86,630.84,629.87,631.58,635.15,637.92,639.00,637.98,636.03,633.30,630.10,626.61,623.06,618.90,614.79,611.03,607.80,604.69,601.63,598.15,594.10,590.15,587.14,584.85,582.90,580.86,579.32,578.01,576.83,575.65,574.22,572.23,569.15,564.78,559.55,555.17,551.19,547.65,544.95,542.62,540.12,537.47,534.60,531.14,525.48,519.12,512.67,506.10,499.34,492.42,485.73,479.15,470.56,464.37,459.37,454.66,449.58,444.68,440.24,436.85,435.21,432.65,430.09,428.19,427.21,426.42,425.65,424.28,421.90,418.08,413.85,407.98,401.36,395.07,388.74,379.27,369.50,361.42,356.73,358.70,362.51,366.62,371.25,376.75,382.61,388.29,393.70,399.72,407.14,413.95,418.88,420.75,421.41,421.43,421.41,421.90,422.93,426.29,430.96,436.19,440.97,445.25,449.17,452.90,456.35,458.52,458.34,456.22,452.53,448.60,442.70,434.83,425.23,414.96,409.01,408.69,411.71,415.79,420.20,426.26,432.92,439.04,442.90,445.86,447.95,449.06,448.88,448.19,447.33,446.88,448.28,454.48,461.01,467.40,473.72,480.07,486.51,492.73,498.65,504.25,509.56,514.97,521.35,528.94,536.54,544.79,551.00,555.16,559.01,565.03,572.16,579.22,585.36,590.61,595.43,600.20,605.03,609.80,613.53,616.99,620.91,625.84,630.23,633.88,637.20,640.28,642.90,644.43,644.65,644.14,644.14,645.06,646.41,647.01,645.63,641.89,637.15,631.82,625.99,619.79,613.43,608.03,603.35,598.62,593.10,587.40,581.88,576.59,571.06,566.12,561.16,556.07,550.99,545.40,539.96,535.22,532.80,536.47,541.34,546.60,552.29,558.48,562.63,565.39,567.36,569.02,571.32,575.13,579.06,582.12,584.50,587.09,589.73,592.73,597.07,602.45,607.78,613.44,619.29,621.67,623.15,624.31,625.03
555.65,557.35,559.85,563.42,567.94,573.30,578.48,583.88,588.56,591.53,591.95,590.19,586.81,582.87,580.65,583.41,590.64,598.41,603.95,609.12,615.56,621.46,627.16,635.33,640.95,644.64,647.07,648.52,649.60,650.05,649.79,648.53,645.73,641.97,638.81,637.20,638.28,641.08,642.88,643.09,641.54,639.21,636.33,632.98,629.27,625.59,621.98,617.92,613.87,610.53,607.12,603.92,600.62,596.79,592.10,588.41,585.19,582.15,579.36,577.41,576.04,574.85,573.66,572.81,571.39,568.88,565.03,560.15,555.60,551.19,547.06,543.53,540.15,537.39,535.01,532.51,528.64,523.18,517.34,511.54,505.74,499.50,492.55,485.78,479.59,471.32,465.36,460.40,455.51,450.22,444.71,439.25,434.17,429.88,426.05,423.37,421.48,420.16,419.27,418.81,417.94,416.39,414.14,411.27,406.69,401.11,395.28,389.16,380.87,371.69,363.16,358.40,360.25,364.25,368.89,374.34,380.20,386.22,391.99,397.73,405.25,413.21,419.37,423.14,425.14,426.65,427.89,428.83,429.41,429.98,431.67,435.11,440.42,446.22,450.66,454.52,458.06,460.87,461.75,459.99,456.63,452.38,447.98,442.13,434.58,425.41,415.78,411.85,414.00,419.06,423.86,427.63,432.33,437.72,443.10,446.97,450.74,453.41,454.83,455.11,454.64,453.81,452.87,452.57,455.46,460.40,466.05,471.87,477.69,483.95,490.26,496.09,501.00,506.09,511.46,517.49,524.74,533.73,541.86,548.58,553.86,557.93,563.45,570.32,577.36,583.54,588.67,593.81,599.08,604.43,609.62,613.80,617.80,622.17,627.17,631.47,635.16,638.67,642.11,645.13,647.58,648.80,649.12,649.63,651.56,652.04,650.90,648.14,643.64,638.24,632.52,626.49,619.84,613.71,608.64,604.22,599.74,594.41,588.71,583.32,578.36,572.91,567.86,562.75,557.50,552.28,546.57,541.08,536.70,535.22,539.42,544.42,550.08,556.46,562.77,567.42,571.03,574.09,576.93,580.08,583.77,587.32,590.11,591.94,593.85,595.67,597.69,600.79,604.87,608.83,613.72,620.00,622.76,624.85,626.88,628.60
561.95,563.89,566.31,569.46,573.77,579.62,584.50,589.57,594.17,597.32,597.73,596.16,592.83,588.61,585.69,587.77,593.42,599.77,605.12,610.82,618.17,624.73,630.80,639.56,644.97,648.64,651.17,652.52,653.82,654.65,654.84,654.17,652.61,649.64,646.46,644.19,644.56,646.51,647.42,646.93,645.11,642.56,639.60,636.27,632.68,629.14,626.08,622.29,618.13,614.39,610.40,606.78,603.46,599.94,594.88,590.57,586.46,582.44,578.94,576.30,574.34,572.73,571.42,570.80,569.86,567.99,564.92,560.65,556.15,551.51,546.94,542.65,538.07,534.47,531.75,529.28,525.03,519.96,514.83,509.84,504.83,498.94,492.01,485.22,479.24,471.54,465.91,460.91,455.74,450.45,444.82,438.91,432.73,426.45,421.66,418.63,416.26,414.09,412.74,412.35,411.61,410.38,409.36,407.49,404.02,399.51,394.40,388.63,381.27,372.81,364.55,360.05,361.77,365.86,371.03,377.38,383.46,389.38,395.13,401.22,409.66,417.67,423.10,426.15,428.88,431.59,434.01,435.73,436.36,436.83,437.47,440.05,445.23,451.41,455.92,459.80,463.06,464.67,464.05,460.94,456.75,452.32,447.50,441.73,434.78,426.64,418.28,416.44,420.30,426.52,431.81,434.90,438.22,442.39,447.24,451.57,456.03,459.26,461.17,462.13,462.02,461.38,460.31,459.03,458.81,461.68,465.86,470.61,475.93,481.49,487.47,493.06,497.46,502.28,507.55,513.32,520.34,530.24,538.24,545.37,551.69,556.49,561.75,568.19,575.00,581.21,586.23,591.40,596.91,602.67,608.15,612.69,617.40,622.33,627.12,631.23,635.14,639.05,642.92,646.44,649.72,652.01,653.43,654.69,657.20,656.98,654.56,650.72,645.63,639.68,633.67,627.59,620.72,614.94,610.15,605.91,601.69,596.82,591.20,585.75,580.76,575.28,570.05,564.71,559.25,553.84,548.07,542.56,538.32,537.16,541.36,546.67,552.79,559.61,566.28,571.78,576.63,581.02,584.90,588.69,592.18,595.39,598.13,599.72,601.22,602.59,603.97,605.92,608.52,611.25,615.24,620.94,623.85,626.43,629.17,631.70
567.59,569.87,572.99,576.73,581.13,586.16,590.30,595.80,600.72,603.46,603.63,602.13,599.42,595.65,591.31,590.79,594.85,600.72,606.69,614.33,621.29,627.65,634.14,642.11,647.87,651.37,653.56,655.32,656.85,658.39,659.34,659.14,657.87,655.58,652.64,650.11,649.94,651.00,651.28,650.55,648.81,646.27,643.35,640.37,637.46,634.57,631.83,628.86,625.16,620.13,615.00,610.16,606.04,602.56,598.25,593.36,588.69,584.47,580.67,576.89,573.27,570.38,568.83,568.02,567.21,566.04,564.11,560.68,556.38,551.76,547.21,542.83,537.32,531.69,527.17,523.95,519.71,515.49,511.43,507.42,503.04,496.85,490.12,483.63,477.52,470.32,464.84,459.64,454.22,449.38,444.27,438.71,432.79,426.84,421.73,417.69,413.96,410.36,407.94,407.21,405.82,403.87,403.41,402.16,399.55,395.90,391.46,386.29,379.32,371.94,365.46,362.08,363.82,367.81,373.19,380.15,386.12,391.59,397.30,403.84,411.55,419.17,424.86,428.79,432.91,436.99,440.10,442.07,442.81,443.26,444.14,446.91,451.74,456.42,460.91,465.34,468.53,468.10,465.73,461.71,457.17,452.63,447.41,441.69,435.72,429.44,423.18,422.83,426.86,432.67,437.87,440.65,443.41,447.30,452.50,457.90,462.02,465.60,468.71,470.79,471.56,471.49,470.75,469.29,467.45,467.45,468.45,470.74,475.78,479.73,484.33,489.31,493.85,498.26,503.22,509.17,516.61,525.77,533.88,541.00,547.60,554.16,560.00,565.94,572.15,578.33,583.38,587.92,593.16,599.15,604.68,609.23,614.76,620.59,625.21,629.05,633.47,638.23,642.88,646.81,650.28,653.48,656.41,658.71,659.98,659.60,657.35,652.95,647.67,641.46,635.40,629.60,623.29,617.97,613.24,608.85,604.71,600.69,595.35,589.45,583.51,577.57,572.09,566.64,561.11,555.63,549.93,544.61,540.19,538.21,542.07,548.05,554.24,560.66,568.73,575.50,581.73,587.22,591.17,594.92,598.71,602.41,605.64,607.58,609.27,610.83,612.21,613.35,614.31,616.51,619.75,623.43,626.11,628.85,631.59,634.19
571.58,573.98,577.94,582.84,587.77,592.05,596.54,602.03,606.73,609.24,609.18,607.14,604.47,601.11,596.40,594.41,596.53,601.26,607.90,617.25,624.48,630.95,637.41,643.79,649.19,652.83,655.36,657.65,660.02,662.56,664.36,664.70,663.53,661.42,658.67,656.05,654.99,655.05,654.68,653.74,652.18,649.64,646.82,644.09,641.55,639.11,636.63,633.87,630.40,625.60,619.98,614.19,608.96,604.60,600.38,595.46,590.63,586.20,582.17,578.00,573.69,569.89,567.23,565.02,564.09,563.53,562.47,559.60,555.61,551.23,546.90,542.73,537.32,531.04,525.46,521.05,515.54,511.23,507.65,504.18,499.81,493.87,487.66,481.25,474.46,468.08,462.98,457.93,452.95,449.60,446.18,441.15,435.49,431.13,426.94,422.30,417.20,412.02,407.96,404.91,401.99,399.46,398.48,396.88,394.33,391.09,387.15,381.89,375.48,369.69,365.72,364.44,366.07,370.04,375.73,382.47,388.23,393.46,399.11,405.80,413.18,420.27,426.33,431.58,436.98,441.79,445.44,447.95,449.35,450.39,452.01,454.69,458.44,462.38,467.48,471.80,473.96,472.23,468.71,464.15,459.29,454.28,448.45,443.17,438.05,432.77,427.61,427.08,431.36,437.49,442.30,445.24,448.50,452.68,457.81,463.06,467.31,471.61,475.70,478.43,480.22,480.78,480.51,479.55,477.72,476.28,475.63,476.44,479.82,483.06,486.93,490.92,494.24,497.39,501.24,506.41,513.36,521.85,529.86,536.71,543.00,549.94,556.55,562.81,568.90,574.77,580.01,584.52,589.29,594.75,600.72,605.58,611.12,617.16,622.74,626.87,631.35,636.47,641.90,646.34,650.32,654.06,657.48,660.12,661.40,661.07,659.13,655.34,650.27,644.20,638.20,632.47,626.59,621.32,616.48,611.93,607.63,603.38,598.09,592.15,585.84,579.37,573.77,568.39,563.04,557.94,552.95,548.10,543.43,540.19,542.86,548.67,554.71,560.84,569.34,577.48,584.90,590.97,594.88,599.20,604.04,608.59,612.18,614.57,616.53,618.09,619.17,619.65,620.09,622.13,625.12,628.16,630.91,632.96,635.00,637.32
574.64,577.39,582.39,588.48,594.04,597.91,602.97,608.13,612.42,614.95,614.89,612.43,609.55,606.30,601.69,598.74,598.91,602.31,609.54,620.00,627.65,634.26,640.41,645.18,649.99,653.87,656.96,659.80,663.19,666.59,669.11,669.97,669.00,667.10,664.69,662.19,660.26,659.31,658.19,656.93,655.56,653.13,650.45,647.82,645.36,643.14,640.80,637.97,634.62,630.51,624.79,618.37,612.14,606.65,602.16,597.30,592.41,587.76,583.59,579.38,574.85,570.38,566.34,562.35,560.82,560.43,559.92,557.53,554.00,550.06,546.10,542.21,537.32,531.06,524.90,519.29,512.33,507.44,503.75,500.28,495.71,490.24,484.50,478.11,470.91,465.50,461.15,456.86,452.92,451.22,449.57,445.27,440.02,437.17,434.06,429.07,422.87,416.23,410.42,404.59,399.93,396.72,394.54,391.90,388.88,385.64,382.01,376.83,371.56,367.87,366.57,367.38,368.83,372.64,378.35,384.57,390.08,395.16,400.81,407.64,414.82,421.38,427.90,434.52,440.95,446.16,450.25,453.44,455.80,457.76,460.16,462.63,465.27,469.06,474.68,478.58,479.67,477.38,473.06,468.07,462.83,457.21,450.80,445.82,441.24,436.52,431.91,430.43,434.75,441.36,446.03,449.50,453.70,458.38,463.23,467.85,472.43,477.40,482.12,485.22,487.87,489.07,489.46,489.35,488.32,486.35,484.89,484.62,485.85,488.95,492.50,495.53,497.40,499.16,501.59,505.43,511.18,518.60,526.16,532.56,538.30,544.94,552.08,558.83,565.00,570.57,576.11,580.96,585.41,590.14,596.39,601.72,607.09,613.07,619.68,624.38,628.92,634.30,640.42,645.39,649.96,654.01,657.53,660.32,662.14,662.01,660.48,657.66,652.94,647.24,641.45,635.84,630.26,624.90,619.76,614.90,610.37,605.52,600.20,594.39,587.99,581.04,575.39,570.28,565.39,560.80,556.62,552.13,547.14,542.81,544.08,549.12,554.70,560.50,568.86,578.24,586.64,593.08,597.04,602.25,608.32,613.76,617.69,620.55,622.88,624.46,625.21,625.26,625.75,627.86,630.79,633.71,636.50,637.68,638.87,640.83
576.83,581.23,587.83,594.30,600.00,604.87,609.39,613.65,617.69,620.98,621.86,620.65,617.53,613.17,608.69,605.06,603.80,606.25,613.58,623.05,630.52,636.86,642.47,647.01,651.50,655.41,658.82,662.12,666.03,669.29,671.70,672.98,672.86,672.24,670.93,669.08,667.13,665.17,662.96,660.98,659.55,657.74,655.24,652.33,649.29,646.66,644.11,641.20,637.78,633.55,628.18,622.05,615.81,609.87,604.63,599.24,594.02,589.21,584.99,580.93,576.39,571.57,566.67,561.45,557.75,555.86,555.13,553.34,550.72,547.62,544.21,540.44,535.94,530.04,523.87,517.86,511.06,505.19,499.98,495.18,490.54,485.54,479.47,473.19,467.77,463.36,460.96,459.25,457.72,456.43,454.78,451.60,447.46,443.52,439.75,434.82,428.61,421.36,414.31,407.36,401.68,397.22,392.91,388.14,383.74,379.69,375.93,372.72,370.88,370.34,370.98,372.15,373.50,376.22,380.57,386.49,391.79,396.77,402.75,410.23,416.98,423.31,430.31,437.83,444.45,449.78,454.13,458.03,461.76,464.81,467.26,469.54,472.35,477.03,481.59,485.02,486.73,485.50,480.75,475.13,469.23,463.00,456.61,450.68,445.53,440.98,436.56,433.97,437.19,443.66,449.75,454.54,459.56,464.52,469.07,473.20,478.04,482.82,487.08,490.35,492.82,494.67,496.18,497.27,497.31,496.05,494.46,493.06,492.61,496.33,500.12,502.96,504.88,506.24,507.49,509.42,512.60,517.27,523.24,528.82,534.08,540.12,546.43,552.86,559.07,564.92,570.97,576.60,581.63,586.27,591.38,597.32,603.31,609.24,615.18,620.63,626.08,632.10,638.57,643.97,648.85,653.06,656.79,660.26,662.45,662.85,661.88,659.47,654.98,649.75,644.66,639.72,634.20,628.83,622.92,617.14,612.50,607.55,602.25,596.52,590.17,583.09,577.39,573.09,569.42,565.04,560.92,555.77,550.32,546.33,546.95,550.23,554.42,559.54,567.09,577.02,585.94,592.73,597.31,603.71,610.36,616.21,620.65,623.86,626.84,628.86,629.77,629.93,631.00,633.35,636.14,638.61,640.77,641.74,642.84,644.70
579.87,585.60,592.64,599.37,605.57,611.15,615.16,619.66,624.05,627.40,628.72,628.42,625.81,621.60,617.27,612.62,610.33,611.93,618.46,626.56,633.73,639.77,644.85,649.42,653.71,657.53,661.03,664.48,668.34,671.31,673.65,675.41,676.32,676.70,676.23,675.03,673.42,670.94,668.25,665.88,664.12,662.36,660.04,657.25,654.11,650.81,647.50,644.15,640.50,636.12,630.94,624.96,618.71,612.56,606.87,601.32,596.13,591.24,586.44,582.23,577.67,572.84,567.83,562.09,556.42,552.47,550.51,548.90,546.81,544.41,541.59,537.99,533.78,528.11,521.85,515.59,509.25,503.08,496.90,490.98,486.00,481.22,475.66,470.65,467.66,465.13,464.27,463.98,463.44,461.94,459.82,456.91,453.07,448.20,443.88,439.22,433.16,425.25,417.18,409.44,403.12,397.87,392.07,385.88,380.50,376.52,374.48,373.52,374.59,376.62,378.73,379.70,380.47,381.73,384.18,388.75,393.47,398.78,405.36,413.23,419.94,426.08,432.97,440.52,447.32,452.71,457.76,462.71,467.26,470.87,473.97,476.90,480.09,484.30,487.74,490.44,492.05,491.26,486.95,480.97,474.26,467.31,461.07,454.99,449.73,445.25,440.87,437.49,440.00,446.37,453.31,459.17,464.71,469.74,474.12,478.28,483.14,487.52,491.24,494.53,497.28,499.80,502.14,504.08,504.94,504.40,502.96,501.04,499.77,503.32,507.04,509.93,512.18,513.81,514.93,516.09,517.64,519.91,523.84,527.98,532.24,537.38,542.48,548.13,554.00,559.81,565.75,571.82,577.49,582.54,587.04,592.83,599.41,605.88,611.39,617.09,623.20,629.83,636.67,642.43,647.57,652.04,656.12,660.10,662.52,663.60,663.25,661.01,657.20,651.92,646.92,642.48,637.41,632.05,625.69,619.33,614.37,609.40,604.15,598.65,592.80,586.38,580.70,576.75,573.72,569.48,564.90,559.17,553.52,549.84,549.99,551.65,554.47,558.72,565.05,574.60,583.61,590.74,595.83,602.61,609.81,616.33,621.48,625.20,628.68,631.23,632.80,633.84,635.46,637.65,639.95,641.96,643.83,645.13,646.51,648.35
583.76,590.25,596.71,603.81,610.89,616.65,620.37,626.12,631.24,633.97,635.19,635.29,633.81,630.90,626.76,621.00,618.04,618.87,623.80,630.50,637.34,643.11,647.78,652.49,656.58,660.18,663.53,666.84,670.15,672.84,675.22,677.48,679.38,680.36,680.38,679.73,678.67,676.25,673.76,671.40,669.08,666.83,664.63,662.30,659.47,655.43,650.98,646.85,642.83,638.34,633.18,627.14,620.82,614.64,608.80,603.52,598.73,593.86,588.02,583.35,578.73,574.18,569.74,564.17,557.13,550.95,546.82,544.74,542.59,540.58,538.31,534.90,530.72,525.08,518.73,512.30,506.56,500.69,494.28,487.74,482.30,477.73,473.68,471.01,470.66,470.62,470.76,470.55,469.54,467.31,464.39,460.87,456.53,451.10,446.48,442.23,436.31,427.70,418.85,410.51,403.85,398.31,391.76,384.96,379.23,376.26,377.42,378.81,381.96,385.72,388.81,389.34,389.23,388.92,389.22,391.49,395.16,401.15,408.58,416.57,423.60,429.54,435.74,442.58,449.57,454.96,461.13,467.38,472.21,475.98,480.28,484.52,488.11,490.73,493.22,494.99,495.67,494.53,491.22,485.16,477.66,469.96,463.91,458.49,453.59,449.09,444.69,440.92,443.12,449.39,456.53,463.21,469.01,474.03,478.47,483.07,487.67,491.52,494.77,498.05,501.53,504.73,507.60,510.00,511.45,511.47,510.36,508.53,507.15,509.77,513.10,516.16,518.86,521.35,523.35,524.89,525.91,526.43,528.08,530.24,533.02,537.07,540.84,545.45,550.66,556.11,561.42,567.45,573.60,579.27,583.70,588.60,595.55,602.94,608.47,613.98,620.52,627.67,634.83,640.85,646.23,651.07,655.58,659.87,662.41,664.28,664.59,662.36,659.55,653.87,648.40,644.15,639.87,634.49,628.03,621.45,615.98,611.08,606.00,600.90,595.90,590.71,585.25,581.20,578.09,573.86,568.44,562.34,556.76,553.26,553.10,553.48,555.03,558.22,563.00,571.30,579.97,587.40,592.85,599.27,606.92,614.28,620.25,624.69,628.51,631.62,634.21,636.73,638.86,640.61,642.20,643.86,645.81,647.80,649.72,651.58
587.39,593.35,600.25,608.89,617.01,621.76,625.99,631.89,636.73,638.98,640.12,640.33,639.19,636.71,632.80,627.94,624.83,624.66,628.44,634.93,641.38,647.10,652.16,657.02,660.25,663.11,666.02,669.06,672.05,674.61,677.00,679.28,681.09,682.25,682.42,681.81,680.97,679.65,678.01,675.90,673.22,670.71,668.18,665.53,662.54,658.69,653.85,649.07,644.53,639.98,634.82,628.94,622.73,616.51,610.65,605.67,601.31,596.71,590.44,585.12,580.24,575.92,572.23,567.58,561.45,554.63,548.05,543.36,539.50,536.75,534.33,530.78,525.10,519.29,513.46,507.57,502.08,496.13,490.14,484.49,479.88,477.41,476.10,475.69,476.27,477.04,477.29,476.77,475.07,471.66,467.63,463.25,458.31,452.49,447.55,443.19,437.19,428.35,419.30,410.80,404.00,398.26,391.29,384.41,379.68,378.05,380.29,383.94,388.04,391.87,394.82,395.99,396.23,395.70,395.08,395.55,397.20,403.45,411.78,420.00,427.17,432.72,438.20,444.29,451.06,456.47,463.57,470.75,475.68,480.67,485.75,490.12,493.47,496.40,498.95,500.09,499.64,497.40,493.50,487.52,480.25,472.52,466.21,460.97,456.10,451.42,447.19,443.77,445.22,450.63,458.34,466.18,472.49,478.11,483.42,488.07,491.88,495.14,498.32,502.06,506.05,509.72,513.08,515.95,517.68,518.00,517.17,515.49,513.88,515.91,518.89,521.91,524.95,528.66,531.97,534.34,535.49,535.69,535.92,536.28,537.53,541.14,544.60,548.77,553.70,559.20,564.29,569.44,574.63,579.47,583.20,587.07,593.13,600.13,606.16,612.15,619.52,626.97,633.64,639.61,645.11,650.22,655.08,659.67,662.57,665.03,665.76,663.55,661.09,656.22,650.83,645.93,641.77,636.13,629.58,622.92,617.16,612.84,608.52,604.06,599.41,594.40,590.13,586.28,582.25,577.09,571.13,565.13,559.91,556.72,556.71,556.81,557.32,558.81,562.09,568.78,576.55,583.86,589.70,596.13,603.27,610.28,616.57,622.14,626.32,629.78,633.00,636.35,639.30,641.47,643.30,645.20,647.24,649.27,651.25,653.20
590.48,596.00,603.89,613.58,622.00,626.11,631.48,637.04,641.16,643.17,644.34,644.75,643.98,641.84,638.11,634.24,631.27,630.44,633.20,639.28,645.32,651.12,656.66,661.49,664.13,666.46,668.95,671.50,674.14,676.57,678.88,681.02,682.59,683.82,684.07,683.50,682.82,682.35,681.31,679.51,676.87,674.16,671.27,668.11,664.69,661.04,656.10,651.01,646.12,641.39,636.24,630.64,624.71,618.60,612.74,607.84,603.67,599.29,593.16,587.87,583.04,578.75,575.09,571.16,566.11,559.23,551.00,544.04,538.52,534.34,530.76,526.58,519.96,514.06,508.67,503.40,498.30,492.65,487.75,483.82,480.69,480.18,480.90,481.90,482.73,483.56,483.49,482.19,479.36,474.81,469.56,464.10,458.44,452.58,447.64,443.24,437.11,428.13,419.09,410.58,403.69,397.80,390.76,384.08,380.83,380.88,383.96,388.96,393.60,397.71,401.11,403.26,404.02,403.30,401.79,400.64,400.42,406.20,414.75,423.24,430.38,435.67,440.71,446.39,453.20,459.20,466.48,473.54,478.57,484.59,490.02,494.42,497.98,501.83,504.53,505.16,503.78,500.39,495.75,490.08,483.23,475.40,468.98,464.07,459.50,454.93,450.69,447.14,447.24,451.32,459.47,468.87,475.94,482.20,488.14,492.50,495.71,498.77,502.26,506.68,511.11,514.90,518.28,521.26,523.22,524.17,524.06,522.91,521.27,522.32,524.71,527.79,531.56,536.29,540.38,543.20,544.50,544.83,544.51,543.88,544.02,546.87,549.95,553.85,558.59,564.05,569.35,573.83,577.93,581.69,584.77,587.87,592.61,598.67,605.28,611.82,619.42,626.64,632.73,638.62,644.19,649.55,654.79,659.74,662.97,665.80,666.82,664.70,662.29,658.38,653.41,648.09,643.71,637.93,631.38,624.79,619.05,615.26,611.58,607.55,603.03,598.00,594.39,590.43,585.45,579.33,573.02,567.36,562.90,560.52,560.75,560.90,560.78,560.92,562.71,567.37,573.62,580.19,586.17,593.22,600.17,606.69,612.85,619.08,623.62,627.36,630.83,634.42,638.20,641.14,643.52,645.72,647.89,649.94,651.95,653.96
592.58,598.38,607.90,617.20,624.41,629.09,636.56,641.25,644.24,646.40,647.78,648.78,648.71,647.13,643.43,639.85,637.41,636.68,638.52,643.26,648.85,654.88,660.82,665.25,668.08,670.54,672.73,674.40,676.63,678.82,680.88,682.75,684.29,685.48,685.86,685.56,685.05,684.47,683.33,681.79,679.89,677.05,673.88,670.14,666.00,662.16,657.38,652.59,647.78,642.60,637.47,632.31,626.93,621.20,615.31,610.06,605.58,601.28,596.13,592.29,588.23,583.53,578.43,574.51,569.88,563.39,555.25,547.63,541.23,534.75,528.34,522.68,516.85,511.09,505.73,501.00,496.72,492.28,489.47,488.26,487.35,487.70,488.51,489.28,489.75,489.90,488.99,486.19,481.42,476.01,469.51,462.63,456.07,450.71,446.47,442.33,436.13,426.98,418.06,409.73,402.76,396.72,390.17,384.06,382.62,384.88,389.23,393.84,398.72,404.18,409.68,413.03,414.10,412.69,409.85,407.20,405.85,409.86,417.30,426.05,432.91,438.27,443.49,449.43,456.97,464.65,470.73,475.79,480.96,487.12,492.27,497.02,501.92,507.12,509.71,509.97,508.09,503.77,498.78,493.80,487.33,478.94,472.91,468.79,465.21,461.41,456.73,451.78,449.55,451.65,459.86,471.46,479.71,486.37,492.17,495.72,498.94,502.60,506.98,512.30,517.11,520.41,522.94,525.27,527.46,529.87,531.36,531.45,530.22,529.40,530.69,534.13,539.44,544.58,548.28,550.64,551.83,552.58,553.05,552.94,552.82,554.01,556.13,559.86,564.44,569.50,575.70,580.20,583.63,586.49,589.22,592.10,595.26,599.81,607.01,613.92,620.43,626.46,632.09,637.98,643.56,649.18,654.91,660.30,663.69,666.59,667.74,665.82,663.19,659.99,655.90,650.99,645.95,640.35,634.05,627.71,622.47,618.96,615.38,611.33,606.69,601.66,597.25,592.48,586.86,580.12,573.66,568.65,565.61,564.99,565.45,565.84,565.83,565.58,565.85,567.82,571.55,576.35,581.98,590.69,598.42,604.76,610.12,615.88,620.77,624.73,627.91,630.82,635.33,639.35,642.50,644.86,647.27,649.57,651.70,653.71
