162.70,162.02,161.01,159.84,158.53,156.81,155.14,152.67,149.56,146.46,144.57,143.94,143.77,143.50,142.48,141.40,141.89,143.69,145.18,145.97,145.71,144.48,142.39,140.17,138.90,139.03,140.49,142.24,143.35,143.77,143.23,141.16,138.06,136.24,135.11,134.09,133.17,132.46,131.56,130.46,129.36,128.27,126.98,125.51,123.98,122.83,121.57,120.01,118.31,117.16,116.63,116.15,115.36,114.05,112.87,111.68,110.35,108.83,107.26,105.35,103.34,101.31,99.19,96.62,94.05,91.50,88.86,86.15,83.57,81.82,81.01,80.27,79.11,77.35,75.25,73.28,71.43,70.34,69.77,69.55,69.47,69.75,70.11,70.45,70.76,71.08,71.29,71.45,71.64,71.78,71.94,71.88,71.57,71.25,70.88,70.54,70.26,70.01,69.74,69.44,69.15,68.87,68.61,68.31,68.02,67.73,67.42,67.12,66.84,66.55,66.25,65.94,65.63,65.32,65.03,64.83,64.67,64.53,64.42,64.34,64.27,64.20,64.11,64.03,63.96,63.91,63.87,63.83,63.75,63.67,63.59,63.52,63.45,63.36,63.31,63.25,63.19,63.15,63.08,63.00,62.92,62.84,62.77,62.70,62.61,62.54,62.49,62.43,62.37,62.33,62.25,62.17,62.09,62.02,61.95,61.86,61.81,61.76,61.69,61.65,61.58,61.50,61.42,61.34,61.27,61.20,61.13,61.08,61.01,60.96,60.91,60.84,60.84,60.81,60.80,60.78,60.70,60.62,60.58,60.54,60.49,60.41,60.40,60.36,60.30,60.29,60.23,60.18,60.14,60.10,60.06,60.02,59.98,59.88,59.54,59.16,58.73,58.28,57.89,57.44,57.00,56.58,56.16,55.80,55.49,55.20,54.92,54.61,54.31,54.02,53.73,53.42,53.11,52.75,52.38,52.10,52.08,51.99,51.86,51.72,51.64,51.49,51.36,51.24,51.14,51.06,51.01,50.95,50.91,50.98,51.12,51.28,51.43,51.58,51.74,51.89,52.03,52.14,52.26,52.41,52.56,52.72,52.88,53.03,53.24,53.39,53.41,53.34,53.26,53.21,53.20,53.12,52.97,52.85,52.71,52.52
171.31,170.71,169.25,167.46,165.58,163.68,162.49,159.70,155.56,151.43,149.56,149.12,149.10,148.90,147.91,146.59,146.69,148.17,149.88,151.11,151.33,150.47,148.49,146.25,145.26,145.84,147.31,147.44,147.32,146.93,145.58,142.21,138.28,136.13,134.73,133.29,132.03,130.94,129.64,128.19,126.96,125.61,124.44,123.27,121.92,120.89,120.09,118.96,117.33,115.58,115.17,115.16,114.80,113.48,112.27,111.06,109.73,108.25,106.78,104.96,103.04,101.14,99.21,96.63,94.05,91.49,88.79,86.00,83.61,82.62,82.94,82.54,80.88,78.85,76.76,74.69,72.68,71.08,70.03,69.59,69.24,69.41,69.77,70.14,70.45,70.70,70.89,71.08,71.30,71.52,71.69,71.65,71.37,71.12,70.77,70.39,70.06,69.87,69.64,69.36,69.09,68.84,68.55,68.25,67.97,67.72,67.41,67.11,66.80,66.50,66.19,65.88,65.57,65.26,64.99,64.82,64.68,64.56,64.48,64.41,64.33,64.26,64.18,64.11,64.03,64.00,63.96,63.89,63.81,63.73,63.66,63.58,63.50,63.43,63.40,63.36,63.29,63.22,63.14,63.06,62.98,62.91,62.84,62.77,62.68,62.62,62.60,62.54,62.46,62.39,62.31,62.23,62.16,62.08,62.01,61.93,61.91,61.87,61.79,61.72,61.64,61.56,61.48,61.41,61.34,61.27,61.21,61.19,61.12,61.04,60.97,60.90,60.89,60.83,60.80,60.78,60.70,60.62,60.55,60.50,60.48,60.41,60.39,60.35,60.30,60.29,60.23,60.15,60.10,60.09,60.02,59.99,59.94,59.81,59.52,59.14,58.72,58.28,57.88,57.43,56.97,56.55,56.16,55.85,55.54,55.23,54.94,54.63,54.32,54.05,53.79,53.48,53.16,52.80,52.46,52.22,52.19,52.06,51.92,51.79,51.70,51.55,51.45,51.34,51.21,51.13,51.10,51.07,51.06,51.21,51.36,51.52,51.67,51.83,51.98,52.13,52.29,52.42,52.52,52.66,52.81,52.96,53.12,53.27,53.47,53.64,53.70,53.63,53.56,53.52,53.49,53.41,53.27,53.13,52.97,52.81
176.75,176.30,175.40,174.13,172.51,170.62,169.72,167.98,165.07,161.19,157.66,156.67,156.65,156.46,155.69,154.27,154.09,155.05,155.75,156.30,156.15,155.19,153.47,152.02,151.94,152.57,153.28,153.03,151.53,149.56,146.81,142.53,138.33,135.07,132.63,130.94,129.71,128.25,126.84,125.59,124.38,122.93,121.72,120.55,119.19,117.95,116.92,115.68,114.28,113.45,113.38,113.81,114.08,113.31,112.00,110.52,108.97,107.42,106.12,104.66,103.06,101.36,99.52,96.92,94.22,91.44,88.59,86.32,85.91,85.81,85.08,83.33,81.20,79.06,76.97,74.94,73.20,71.78,70.63,69.78,69.33,69.18,69.38,69.79,70.14,70.39,70.61,70.82,71.04,71.23,71.43,71.45,71.23,71.00,70.72,70.35,69.95,69.66,69.41,69.16,68.92,68.68,68.42,68.16,67.89,67.62,67.35,67.05,66.75,66.44,66.13,65.81,65.50,65.22,64.98,64.83,64.71,64.63,64.55,64.47,64.39,64.31,64.25,64.22,64.14,64.09,64.03,63.95,63.88,63.79,63.72,63.64,63.57,63.54,63.49,63.43,63.35,63.28,63.20,63.13,63.04,62.97,62.94,62.88,62.80,62.73,62.68,62.60,62.53,62.45,62.38,62.29,62.22,62.16,62.12,62.05,61.99,61.94,61.85,61.78,61.70,61.63,61.54,61.47,61.44,61.38,61.31,61.25,61.19,61.10,61.03,60.95,60.91,60.88,60.84,60.78,60.70,60.62,60.55,60.50,60.48,60.41,60.36,60.32,60.29,60.24,60.21,60.15,60.10,60.09,60.02,59.92,59.81,59.66,59.45,59.09,58.69,58.27,57.84,57.42,56.97,56.54,56.16,55.86,55.55,55.26,54.99,54.68,54.37,54.08,53.79,53.48,53.17,52.84,52.54,52.33,52.26,52.13,52.00,51.89,51.77,51.66,51.54,51.42,51.32,51.24,51.19,51.20,51.30,51.45,51.60,51.76,51.91,52.06,52.22,52.38,52.53,52.68,52.81,52.95,53.08,53.20,53.36,53.51,53.68,53.87,53.99,53.94,53.86,53.80,53.74,53.66,53.56,53.43,53.27,53.12
181.33,181.01,180.59,179.89,178.71,177.00,176.18,175.20,173.52,170.60,166.38,164.80,164.49,164.28,163.72,162.57,162.24,162.58,162.43,162.26,161.79,160.73,159.04,157.97,158.23,158.45,158.02,157.01,154.41,151.31,147.63,142.84,138.65,135.11,132.12,129.87,128.69,127.21,125.70,124.26,122.83,121.34,120.06,118.88,117.55,116.08,114.35,112.60,111.24,111.11,111.39,112.19,112.98,112.84,111.88,110.35,108.62,106.89,105.44,104.08,102.66,101.13,99.38,96.87,94.16,91.30,88.49,87.40,88.19,88.25,86.53,83.81,81.34,79.13,77.09,75.23,73.75,72.48,71.24,70.09,69.46,69.04,69.05,69.43,69.77,70.05,70.31,70.56,70.78,70.94,71.13,71.20,71.06,70.86,70.64,70.32,69.92,69.57,69.30,69.05,68.80,68.55,68.30,68.05,67.78,67.50,67.24,66.96,66.67,66.38,66.09,65.78,65.47,65.19,64.98,64.85,64.76,64.69,64.60,64.52,64.45,64.38,64.32,64.28,64.22,64.14,64.07,64.00,63.94,63.85,63.78,63.70,63.63,63.60,63.54,63.47,63.39,63.31,63.25,63.19,63.10,63.03,63.01,62.95,62.87,62.79,62.72,62.64,62.56,62.48,62.41,62.33,62.25,62.20,62.19,62.12,62.04,61.97,61.89,61.81,61.73,61.66,61.58,61.51,61.48,61.44,61.37,61.29,61.22,61.14,61.06,60.98,60.91,60.88,60.84,60.78,60.70,60.62,60.55,60.49,60.46,60.41,60.34,60.30,60.28,60.21,60.18,60.14,60.09,60.07,60.01,59.88,59.71,59.52,59.36,59.04,58.67,58.26,57.80,57.41,56.97,56.54,56.17,55.88,55.57,55.29,55.03,54.72,54.41,54.11,53.81,53.50,53.20,52.89,52.63,52.44,52.33,52.20,52.09,51.98,51.85,51.75,51.62,51.50,51.42,51.36,51.34,51.39,51.53,51.69,51.84,52.00,52.15,52.31,52.46,52.62,52.77,52.93,53.08,53.23,53.36,53.47,53.62,53.76,53.91,54.08,54.25,54.23,54.16,54.09,54.01,53.92,53.85,53.72,53.58,53.45
185.18,184.97,184.79,184.50,183.84,182.56,181.55,180.67,179.82,178.68,175.47,173.38,172.38,172.08,171.68,171.33,171.00,170.63,170.08,169.34,168.75,167.68,165.69,164.20,163.91,163.11,161.16,158.60,155.33,151.90,148.03,143.25,139.38,136.90,134.19,130.92,129.73,128.78,127.10,124.84,122.82,121.30,119.97,118.78,117.61,115.95,112.97,110.19,108.57,108.57,109.14,110.25,111.40,111.88,111.92,110.72,108.89,106.85,104.79,103.07,101.59,100.18,98.54,96.29,93.78,91.01,88.58,89.50,90.04,89.19,86.91,84.11,81.48,79.19,77.27,75.80,74.50,73.16,71.81,70.53,69.64,69.01,68.83,69.05,69.31,69.66,69.98,70.25,70.47,70.63,70.80,70.88,70.83,70.67,70.50,70.28,70.00,69.68,69.38,69.08,68.78,68.48,68.19,67.89,67.62,67.37,67.08,66.82,66.58,66.33,66.08,65.78,65.47,65.19,64.99,64.90,64.81,64.74,64.66,64.58,64.51,64.44,64.36,64.29,64.22,64.14,64.09,64.06,64.00,63.91,63.83,63.76,63.69,63.62,63.54,63.47,63.39,63.31,63.29,63.25,63.16,63.09,63.02,62.95,62.87,62.79,62.72,62.64,62.56,62.48,62.41,62.33,62.25,62.20,62.19,62.12,62.04,61.97,61.89,61.81,61.73,61.66,61.58,61.50,61.44,61.41,61.37,61.29,61.22,61.14,61.06,60.98,60.91,60.84,60.81,60.78,60.70,60.62,60.55,60.47,60.42,60.40,60.34,60.30,60.28,60.20,60.14,60.11,60.08,60.02,60.00,59.88,59.66,59.41,59.24,59.00,58.67,58.26,57.80,57.41,56.97,56.54,56.18,55.93,55.63,55.33,55.03,54.72,54.41,54.14,53.88,53.56,53.26,52.95,52.71,52.54,52.41,52.31,52.19,52.06,51.96,51.83,51.67,51.56,51.49,51.48,51.57,51.67,51.78,51.93,52.09,52.24,52.39,52.55,52.70,52.86,53.01,53.16,53.32,53.48,53.62,53.77,53.92,54.01,54.15,54.31,54.45,54.51,54.47,54.38,54.31,54.23,54.16,54.03,53.89,53.80
187.85,187.82,187.76,187.53,186.78,185.03,183.65,182.42,181.05,179.10,176.09,174.16,173.22,172.98,172.69,172.16,171.40,170.60,170.12,169.84,169.75,169.24,167.86,166.75,166.50,165.33,162.72,159.77,156.51,153.27,149.85,145.86,142.18,140.19,138.25,135.58,133.61,131.66,129.22,126.68,125.15,123.83,122.39,121.04,119.85,117.95,114.76,111.62,109.19,107.58,106.32,106.81,108.62,110.54,111.22,110.59,109.08,106.93,104.71,102.71,100.87,99.15,97.44,95.49,93.33,91.07,89.43,91.24,91.05,89.39,86.90,84.20,81.62,79.46,77.72,76.38,75.10,73.75,72.33,70.93,69.82,69.12,68.77,68.71,68.85,69.17,69.51,69.84,70.13,70.33,70.47,70.53,70.50,70.39,70.24,70.06,69.86,69.66,69.42,69.14,68.83,68.52,68.20,67.90,67.59,67.29,66.98,66.71,66.47,66.22,65.95,65.68,65.41,65.15,64.95,64.86,64.78,64.72,64.63,64.56,64.51,64.45,64.37,64.29,64.22,64.14,64.08,64.03,63.97,63.88,63.80,63.74,63.70,63.62,63.54,63.47,63.39,63.31,63.27,63.22,63.13,63.05,62.98,62.91,62.82,62.75,62.67,62.62,62.56,62.48,62.41,62.33,62.25,62.19,62.15,62.07,62.00,61.92,61.84,61.77,61.69,61.61,61.54,61.50,61.43,61.38,61.32,61.25,61.17,61.09,61.02,60.94,60.87,60.82,60.78,60.73,60.66,60.57,60.50,60.44,60.40,60.39,60.34,60.28,60.24,60.20,60.13,60.08,60.04,60.00,59.96,59.84,59.62,59.36,59.14,58.94,58.64,58.26,57.80,57.38,56.95,56.55,56.22,55.95,55.64,55.33,55.03,54.76,54.45,54.17,53.89,53.58,53.28,52.99,52.77,52.62,52.47,52.38,52.26,52.13,52.04,51.89,51.76,51.66,51.61,51.67,51.81,51.94,52.06,52.21,52.34,52.48,52.63,52.79,52.94,53.10,53.25,53.41,53.56,53.72,53.87,54.03,54.17,54.29,54.41,54.54,54.69,54.80,54.77,54.69,54.60,54.53,54.45,54.33,54.20,54.11
189.77,189.90,189.81,189.34,188.17,185.86,184.08,182.33,180.02,176.65,173.60,171.86,171.06,170.88,170.66,169.68,168.49,167.52,167.32,167.80,168.32,168.39,167.78,167.29,167.38,166.34,163.78,160.94,157.94,155.06,152.20,149.10,145.61,143.80,142.52,140.75,138.01,134.90,131.73,129.15,128.28,127.08,125.44,123.79,122.38,120.22,117.12,113.82,110.58,107.19,103.80,103.30,105.44,108.72,109.97,110.05,109.11,107.11,104.89,102.68,100.49,98.42,96.63,95.01,93.32,91.67,90.80,92.69,91.67,89.39,86.88,84.34,81.87,79.86,78.27,76.95,75.65,74.29,72.85,71.35,70.06,69.33,68.82,68.47,68.45,68.66,69.01,69.39,69.74,69.99,70.11,70.16,70.14,70.06,69.91,69.76,69.63,69.54,69.39,69.16,68.87,68.57,68.27,67.95,67.60,67.25,66.94,66.63,66.37,66.11,65.81,65.56,65.33,65.09,64.89,64.80,64.72,64.66,64.58,64.52,64.49,64.44,64.36,64.28,64.21,64.14,64.06,63.99,63.92,63.84,63.76,63.70,63.68,63.61,63.53,63.46,63.38,63.31,63.24,63.17,63.09,63.01,62.93,62.86,62.77,62.70,62.62,62.59,62.55,62.47,62.40,62.32,62.24,62.17,62.09,62.02,61.94,61.86,61.78,61.70,61.64,61.56,61.50,61.48,61.42,61.34,61.27,61.19,61.11,61.03,60.95,60.88,60.82,60.79,60.75,60.67,60.59,60.52,60.44,60.39,60.39,60.38,60.33,60.26,60.20,60.18,60.13,60.05,60.00,59.97,59.88,59.75,59.57,59.33,59.05,58.85,58.59,58.25,57.80,57.34,56.93,56.57,56.26,55.96,55.66,55.34,55.05,54.80,54.51,54.20,53.89,53.58,53.28,53.03,52.84,52.68,52.54,52.44,52.32,52.19,52.09,51.95,51.85,51.77,51.75,51.88,52.03,52.18,52.34,52.48,52.58,52.71,52.86,53.02,53.17,53.33,53.48,53.64,53.79,53.95,54.10,54.26,54.41,54.56,54.67,54.78,54.94,55.08,55.06,54.98,54.91,54.84,54.76,54.63,54.50,54.42
190.16,190.21,189.56,188.13,186.09,184.00,182.01,179.56,176.50,172.86,169.94,167.51,166.09,165.83,165.53,164.38,163.36,162.90,163.30,164.31,164.91,164.90,164.39,164.49,165.26,165.63,164.89,162.63,160.13,157.54,154.83,151.91,148.77,146.58,144.76,142.80,140.45,137.68,134.84,132.49,131.40,129.75,127.59,125.23,122.91,120.48,117.22,113.80,110.50,107.14,103.42,101.64,102.31,105.34,107.31,108.39,108.55,107.53,105.35,103.18,101.09,99.15,97.54,96.29,95.24,94.22,93.31,93.35,91.82,89.67,87.38,84.94,82.60,80.54,78.81,77.45,76.18,74.86,73.44,71.94,70.62,69.76,69.13,68.65,68.33,68.27,68.55,68.95,69.28,69.57,69.69,69.74,69.72,69.64,69.46,69.32,69.24,69.20,69.10,69.00,68.85,68.63,68.33,67.98,67.63,67.30,66.99,66.68,66.39,66.10,65.80,65.51,65.27,65.03,64.82,64.69,64.65,64.59,64.53,64.50,64.45,64.38,64.30,64.23,64.15,64.11,64.06,63.98,63.91,63.83,63.75,63.68,63.63,63.55,63.47,63.40,63.33,63.30,63.23,63.16,63.08,63.00,62.92,62.85,62.77,62.69,62.62,62.56,62.50,62.41,62.34,62.27,62.19,62.11,62.03,61.95,61.88,61.80,61.72,61.65,61.61,61.56,61.49,61.43,61.36,61.28,61.20,61.13,61.05,60.97,60.89,60.83,60.80,60.75,60.69,60.61,60.53,60.45,60.38,60.34,60.34,60.34,60.31,60.26,60.19,60.14,60.11,60.05,59.96,59.85,59.68,59.56,59.41,59.23,59.02,58.73,58.48,58.21,57.79,57.34,56.92,56.57,56.27,56.01,55.71,55.40,55.10,54.81,54.51,54.20,53.89,53.58,53.28,53.06,52.90,52.75,52.64,52.52,52.40,52.30,52.16,52.01,51.91,51.88,51.92,52.07,52.18,52.31,52.47,52.62,52.75,52.89,53.05,53.20,53.36,53.52,53.67,53.82,53.98,54.13,54.29,54.44,54.59,54.75,54.88,55.03,55.18,55.33,55.34,55.28,55.21,55.13,55.06,54.93,54.81,54.71
190.33,190.06,188.27,185.67,182.91,180.92,178.70,175.78,172.37,168.99,166.31,163.31,161.14,160.41,159.91,158.80,158.18,158.39,159.34,160.63,161.30,161.27,160.85,161.43,162.67,163.93,164.53,163.32,161.81,159.79,157.35,154.56,151.49,148.83,146.50,144.38,142.29,139.81,137.26,134.97,133.36,131.31,128.80,126.04,123.18,120.52,117.12,113.54,110.18,107.28,104.06,101.44,100.49,102.44,104.58,106.21,107.22,107.32,105.88,103.93,101.97,100.18,98.70,97.73,97.06,96.36,95.33,93.96,92.09,90.06,87.93,85.59,83.31,81.16,79.27,77.89,76.62,75.32,73.94,72.48,71.17,70.12,69.38,68.84,68.32,68.01,68.15,68.50,68.83,69.12,69.24,69.27,69.25,69.19,69.01,68.88,68.81,68.79,68.74,68.70,68.65,68.52,68.29,67.99,67.67,67.36,67.05,66.74,66.44,66.13,65.81,65.50,65.22,64.97,64.76,64.61,64.55,64.52,64.47,64.44,64.39,64.34,64.27,64.19,64.12,64.08,64.03,63.95,63.88,63.80,63.74,63.67,63.60,63.52,63.44,63.37,63.30,63.27,63.20,63.13,63.05,62.98,62.92,62.85,62.77,62.69,62.62,62.54,62.46,62.38,62.31,62.23,62.15,62.08,62.00,61.92,61.84,61.77,61.69,61.62,61.58,61.53,61.45,61.38,61.30,61.22,61.14,61.06,61.00,60.91,60.85,60.80,60.77,60.70,60.63,60.55,60.47,60.39,60.31,60.27,60.27,60.27,60.27,60.24,60.18,60.11,60.08,60.04,59.94,59.78,59.55,59.39,59.24,59.07,58.90,58.62,58.38,58.15,57.78,57.34,56.94,56.59,56.30,56.04,55.75,55.44,55.13,54.81,54.51,54.20,53.89,53.58,53.30,53.11,52.95,52.81,52.73,52.59,52.48,52.38,52.23,52.09,52.00,51.98,52.08,52.22,52.33,52.46,52.61,52.77,52.92,53.06,53.21,53.36,53.52,53.67,53.82,53.98,54.13,54.29,54.44,54.59,54.75,54.91,55.06,55.22,55.40,55.56,55.62,55.59,55.52,55.44,55.35,55.23,55.10,55.02
190.41,189.49,185.90,181.95,178.80,176.60,174.12,171.03,167.81,165.19,162.89,159.59,156.64,154.96,154.12,153.26,153.28,154.24,155.64,156.92,157.68,157.82,157.58,158.51,159.87,161.18,162.18,162.61,162.70,161.63,159.63,157.04,153.65,150.47,147.84,145.78,143.57,141.13,138.65,136.19,133.79,131.48,128.92,126.19,123.39,120.57,117.09,113.30,109.77,107.61,105.74,102.96,100.42,100.41,101.98,103.51,104.95,106.22,106.44,104.92,103.06,101.39,99.97,99.13,98.48,97.71,96.51,94.59,92.58,90.56,88.49,86.23,83.93,81.65,79.62,78.24,76.93,75.62,74.29,72.95,71.64,70.38,69.50,68.96,68.42,67.92,67.83,68.04,68.39,68.65,68.72,68.72,68.72,68.70,68.57,68.45,68.38,68.32,68.30,68.25,68.20,68.17,68.13,67.98,67.73,67.42,67.11,66.80,66.50,66.19,65.88,65.56,65.22,64.91,64.70,64.54,64.46,64.42,64.40,64.33,64.32,64.31,64.27,64.19,64.12,64.05,63.98,63.89,63.82,63.75,63.71,63.67,63.60,63.52,63.44,63.37,63.29,63.22,63.15,63.07,63.00,62.92,62.90,62.85,62.77,62.69,62.62,62.54,62.46,62.38,62.31,62.23,62.15,62.08,62.00,61.92,61.84,61.77,61.69,61.61,61.55,61.47,61.39,61.31,61.24,61.16,61.08,61.00,60.94,60.86,60.81,60.78,60.72,60.64,60.56,60.49,60.41,60.33,60.25,60.22,60.22,60.22,60.22,60.21,60.18,60.10,60.04,60.01,59.94,59.77,59.55,59.29,59.04,58.83,58.68,58.55,58.33,58.05,57.77,57.34,56.97,56.66,56.35,56.05,55.75,55.44,55.13,54.81,54.51,54.20,53.89,53.59,53.34,53.16,53.02,52.88,52.79,52.65,52.54,52.44,52.30,52.20,52.12,52.10,52.20,52.34,52.49,52.64,52.80,52.95,53.11,53.21,53.33,53.48,53.64,53.79,53.95,54.10,54.25,54.41,54.56,54.72,54.87,55.03,55.18,55.36,55.58,55.80,55.90,55.89,55.81,55.73,55.66,55.53,55.41,55.31
189.42,187.26,183.04,178.66,175.09,172.55,169.95,166.69,163.34,160.80,158.25,155.12,152.44,150.92,150.24,149.47,149.58,150.59,151.89,152.72,153.49,154.08,154.45,155.59,156.78,158.02,159.28,160.38,161.30,161.19,160.09,158.09,154.82,151.38,148.32,145.79,143.33,140.92,138.58,136.27,133.93,131.55,128.95,126.24,123.52,120.92,117.85,114.53,111.44,109.57,108.29,105.59,102.11,99.91,100.41,101.52,102.83,104.26,105.22,104.96,103.95,102.56,101.18,100.28,99.50,98.66,97.47,95.42,93.30,91.17,88.95,86.48,84.10,81.77,79.71,78.33,77.00,75.72,74.42,73.11,71.80,70.48,69.57,69.03,68.49,67.95,67.64,67.63,67.92,68.13,68.21,68.23,68.23,68.22,68.10,67.99,67.92,67.88,67.84,67.80,67.76,67.74,67.77,67.74,67.63,67.44,67.17,66.86,66.55,66.23,65.89,65.58,65.22,64.90,64.67,64.49,64.38,64.33,64.30,64.26,64.22,64.21,64.19,64.15,64.11,64.04,63.96,63.88,63.81,63.73,63.68,63.63,63.55,63.47,63.39,63.33,63.29,63.21,63.13,63.06,62.98,62.91,62.87,62.80,62.72,62.64,62.57,62.50,62.41,62.33,62.27,62.19,62.11,62.03,61.95,61.88,61.80,61.72,61.65,61.60,61.54,61.46,61.38,61.30,61.23,61.15,61.07,60.99,60.92,60.84,60.78,60.73,60.66,60.58,60.50,60.43,60.36,60.28,60.20,60.16,60.16,60.16,60.16,60.16,60.13,60.06,60.01,59.93,59.80,59.64,59.45,59.20,58.95,58.72,58.53,58.38,58.17,57.94,57.68,57.31,56.98,56.67,56.36,56.05,55.75,55.44,55.13,54.81,54.51,54.18,53.86,53.59,53.39,53.22,53.08,52.94,52.85,52.74,52.63,52.50,52.36,52.27,52.22,52.24,52.35,52.47,52.62,52.78,52.93,53.08,53.24,53.36,53.50,53.64,53.80,53.95,54.10,54.22,54.37,54.53,54.68,54.84,54.99,55.18,55.34,55.53,55.77,55.99,56.16,56.20,56.12,56.03,55.93,55.81,55.70,55.62
187.74,184.36,179.96,175.51,171.59,168.68,166.04,162.64,159.05,156.31,153.54,150.86,148.79,147.65,147.12,146.33,146.32,147.15,148.18,148.53,149.28,150.29,151.29,152.51,153.50,154.68,156.15,157.60,159.05,159.77,159.65,158.40,155.36,151.82,148.40,145.35,142.63,140.19,137.97,135.90,133.83,131.47,128.91,126.28,123.70,121.42,118.84,116.17,113.69,111.92,110.86,108.31,104.30,100.13,99.39,99.94,100.94,102.18,103.47,104.42,104.36,103.37,102.17,101.26,100.38,99.47,98.35,96.31,94.09,91.83,89.44,86.69,84.16,81.78,79.72,78.34,77.02,75.75,74.47,73.16,71.84,70.53,69.63,69.10,68.58,68.03,67.54,67.31,67.47,67.61,67.69,67.74,67.74,67.73,67.62,67.51,67.45,67.44,67.38,67.35,67.32,67.28,67.34,67.41,67.45,67.39,67.18,66.90,66.60,66.27,65.90,65.57,65.21,64.89,64.66,64.44,64.32,64.24,64.19,64.17,64.12,64.10,64.09,64.09,64.08,64.02,63.95,63.87,63.80,63.73,63.65,63.58,63.51,63.43,63.34,63.30,63.27,63.20,63.12,63.05,62.97,62.90,62.83,62.76,62.68,62.59,62.52,62.45,62.37,62.29,62.21,62.14,62.05,61.98,61.91,61.83,61.74,61.67,61.61,61.59,61.52,61.45,61.37,61.29,61.22,61.14,61.06,60.98,60.91,60.83,60.75,60.67,60.61,60.53,60.44,60.36,60.29,60.21,60.13,60.09,60.09,60.09,60.09,60.09,60.08,60.02,59.99,59.84,59.64,59.48,59.31,59.10,58.88,58.65,58.42,58.20,58.01,57.82,57.58,57.29,56.98,56.67,56.36,56.05,55.75,55.44,55.12,54.81,54.50,54.15,53.82,53.61,53.45,53.28,53.14,53.00,52.92,52.83,52.71,52.56,52.42,52.33,52.32,52.38,52.52,52.61,52.74,52.90,53.05,53.20,53.36,53.51,53.67,53.81,53.97,54.13,54.25,54.36,54.50,54.66,54.81,54.97,55.13,55.35,55.53,55.73,55.95,56.19,56.41,56.49,56.41,56.33,56.19,56.09,56.01,55.92
184.57,180.90,176.64,172.34,168.36,165.17,162.65,159.21,155.29,152.11,150.19,148.51,147.02,145.75,144.57,143.57,143.38,143.93,144.71,144.97,145.70,146.74,147.78,148.79,149.80,151.09,152.76,154.60,156.31,157.38,157.86,157.53,154.64,151.30,148.00,144.85,141.98,139.39,137.12,135.09,133.07,130.93,128.69,126.42,124.20,122.10,119.82,117.59,115.56,113.70,112.26,109.93,106.19,101.23,99.31,99.15,99.76,100.76,101.83,102.76,103.08,102.80,102.38,101.84,101.14,100.30,99.15,97.10,94.88,92.63,90.22,87.32,84.40,81.83,79.77,78.39,77.07,75.78,74.48,73.16,71.85,70.54,69.67,69.24,68.78,68.17,67.67,67.32,67.13,67.10,67.16,67.19,67.19,67.19,67.16,67.08,67.02,66.97,66.94,66.90,66.86,66.84,66.92,67.03,67.10,67.08,67.00,66.86,66.61,66.28,65.89,65.53,65.15,64.83,64.60,64.37,64.22,64.12,64.07,64.06,64.04,64.03,64.01,63.97,63.97,63.95,63.89,63.81,63.74,63.71,63.65,63.58,63.50,63.42,63.34,63.28,63.22,63.14,63.06,62.99,62.93,62.89,62.83,62.75,62.67,62.59,62.52,62.44,62.36,62.29,62.21,62.13,62.05,61.98,61.90,61.82,61.74,61.67,61.59,61.54,61.47,61.39,61.31,61.23,61.16,61.08,61.00,60.92,60.85,60.78,60.70,60.61,60.55,60.47,60.36,60.24,60.16,60.09,60.01,59.99,60.03,60.04,60.04,60.04,60.03,60.00,59.95,59.78,59.56,59.35,59.15,58.96,58.78,58.59,58.36,58.13,57.91,57.71,57.52,57.27,56.98,56.67,56.36,56.05,55.75,55.44,55.11,54.76,54.44,54.12,53.83,53.66,53.51,53.34,53.22,53.11,52.98,52.89,52.77,52.64,52.53,52.41,52.44,52.54,52.65,52.77,52.88,53.02,53.17,53.33,53.48,53.63,53.79,53.94,54.10,54.25,54.39,54.53,54.68,54.84,54.99,55.14,55.31,55.53,55.74,55.96,56.19,56.42,56.66,56.75,56.72,56.63,56.49,56.38,56.31,56.23
181.64,177.88,173.72,169.51,165.49,162.04,159.24,155.82,152.13,149.26,147.80,146.65,145.42,144.00,142.46,141.28,140.82,140.96,141.34,141.51,142.15,143.08,144.05,144.92,146.04,147.44,149.23,151.59,153.59,154.90,155.80,156.18,153.85,150.97,147.87,144.53,141.44,138.71,136.31,134.15,132.06,130.03,127.95,125.88,123.86,121.86,119.67,117.58,115.69,113.97,112.40,110.19,106.82,102.13,99.57,98.78,98.92,99.57,100.40,101.15,101.59,101.75,101.81,101.59,101.16,100.56,99.58,97.66,95.53,93.37,91.05,88.19,85.01,82.13,79.87,78.49,77.18,75.90,74.63,73.35,72.07,70.89,70.05,69.52,69.03,68.38,67.84,67.38,66.98,66.85,66.85,66.83,66.75,66.69,66.68,66.64,66.57,66.52,66.49,66.44,66.40,66.40,66.49,66.62,66.70,66.74,66.73,66.67,66.50,66.23,65.88,65.50,65.11,64.79,64.56,64.34,64.15,64.02,63.95,63.95,63.95,63.95,63.92,63.86,63.85,63.85,63.82,63.76,63.71,63.68,63.63,63.55,63.47,63.39,63.33,63.27,63.19,63.11,63.04,62.96,62.89,62.87,62.80,62.72,62.64,62.57,62.51,62.44,62.35,62.25,62.18,62.11,62.03,61.95,61.88,61.80,61.73,61.67,61.59,61.51,61.44,61.36,61.28,61.20,61.13,61.05,60.97,60.89,60.82,60.74,60.66,60.58,60.49,60.41,60.29,60.17,60.07,59.97,59.89,59.87,59.93,59.97,59.99,60.00,59.99,59.97,59.88,59.71,59.49,59.25,59.03,58.84,58.66,58.48,58.27,58.04,57.82,57.62,57.44,57.21,56.95,56.67,56.36,56.05,55.73,55.41,55.09,54.73,54.41,54.11,53.88,53.72,53.56,53.41,53.29,53.20,53.05,52.95,52.84,52.70,52.62,52.51,52.57,52.69,52.80,52.93,53.04,53.15,53.29,53.45,53.60,53.75,53.91,54.06,54.22,54.37,54.53,54.68,54.84,54.99,55.16,55.33,55.51,55.72,55.95,56.17,56.41,56.64,56.87,57.00,57.02,56.93,56.80,56.69,56.62,56.55
179.22,175.48,171.35,167.15,163.10,159.44,155.87,152.48,149.69,148.05,146.50,145.19,143.86,142.35,140.87,139.60,138.78,138.33,138.10,138.12,138.55,139.25,140.06,140.93,142.26,143.72,145.53,148.55,150.91,152.44,153.53,154.36,153.13,151.01,148.10,144.45,141.06,138.22,135.61,133.13,130.86,128.76,126.64,124.54,122.51,120.47,118.14,115.79,113.75,112.44,111.11,108.90,105.92,102.65,100.11,98.84,98.42,98.62,99.24,99.73,100.06,100.26,100.38,100.36,100.28,100.10,99.55,97.95,96.03,94.02,91.88,89.31,86.05,82.72,79.99,78.61,77.35,76.15,74.97,73.78,72.56,71.66,70.81,69.95,69.30,68.67,68.02,67.45,67.10,66.93,66.85,66.70,66.45,66.25,66.21,66.16,66.10,66.09,66.03,65.99,65.96,65.93,66.06,66.16,66.27,66.37,66.37,66.30,66.25,66.14,65.87,65.50,65.11,64.79,64.56,64.34,64.11,63.93,63.83,63.83,63.82,63.82,63.80,63.73,63.73,63.73,63.72,63.71,63.70,63.64,63.56,63.48,63.41,63.33,63.31,63.27,63.19,63.11,63.03,62.96,62.88,62.81,62.74,62.66,62.58,62.52,62.50,62.44,62.33,62.20,62.12,62.05,61.97,61.89,61.81,61.73,61.71,61.67,61.59,61.51,61.43,61.36,61.28,61.20,61.12,61.05,60.97,60.89,60.82,60.74,60.66,60.57,60.43,60.34,60.26,60.16,60.01,59.87,59.77,59.73,59.77,59.88,59.97,60.00,59.98,59.90,59.77,59.61,59.42,59.19,58.96,58.74,58.52,58.31,58.14,57.92,57.73,57.54,57.33,57.09,56.90,56.67,56.36,56.05,55.69,55.35,55.04,54.72,54.41,54.14,53.94,53.77,53.63,53.47,53.35,53.26,53.11,53.02,52.90,52.77,52.69,52.66,52.72,52.84,52.96,53.06,53.19,53.31,53.41,53.56,53.72,53.88,54.03,54.18,54.34,54.49,54.65,54.80,54.96,55.11,55.30,55.52,55.74,55.91,56.12,56.36,56.59,56.82,57.05,57.23,57.31,57.23,57.09,56.99,56.93,56.90
177.82,174.17,170.30,166.56,163.11,159.97,156.72,152.94,149.68,148.38,146.90,145.87,144.72,143.19,141.84,140.33,139.01,137.87,136.61,135.73,134.89,134.45,134.91,136.14,137.69,139.39,141.49,144.58,146.98,149.19,151.19,152.43,152.18,150.94,148.61,145.18,141.87,139.09,136.50,133.85,131.03,129.16,127.30,125.07,122.28,119.43,116.50,113.77,111.58,110.53,109.34,107.46,105.02,102.39,100.12,98.80,98.16,98.06,98.48,98.80,99.02,99.11,99.02,99.00,99.03,99.05,98.87,97.80,96.05,94.10,92.09,89.88,86.72,83.34,80.48,78.97,77.85,76.69,75.51,74.38,73.35,72.16,71.03,70.10,69.41,68.78,68.13,67.63,67.44,67.34,67.22,66.99,66.69,66.42,66.23,66.00,65.79,65.71,65.60,65.54,65.50,65.50,65.64,65.73,65.86,66.00,65.97,65.89,65.86,65.85,65.75,65.41,65.05,64.77,64.56,64.34,64.10,63.89,63.74,63.70,63.67,63.66,63.64,63.61,63.60,63.60,63.60,63.60,63.60,63.57,63.50,63.44,63.39,63.32,63.27,63.22,63.14,63.06,62.98,62.93,62.88,62.80,62.73,62.65,62.57,62.50,62.46,62.39,62.30,62.19,62.11,62.03,61.95,61.88,61.80,61.72,61.68,61.61,61.55,61.47,61.38,61.31,61.23,61.16,61.07,61.00,60.92,60.84,60.77,60.70,60.61,60.52,60.38,60.28,60.20,60.12,59.99,59.80,59.67,59.60,59.63,59.74,59.83,59.86,59.83,59.71,59.56,59.41,59.24,59.04,58.81,58.61,58.39,58.18,58.02,57.80,57.59,57.40,57.20,56.97,56.79,56.59,56.31,56.00,55.66,55.33,55.03,54.72,54.41,54.17,53.99,53.84,53.69,53.53,53.41,53.33,53.21,53.09,52.98,52.86,52.77,52.78,52.88,52.99,53.11,53.22,53.34,53.45,53.57,53.69,53.84,54.00,54.15,54.30,54.46,54.61,54.77,54.92,55.08,55.26,55.47,55.71,55.94,56.13,56.35,56.58,56.82,57.05,57.28,57.47,57.58,57.53,57.40,57.31,57.27,57.22
177.09,173.75,170.23,167.01,164.25,161.82,159.23,155.28,151.46,150.00,148.52,147.78,146.88,145.43,144.17,142.27,140.38,138.53,136.41,134.63,132.47,130.72,130.41,131.61,133.14,135.01,137.38,140.35,142.64,145.50,148.45,150.21,150.85,150.50,148.93,146.07,143.09,140.44,137.93,135.20,131.93,130.30,128.73,126.36,122.80,119.16,115.61,112.41,109.97,108.89,107.70,106.12,104.16,101.89,99.97,98.77,98.04,97.69,97.86,98.01,98.09,98.03,97.69,97.63,97.69,97.82,97.93,97.44,95.91,94.02,92.12,90.22,87.26,84.07,81.27,79.45,78.41,77.28,76.03,74.83,73.86,72.27,70.93,70.06,69.42,68.80,68.24,67.88,67.87,67.86,67.68,67.41,67.11,66.78,66.41,65.98,65.61,65.43,65.26,65.16,65.10,65.11,65.24,65.33,65.48,65.63,65.55,65.48,65.47,65.53,65.60,65.28,64.97,64.73,64.55,64.32,64.10,63.87,63.68,63.59,63.51,63.48,63.48,63.48,63.48,63.48,63.48,63.48,63.48,63.47,63.43,63.38,63.37,63.31,63.24,63.17,63.09,63.02,62.94,62.90,62.87,62.79,62.71,62.64,62.56,62.49,62.42,62.34,62.27,62.19,62.11,62.03,61.95,61.87,61.79,61.72,61.65,61.57,61.49,61.42,61.34,61.26,61.18,61.11,61.03,60.95,60.87,60.80,60.72,60.65,60.56,60.46,60.32,60.23,60.14,60.06,59.97,59.75,59.58,59.48,59.50,59.56,59.63,59.65,59.61,59.47,59.32,59.17,59.01,58.85,58.63,58.45,58.26,58.05,57.88,57.66,57.44,57.24,57.07,56.85,56.67,56.49,56.25,55.95,55.65,55.33,55.03,54.72,54.42,54.21,54.05,53.90,53.74,53.59,53.48,53.39,53.31,53.17,53.06,52.96,52.85,52.90,53.03,53.15,53.25,53.38,53.49,53.61,53.75,53.83,53.97,54.13,54.28,54.43,54.58,54.73,54.89,55.05,55.22,55.44,55.67,55.90,56.12,56.35,56.58,56.81,57.05,57.28,57.51,57.70,57.83,57.82,57.69,57.64,57.62,57.52
177.74,175.53,172.39,169.40,167.02,165.19,163.17,160.39,157.35,154.88,152.94,151.98,151.24,150.21,148.76,146.14,143.41,141.03,139.23,137.41,135.06,132.38,129.94,128.99,129.62,131.14,133.37,136.19,138.24,141.01,144.28,146.95,148.34,148.73,148.19,146.65,144.56,142.11,139.57,136.92,134.03,132.43,130.78,128.40,124.94,121.56,117.80,114.03,110.78,108.77,107.11,105.38,103.46,101.39,99.84,98.83,98.11,97.58,97.25,97.18,97.06,96.75,96.32,96.28,96.42,96.62,96.81,96.80,95.69,94.04,92.17,90.28,87.71,85.24,82.81,80.19,78.91,77.69,76.19,74.45,72.92,71.27,70.17,69.67,69.22,68.67,68.40,68.34,68.34,68.34,68.13,67.84,67.50,67.09,66.66,66.21,65.77,65.43,65.20,65.05,64.94,64.91,64.95,65.03,65.15,65.26,65.14,65.10,65.16,65.29,65.42,65.15,64.92,64.71,64.50,64.27,64.08,63.87,63.65,63.48,63.39,63.36,63.36,63.36,63.36,63.36,63.36,63.36,63.36,63.32,63.28,63.26,63.26,63.24,63.21,63.17,63.09,63.01,62.94,62.87,62.81,62.73,62.66,62.58,62.52,62.49,62.42,62.34,62.26,62.19,62.11,62.03,61.95,61.86,61.74,61.71,61.64,61.57,61.49,61.41,61.34,61.26,61.18,61.10,61.03,60.95,60.87,60.79,60.72,60.64,60.54,60.41,60.31,60.18,60.08,60.00,59.92,59.70,59.48,59.36,59.37,59.39,59.38,59.33,59.28,59.22,59.08,58.93,58.77,58.61,58.44,58.24,58.04,57.86,57.65,57.47,57.29,57.12,56.95,56.73,56.55,56.39,56.20,55.94,55.64,55.33,55.03,54.72,54.46,54.27,54.12,53.96,53.80,53.69,53.57,53.45,53.37,53.23,53.13,53.04,52.97,53.06,53.18,53.29,53.41,53.52,53.64,53.79,53.92,54.01,54.15,54.30,54.45,54.61,54.71,54.85,55.03,55.24,55.45,55.67,55.91,56.12,56.31,56.53,56.77,56.99,57.23,57.46,57.70,57.91,58.07,58.06,57.98,57.97,57.97,57.83
176.74,176.02,174.27,172.30,170.50,168.90,167.16,165.20,162.90,160.19,158.13,156.94,156.13,155.16,152.97,149.45,146.22,143.82,142.25,140.52,138.25,135.26,131.66,129.05,128.28,128.47,129.54,132.16,134.21,136.93,140.26,143.50,145.56,146.47,146.51,145.77,144.69,143.00,140.88,138.49,135.99,134.20,132.36,130.00,126.88,123.67,119.91,116.19,112.90,110.30,108.05,106.07,104.08,101.85,100.06,99.03,98.36,97.75,97.16,96.94,96.66,96.17,95.59,95.19,95.15,95.32,95.54,95.78,95.23,94.06,92.44,90.72,88.73,86.90,84.77,81.56,79.30,77.44,75.50,73.37,71.72,70.39,69.65,69.39,69.13,68.81,68.77,68.86,68.87,68.81,68.55,68.21,67.83,67.38,66.91,66.45,65.99,65.55,65.24,65.02,64.86,64.77,64.75,64.79,64.87,64.93,64.81,64.81,64.91,65.08,65.21,65.03,64.84,64.65,64.44,64.23,64.05,63.86,63.64,63.42,63.28,63.24,63.23,63.22,63.22,63.22,63.22,63.22,63.21,63.17,63.14,63.14,63.14,63.14,63.14,63.12,63.06,62.98,62.92,62.86,62.78,62.70,62.63,62.55,62.49,62.46,62.38,62.31,62.23,62.16,62.07,62.00,61.92,61.83,61.71,61.68,61.61,61.53,61.47,61.38,61.30,61.23,61.16,61.07,61.00,60.92,60.84,60.77,60.69,60.61,60.49,60.36,60.27,60.13,60.04,59.96,59.83,59.59,59.34,59.18,59.16,59.16,59.09,59.02,58.95,58.92,58.82,58.69,58.54,58.40,58.23,58.02,57.83,57.65,57.44,57.27,57.13,56.97,56.83,56.63,56.45,56.27,56.09,55.88,55.62,55.33,55.03,54.72,54.50,54.33,54.17,54.02,53.89,53.78,53.66,53.52,53.43,53.31,53.20,53.12,53.10,53.22,53.33,53.44,53.57,53.67,53.81,53.95,54.07,54.16,54.30,54.46,54.61,54.76,54.86,55.02,55.22,55.45,55.66,55.89,56.12,56.34,56.52,56.74,56.98,57.20,57.44,57.67,57.90,58.14,58.32,58.33,58.27,58.29,58.29,58.14
173.67,174.74,175.44,175.38,174.42,172.71,170.99,169.36,167.64,165.61,163.89,162.50,161.40,160.06,156.58,152.05,148.74,146.81,145.23,143.64,141.67,139.01,135.48,131.95,129.38,127.19,126.06,128.31,130.61,133.36,136.56,139.97,142.61,143.82,143.90,143.28,143.26,142.93,141.73,139.80,137.63,135.45,133.30,131.04,128.40,125.17,121.61,118.58,116.17,113.48,110.58,108.25,106.14,103.38,100.66,99.40,98.80,98.24,97.65,97.40,97.03,96.41,95.62,94.44,93.94,93.95,94.11,94.39,94.49,94.03,92.93,91.58,90.36,89.01,87.01,83.52,79.59,76.51,73.90,71.61,70.42,69.81,69.48,69.31,69.22,69.25,69.34,69.43,69.45,69.27,68.93,68.53,68.08,67.62,67.16,66.69,66.22,65.78,65.39,65.08,64.84,64.71,64.64,64.63,64.64,64.64,64.57,64.61,64.73,64.86,64.94,64.92,64.75,64.55,64.39,64.22,64.01,63.82,63.64,63.41,63.20,63.12,63.10,63.04,63.04,63.04,63.04,63.04,63.04,63.03,63.02,63.02,63.02,63.02,63.02,63.02,63.00,62.93,62.90,62.86,62.78,62.70,62.62,62.55,62.47,62.41,62.33,62.25,62.17,62.10,62.02,61.95,61.86,61.79,61.70,61.63,61.55,61.48,61.41,61.32,61.25,61.17,61.09,61.02,60.94,60.86,60.78,60.70,60.63,60.55,60.44,60.30,60.21,60.08,60.00,59.93,59.71,59.42,59.12,58.92,58.87,58.86,58.80,58.72,58.64,58.58,58.55,58.44,58.32,58.20,58.00,57.82,57.63,57.42,57.25,57.09,56.95,56.81,56.71,56.55,56.35,56.13,55.92,55.75,55.58,55.33,55.03,54.73,54.55,54.39,54.23,54.09,53.99,53.87,53.72,53.58,53.50,53.41,53.29,53.21,53.27,53.35,53.48,53.60,53.70,53.84,53.99,54.11,54.20,54.28,54.42,54.58,54.73,54.89,55.03,55.23,55.46,55.68,55.85,56.07,56.30,56.53,56.75,56.98,57.21,57.45,57.68,57.91,58.14,58.37,58.57,58.62,58.57,58.59,58.59,58.46
168.75,170.18,171.53,172.58,173.14,172.94,172.70,172.03,170.87,169.31,167.95,166.85,165.83,164.34,161.01,156.97,153.51,150.81,148.55,146.63,144.56,142.00,138.72,135.13,131.86,128.75,126.24,125.75,127.26,129.82,132.98,136.55,139.99,141.73,141.77,140.74,141.15,141.55,141.16,139.93,138.11,135.94,133.77,131.60,129.16,125.74,122.10,119.14,116.88,114.23,111.65,109.43,107.16,104.17,101.26,99.91,99.28,98.75,98.33,98.20,97.92,97.33,96.43,95.06,94.05,93.33,92.84,93.05,93.30,93.17,92.53,91.55,90.69,89.39,87.04,82.92,79.08,75.77,73.08,71.23,70.48,70.09,69.78,69.53,69.47,69.62,69.91,70.13,70.07,69.66,69.23,68.78,68.33,67.86,67.40,66.94,66.47,66.01,65.58,65.18,64.88,64.69,64.53,64.48,64.44,64.39,64.32,64.38,64.50,64.62,64.66,64.73,64.64,64.48,64.33,64.17,63.95,63.77,63.60,63.40,63.17,63.05,62.97,62.91,62.90,62.90,62.90,62.90,62.90,62.90,62.90,62.90,62.90,62.90,62.90,62.90,62.89,62.86,62.85,62.80,62.73,62.66,62.57,62.52,62.47,62.39,62.32,62.24,62.16,62.09,62.01,61.93,61.85,61.78,61.70,61.62,61.54,61.47,61.39,61.31,61.23,61.16,61.08,61.00,60.93,60.85,60.77,60.69,60.62,60.51,60.38,60.24,60.15,60.02,59.88,59.74,59.53,59.21,58.91,58.72,58.65,58.61,58.51,58.41,58.34,58.26,58.22,58.16,58.08,57.98,57.80,57.60,57.41,57.22,57.07,56.91,56.78,56.67,56.55,56.39,56.21,56.02,55.83,55.64,55.47,55.26,54.99,54.77,54.61,54.45,54.30,54.15,54.06,53.93,53.77,53.64,53.56,53.48,53.38,53.32,53.40,53.51,53.66,53.77,53.87,54.02,54.14,54.26,54.37,54.45,54.55,54.70,54.85,55.01,55.20,55.42,55.66,55.88,56.07,56.30,56.51,56.72,56.95,57.17,57.41,57.64,57.87,58.11,58.34,58.56,58.78,58.91,58.88,58.90,58.91,58.81
163.01,164.37,165.83,167.68,169.77,171.41,172.93,173.38,172.89,171.89,170.96,170.27,169.44,168.03,165.43,162.38,158.75,154.93,151.86,149.53,147.22,144.63,141.57,138.17,134.58,131.02,127.52,124.23,124.33,126.38,129.46,133.19,137.26,139.56,139.71,138.31,138.72,139.54,139.85,139.41,138.17,136.17,134.07,131.98,129.63,126.02,122.23,119.14,116.79,114.21,112.07,110.03,107.69,104.61,101.83,100.49,99.82,99.34,99.09,99.10,98.96,98.46,97.46,96.07,94.65,93.21,91.94,91.83,91.91,91.85,91.48,90.62,89.79,88.37,85.77,81.47,78.35,75.31,72.90,71.69,71.28,70.92,70.47,70.03,69.91,70.11,70.60,70.93,70.66,69.98,69.46,69.00,68.54,68.08,67.63,67.16,66.70,66.23,65.77,65.31,64.93,64.69,64.47,64.35,64.26,64.17,64.10,64.14,64.25,64.36,64.39,64.52,64.52,64.42,64.27,64.11,63.89,63.70,63.55,63.38,63.17,62.99,62.86,62.79,62.78,62.78,62.78,62.78,62.78,62.77,62.77,62.77,62.77,62.77,62.77,62.77,62.77,62.78,62.78,62.74,62.68,62.61,62.53,62.49,62.46,62.38,62.30,62.23,62.15,62.09,62.01,61.93,61.85,61.77,61.69,61.61,61.53,61.45,61.38,61.30,61.22,61.14,61.07,60.99,60.91,60.84,60.77,60.68,60.61,60.47,60.31,60.18,60.09,59.95,59.74,59.54,59.35,59.01,58.75,58.57,58.48,58.40,58.26,58.14,58.06,57.98,57.90,57.86,57.83,57.73,57.59,57.39,57.20,57.05,56.89,56.74,56.63,56.52,56.37,56.23,56.07,55.92,55.75,55.52,55.35,55.16,54.95,54.81,54.66,54.51,54.36,54.22,54.13,53.99,53.84,53.71,53.62,53.55,53.48,53.44,53.53,53.67,53.82,53.94,54.04,54.19,54.28,54.40,54.54,54.61,54.69,54.83,54.99,55.16,55.38,55.62,55.84,56.07,56.30,56.53,56.72,56.91,57.14,57.37,57.60,57.83,58.06,58.30,58.53,58.76,58.99,59.19,59.18,59.21,59.23,59.18
156.27,157.49,159.03,161.32,164.32,167.21,169.84,171.43,172.13,172.21,171.86,171.45,170.94,170.18,168.91,166.99,163.24,158.38,154.73,152.19,149.59,146.72,143.60,140.40,136.67,132.78,128.91,125.18,122.72,123.23,126.02,129.87,133.73,136.54,137.42,136.35,135.90,136.57,137.27,137.71,137.94,136.27,134.23,132.18,129.83,126.21,122.34,119.10,116.56,113.97,111.60,109.58,107.43,104.58,102.36,101.23,100.61,100.17,99.93,100.02,100.02,99.62,98.46,97.04,95.68,94.13,92.26,91.03,90.28,89.73,88.99,87.34,85.64,84.00,82.11,79.61,77.66,75.67,74.22,73.69,73.40,72.81,72.05,71.29,70.86,71.15,71.74,71.91,71.06,70.12,69.56,69.13,68.68,68.26,67.81,67.34,66.88,66.42,65.95,65.45,65.03,64.75,64.52,64.36,64.21,64.04,63.91,63.92,63.99,64.07,64.14,64.28,64.38,64.36,64.21,64.05,63.83,63.65,63.49,63.33,63.16,62.96,62.78,62.67,62.66,62.66,62.66,62.66,62.66,62.61,62.59,62.59,62.59,62.59,62.59,62.59,62.60,62.65,62.66,62.65,62.63,62.59,62.52,62.46,62.41,62.32,62.25,62.17,62.12,62.09,62.01,61.93,61.85,61.76,61.63,61.55,61.47,61.39,61.32,61.25,61.16,61.08,61.02,60.94,60.86,60.81,60.75,60.63,60.55,60.41,60.25,60.11,60.03,59.84,59.62,59.40,59.19,58.96,58.73,58.52,58.36,58.27,58.13,57.99,57.88,57.79,57.67,57.59,57.52,57.44,57.35,57.19,57.02,56.87,56.71,56.61,56.48,56.34,56.20,56.09,55.95,55.80,55.63,55.41,55.23,55.04,54.86,54.85,54.72,54.57,54.43,54.33,54.20,54.05,53.92,53.82,53.69,53.65,53.59,53.56,53.65,53.79,53.91,54.02,54.16,54.31,54.40,54.52,54.66,54.73,54.81,54.97,55.18,55.39,55.62,55.85,56.06,56.25,56.48,56.71,56.93,57.14,57.38,57.61,57.84,58.07,58.30,58.54,58.77,59.00,59.23,59.44,59.50,59.56,59.61,59.60
149.83,151.13,152.83,155.50,159.08,162.66,165.94,168.49,170.27,171.17,171.22,170.84,170.41,170.02,169.51,168.53,165.44,160.85,157.00,154.18,151.27,148.25,145.28,142.19,138.53,134.58,130.62,126.98,123.05,121.64,122.85,126.09,129.79,133.21,135.06,134.63,133.22,133.63,134.62,135.73,136.87,136.08,134.37,132.30,129.87,126.25,122.50,119.09,116.11,113.34,110.88,108.89,106.95,104.53,103.01,102.18,101.65,101.26,101.01,101.06,101.07,100.69,99.48,98.23,96.82,95.04,92.75,90.68,89.19,88.24,87.57,86.38,85.26,84.06,82.53,80.38,78.28,76.80,76.02,75.86,75.45,74.55,73.52,72.58,72.03,72.34,72.73,72.51,71.25,70.17,69.63,69.24,68.82,68.41,67.96,67.50,67.03,66.56,66.10,65.59,65.14,64.84,64.60,64.41,64.20,63.96,63.77,63.70,63.73,63.80,63.87,64.04,64.20,64.24,64.14,63.97,63.76,63.59,63.43,63.27,63.12,62.93,62.73,62.58,62.55,62.52,62.52,62.52,62.51,62.46,62.44,62.44,62.44,62.44,62.44,62.44,62.45,62.50,62.52,62.52,62.54,62.53,62.49,62.44,62.37,62.29,62.22,62.14,62.09,62.05,61.97,61.90,61.82,61.73,61.61,61.52,61.44,61.37,61.29,61.21,61.13,61.06,60.98,60.90,60.83,60.79,60.72,60.57,60.48,60.35,60.21,60.09,60.00,59.79,59.56,59.34,59.13,58.95,58.75,58.53,58.32,58.19,58.06,57.92,57.78,57.67,57.52,57.42,57.34,57.23,57.13,56.99,56.85,56.71,56.56,56.45,56.32,56.16,56.02,55.94,55.80,55.66,55.51,55.31,55.13,54.93,54.80,54.87,54.75,54.60,54.47,54.39,54.26,54.13,54.02,53.94,53.84,53.80,53.75,53.71,53.77,53.87,53.97,54.08,54.22,54.37,54.46,54.58,54.72,54.80,54.85,55.05,55.31,55.54,55.77,56.02,56.24,56.43,56.66,56.91,57.15,57.38,57.59,57.82,58.05,58.28,58.52,58.74,58.97,59.21,59.45,59.72,60.19,60.70,61.13,61.33
143.86,145.43,147.39,150.36,154.26,157.95,161.47,164.75,167.43,168.81,169.04,168.46,167.84,167.50,167.09,166.79,165.20,162.20,158.59,155.43,152.22,149.22,146.59,143.56,140.19,136.47,132.68,129.50,125.33,121.79,120.17,121.97,125.49,129.55,132.50,133.03,130.75,130.81,132.00,133.53,134.96,135.57,134.45,132.34,129.77,126.14,122.70,119.13,115.44,112.33,109.96,108.07,106.30,104.52,103.80,103.34,102.95,102.63,102.34,102.24,102.11,101.66,100.54,99.62,98.03,95.85,93.33,90.75,88.70,87.55,87.45,88.03,88.94,88.81,87.19,83.79,80.24,78.66,78.22,78.07,77.30,76.04,74.82,73.88,73.40,73.64,73.52,72.72,71.24,70.16,69.66,69.34,68.98,68.54,68.08,67.62,67.16,66.69,66.22,65.71,65.27,64.97,64.73,64.50,64.23,63.94,63.66,63.49,63.49,63.54,63.58,63.78,63.95,64.06,64.06,63.85,63.68,63.52,63.37,63.22,63.06,62.90,62.71,62.52,62.44,62.37,62.34,62.34,62.33,62.32,62.32,62.32,62.32,62.32,62.32,62.32,62.32,62.33,62.34,62.37,62.42,62.42,62.41,62.40,62.37,62.29,62.21,62.14,62.07,62.00,61.92,61.84,61.77,61.69,61.60,61.52,61.44,61.37,61.29,61.21,61.13,61.05,60.98,60.90,60.83,60.76,60.66,60.51,60.42,60.29,60.17,60.09,60.00,59.79,59.56,59.35,59.18,58.96,58.78,58.59,58.36,58.16,58.04,57.92,57.76,57.62,57.47,57.36,57.26,57.11,56.97,56.82,56.70,56.59,56.44,56.29,56.15,55.99,55.85,55.76,55.63,55.50,55.40,55.24,55.03,54.84,54.75,54.86,54.76,54.60,54.48,54.40,54.31,54.23,54.15,54.08,54.05,54.00,53.92,53.87,53.88,53.90,54.00,54.12,54.22,54.37,54.47,54.58,54.72,54.79,54.80,55.05,55.37,55.61,55.84,56.12,56.38,56.61,56.85,57.14,57.40,57.61,57.79,58.01,58.24,58.47,58.70,58.93,59.16,59.40,59.65,60.05,61.22,62.58,63.72,64.31
138.93,140.21,142.65,146.20,150.45,154.29,157.64,160.79,163.49,165.02,165.17,164.68,164.13,163.70,163.05,162.93,162.33,160.95,158.78,155.66,152.38,149.58,147.43,144.58,141.56,138.34,135.04,132.04,128.47,124.51,121.17,120.10,121.44,124.49,127.81,130.00,129.17,128.47,129.34,131.39,133.05,134.40,133.98,132.26,129.69,126.29,123.01,119.42,115.41,111.52,109.17,107.52,106.14,105.04,104.75,104.51,104.25,104.01,103.71,103.46,103.19,102.73,101.78,100.60,98.62,96.12,93.42,90.72,88.74,88.16,88.98,89.95,90.74,90.43,88.60,84.91,81.60,80.52,80.47,80.20,78.64,77.17,76.08,75.33,74.85,74.93,74.30,72.98,71.36,70.18,69.67,69.36,69.03,68.65,68.20,67.73,67.28,66.81,66.34,65.91,65.52,65.18,64.86,64.55,64.22,63.88,63.58,63.30,63.22,63.26,63.32,63.50,63.69,63.85,63.91,63.77,63.62,63.47,63.31,63.16,63.00,62.84,62.68,62.49,62.34,62.24,62.20,62.20,62.20,62.20,62.20,62.20,62.20,62.20,62.20,62.20,62.20,62.20,62.20,62.22,62.26,62.30,62.30,62.30,62.29,62.24,62.16,62.12,62.06,61.98,61.91,61.83,61.75,61.68,61.60,61.52,61.44,61.37,61.28,61.17,61.08,61.00,60.93,60.86,60.81,60.72,60.59,60.45,60.36,60.29,60.22,60.13,60.01,59.79,59.59,59.39,59.20,59.00,58.81,58.62,58.42,58.19,58.02,57.87,57.72,57.60,57.45,57.33,57.19,57.04,56.93,56.78,56.64,56.52,56.37,56.25,56.11,55.95,55.81,55.72,55.59,55.45,55.33,55.17,55.02,54.83,54.69,54.82,54.81,54.73,54.63,54.55,54.47,54.39,54.33,54.29,54.25,54.19,54.11,54.05,54.05,54.05,54.08,54.15,54.26,54.38,54.49,54.63,54.77,54.83,54.74,54.97,55.39,55.75,55.99,56.28,56.55,56.80,57.11,57.42,57.71,57.97,58.19,58.39,58.61,58.83,59.03,59.26,59.46,59.69,59.99,60.49,61.56,62.98,64.29,64.96
134.60,135.24,138.11,142.25,146.94,151.07,154.31,157.12,159.50,160.95,160.94,160.54,160.07,159.47,158.52,158.33,158.33,158.26,157.73,155.20,152.21,149.73,148.01,145.48,142.87,140.16,137.34,134.46,131.59,127.87,123.58,119.79,118.64,119.91,122.75,126.09,127.08,126.03,126.71,129.20,131.13,132.96,133.31,132.17,129.66,126.50,123.24,119.61,115.40,110.83,108.58,107.25,106.29,105.72,105.66,105.60,105.48,105.31,105.02,104.68,104.31,103.85,103.03,101.38,99.00,96.25,93.44,90.77,89.19,89.34,90.91,91.81,91.89,91.10,89.19,85.82,83.28,82.78,82.95,82.43,79.99,78.31,77.33,76.77,76.26,76.07,74.98,73.28,71.59,70.25,69.68,69.36,69.05,68.73,68.31,67.85,67.40,66.94,66.49,66.13,65.78,65.37,64.96,64.58,64.19,63.82,63.50,63.14,62.98,62.98,63.07,63.22,63.42,63.62,63.74,63.69,63.55,63.41,63.24,63.09,62.94,62.78,62.63,62.46,62.24,62.12,62.08,62.08,62.08,62.07,62.07,62.07,62.07,62.07,62.07,62.07,62.08,62.08,62.08,62.08,62.10,62.16,62.16,62.17,62.18,62.17,62.10,62.09,62.05,61.97,61.89,61.82,61.74,61.68,61.60,61.51,61.43,61.36,61.26,61.13,61.04,60.96,60.88,60.81,60.79,60.69,60.55,60.40,60.32,60.28,60.23,60.15,60.01,59.80,59.61,59.43,59.22,59.05,58.84,58.64,58.47,58.25,58.02,57.83,57.69,57.59,57.44,57.29,57.15,57.00,56.91,56.77,56.62,56.47,56.32,56.22,56.10,55.95,55.81,55.71,55.58,55.44,55.30,55.16,55.05,54.86,54.68,54.79,54.81,54.80,54.75,54.69,54.64,54.58,54.54,54.51,54.44,54.36,54.29,54.24,54.23,54.22,54.17,54.18,54.31,54.40,54.54,54.69,54.82,54.86,54.67,54.88,55.38,55.87,56.14,56.43,56.71,56.99,57.36,57.70,58.02,58.34,58.63,58.82,59.03,59.24,59.43,59.67,59.84,60.05,60.38,60.90,61.71,62.98,64.27,64.96
131.38,130.70,133.52,138.13,143.44,148.43,152.06,154.67,156.47,157.32,157.10,156.51,155.85,155.05,153.85,153.23,152.95,153.03,153.66,153.32,151.63,149.67,148.20,146.34,144.28,141.88,139.16,136.44,133.79,130.94,127.37,122.78,120.05,118.46,118.55,120.52,122.28,122.75,124.21,126.78,129.11,131.25,132.50,132.20,129.78,126.67,123.09,119.16,114.86,110.36,108.60,107.73,107.04,106.48,106.28,106.36,106.42,106.30,106.11,105.84,105.51,105.03,104.07,101.88,99.22,96.45,93.70,91.24,90.64,91.32,92.60,93.13,92.57,91.53,90.13,88.28,86.71,86.44,86.31,85.09,81.92,79.76,78.58,77.98,77.38,76.69,75.38,73.72,72.02,70.44,69.73,69.36,69.05,68.74,68.39,67.97,67.53,67.12,66.71,66.37,65.97,65.43,64.93,64.52,64.14,63.75,63.40,63.10,62.87,62.74,62.83,62.98,63.15,63.34,63.53,63.60,63.49,63.34,63.19,63.03,62.88,62.73,62.57,62.41,62.18,62.02,61.96,61.96,61.95,61.91,61.88,61.88,61.88,61.88,61.88,61.91,61.95,61.96,61.96,61.96,61.97,61.98,61.98,62.02,62.06,62.06,62.03,62.02,62.00,61.91,61.83,61.76,61.71,61.68,61.59,61.47,61.38,61.30,61.21,61.12,61.04,60.96,60.88,60.80,60.75,60.66,60.54,60.40,60.32,60.21,60.12,60.05,59.99,59.84,59.65,59.45,59.26,59.06,58.87,58.68,58.48,58.30,58.08,57.89,57.73,57.54,57.38,57.26,57.14,56.99,56.86,56.71,56.58,56.47,56.32,56.18,56.07,55.95,55.80,55.67,55.56,55.46,55.36,55.26,55.13,54.99,54.86,54.79,54.57,54.56,54.67,54.71,54.79,54.79,54.76,54.70,54.62,54.55,54.50,54.47,54.41,54.36,54.29,54.28,54.38,54.46,54.59,54.72,54.82,54.86,54.58,54.79,55.32,55.83,56.19,56.46,56.76,57.11,57.50,57.91,58.29,58.64,58.95,59.22,59.45,59.70,59.97,60.30,60.41,60.51,60.70,61.06,61.83,62.98,64.17,64.92
127.87,126.61,129.87,134.82,140.09,145.25,149.26,152.06,153.69,153.91,153.25,152.20,151.07,149.79,147.92,146.74,146.70,147.76,149.50,150.30,149.92,148.81,147.29,145.50,144.00,142.51,140.72,138.21,135.59,133.03,129.97,125.76,122.53,119.67,117.97,117.92,118.34,119.38,121.48,124.30,126.83,129.18,131.07,131.65,129.92,126.62,122.50,118.27,114.13,110.21,108.89,108.32,107.79,107.21,106.87,106.99,107.18,107.19,107.10,106.92,106.64,106.11,104.92,102.41,99.68,96.98,94.41,92.40,92.44,93.28,94.11,94.14,93.32,92.22,91.11,90.12,89.27,89.14,88.88,87.58,84.45,81.71,79.90,78.94,78.27,77.21,75.77,74.13,72.48,70.87,69.98,69.47,69.14,68.83,68.50,68.06,67.55,67.12,66.70,66.32,65.89,65.39,64.87,64.46,64.07,63.70,63.36,63.05,62.75,62.55,62.60,62.74,62.89,63.07,63.27,63.44,63.41,63.28,63.13,62.98,62.82,62.65,62.48,62.31,62.11,61.94,61.85,61.81,61.80,61.76,61.74,61.74,61.74,61.74,61.74,61.76,61.80,61.81,61.83,61.84,61.84,61.84,61.84,61.88,61.91,61.91,61.93,61.94,61.91,61.86,61.80,61.73,61.69,61.64,61.56,61.43,61.34,61.27,61.19,61.11,61.04,60.96,60.88,60.78,60.70,60.60,60.48,60.34,60.25,60.12,60.00,59.93,59.90,59.77,59.59,59.39,59.23,59.03,58.86,58.68,58.48,58.32,58.13,57.94,57.75,57.54,57.36,57.23,57.12,56.96,56.83,56.68,56.55,56.44,56.31,56.18,56.08,55.99,55.86,55.70,55.61,55.53,55.45,55.37,55.25,55.14,55.03,54.88,54.57,54.48,54.51,54.54,54.65,54.69,54.68,54.68,54.72,54.71,54.68,54.64,54.56,54.48,54.41,54.38,54.44,54.52,54.64,54.74,54.82,54.85,54.52,54.69,55.18,55.67,56.01,56.17,56.35,56.65,57.03,57.48,57.98,58.50,58.97,59.45,59.84,60.15,60.41,60.67,60.73,60.75,60.84,61.16,61.90,62.92,63.95,64.65
124.14,123.04,127.10,132.22,136.83,141.53,145.84,149.13,150.95,150.59,149.27,147.53,145.69,143.61,140.73,138.95,139.74,142.57,145.44,146.32,147.13,147.17,145.37,143.10,142.09,142.02,141.91,139.70,137.01,134.19,131.34,128.50,125.77,123.22,120.81,118.41,115.72,116.18,118.56,121.66,124.27,126.75,129.01,130.47,130.00,126.34,121.55,117.05,113.32,110.37,109.39,108.95,108.48,107.89,107.44,107.53,107.79,107.97,108.03,107.92,107.69,107.11,105.60,103.05,100.39,97.84,95.53,94.21,94.51,95.15,95.40,94.87,94.16,93.18,92.11,91.30,90.89,90.80,90.62,89.79,87.46,84.12,81.38,79.73,78.97,77.68,76.14,74.54,73.00,71.56,70.44,69.70,69.32,69.00,68.63,68.08,67.45,66.93,66.47,65.98,65.56,65.25,64.80,64.39,64.01,63.67,63.41,63.00,62.63,62.40,62.36,62.50,62.65,62.81,62.98,63.19,63.28,63.22,63.06,62.91,62.76,62.56,62.36,62.20,62.04,61.88,61.74,61.63,61.63,61.62,61.62,61.62,61.62,61.62,61.62,61.62,61.63,61.63,61.69,61.72,61.72,61.72,61.72,61.73,61.73,61.74,61.80,61.82,61.81,61.81,61.79,61.73,61.66,61.58,61.51,61.42,61.34,61.27,61.18,61.11,61.03,60.95,60.86,60.72,60.63,60.51,60.36,60.22,60.14,60.01,59.88,59.80,59.73,59.59,59.43,59.27,59.11,58.95,58.80,58.63,58.47,58.32,58.15,57.96,57.75,57.58,57.38,57.20,57.06,56.91,56.82,56.69,56.54,56.40,56.31,56.23,56.15,56.07,55.97,55.83,55.73,55.65,55.57,55.49,55.41,55.29,55.16,55.06,54.83,54.54,54.30,54.20,54.26,54.28,54.34,54.48,54.71,54.81,54.81,54.76,54.68,54.61,54.53,54.48,54.50,54.58,54.66,54.74,54.82,54.84,54.47,54.56,54.99,55.42,55.62,55.58,55.54,55.65,56.02,56.47,57.11,57.90,58.68,59.46,60.11,60.54,60.71,60.78,60.79,60.77,60.81,61.20,61.91,62.80,63.62,64.13
122.10,120.84,124.02,128.60,133.22,137.75,141.99,144.83,146.07,145.53,144.13,141.80,138.96,135.84,132.86,131.70,133.43,137.32,141.34,143.13,144.56,145.00,143.49,141.35,140.25,140.31,140.86,139.84,137.87,135.33,132.69,130.44,128.51,126.07,123.48,120.94,118.14,116.44,116.16,117.55,120.99,123.86,126.39,128.40,128.97,126.00,121.20,116.70,113.22,110.41,109.50,109.08,108.66,108.17,107.77,107.90,108.23,108.53,108.76,108.82,108.76,108.29,106.59,104.09,101.45,98.88,96.71,96.10,96.31,96.45,96.19,95.55,94.89,94.06,93.13,92.35,92.00,91.79,91.42,90.65,89.25,86.52,83.69,81.35,79.75,78.25,76.74,75.24,73.81,72.38,71.03,70.05,69.49,69.01,68.48,67.85,67.16,66.53,66.07,65.60,65.22,65.00,64.67,64.28,64.00,63.82,63.63,63.09,62.58,62.24,62.13,62.25,62.41,62.56,62.73,62.91,63.08,63.08,62.95,62.80,62.65,62.47,62.29,62.13,61.98,61.83,61.67,61.54,61.50,61.50,61.50,61.50,61.50,61.50,61.50,61.50,61.50,61.50,61.53,61.55,61.56,61.59,61.60,61.60,61.60,61.61,61.64,61.64,61.66,61.70,61.70,61.67,61.61,61.54,61.49,61.42,61.34,61.25,61.14,61.06,60.98,60.91,60.81,60.66,60.57,60.44,60.31,60.20,60.12,59.98,59.82,59.69,59.59,59.46,59.30,59.15,59.00,58.84,58.69,58.52,58.33,58.18,58.02,57.84,57.66,57.50,57.31,57.17,57.06,56.95,56.86,56.76,56.63,56.49,56.41,56.33,56.26,56.17,56.05,55.94,55.85,55.77,55.68,55.57,55.48,55.37,55.23,55.14,54.97,54.70,54.43,54.25,54.13,54.16,54.18,54.15,54.15,54.38,54.66,54.84,54.80,54.73,54.65,54.59,54.56,54.60,54.66,54.74,54.81,54.80,54.45,54.45,54.74,55.12,55.26,55.15,54.99,54.94,55.21,55.54,56.13,56.89,57.62,58.39,59.30,60.11,60.59,60.77,60.83,60.83,60.88,61.25,61.86,62.56,63.16,63.46
120.76,119.12,121.11,125.02,129.76,134.14,138.20,140.41,140.94,140.20,138.68,135.65,131.88,128.11,125.48,125.38,127.99,132.51,137.30,140.08,142.00,142.77,141.75,139.94,138.64,138.48,139.21,139.35,138.10,136.00,133.69,131.81,130.55,128.25,125.72,123.56,121.32,117.83,114.74,113.81,117.44,120.70,123.55,126.00,127.39,125.58,121.14,116.77,113.36,110.44,109.50,109.09,108.70,108.32,107.99,108.15,108.53,108.91,109.28,109.51,109.64,109.29,107.50,105.08,102.49,99.98,98.01,97.86,97.83,97.48,96.83,96.19,95.55,94.83,94.04,93.27,92.81,92.34,91.71,90.91,90.24,88.31,85.67,82.83,80.48,78.79,77.29,75.85,74.48,73.02,71.50,70.31,69.56,68.92,68.24,67.55,66.83,66.11,65.65,65.24,64.93,64.75,64.54,64.22,64.06,64.03,63.90,63.26,62.62,62.15,61.92,62.02,62.17,62.32,62.48,62.64,62.85,62.93,62.85,62.69,62.54,62.38,62.23,62.08,61.92,61.77,61.60,61.46,61.39,61.38,61.37,61.36,61.36,61.36,61.36,61.37,61.38,61.38,61.38,61.38,61.40,61.45,61.47,61.47,61.48,61.48,61.48,61.48,61.51,61.57,61.58,61.58,61.54,61.48,61.47,61.41,61.33,61.22,61.08,61.00,60.92,60.84,60.74,60.60,60.52,60.38,60.26,60.18,60.11,59.98,59.78,59.58,59.48,59.33,59.17,59.02,58.86,58.71,58.55,58.37,58.17,58.02,57.87,57.73,57.58,57.43,57.28,57.18,57.10,57.02,56.93,56.85,56.74,56.61,56.53,56.45,56.37,56.27,56.13,56.05,55.97,55.89,55.79,55.65,55.56,55.44,55.31,55.22,55.08,54.88,54.67,54.43,54.17,54.23,54.21,54.00,53.77,53.99,54.38,54.70,54.79,54.81,54.75,54.68,54.62,54.62,54.67,54.74,54.80,54.78,54.50,54.38,54.50,54.79,54.88,54.72,54.52,54.39,54.54,54.75,55.21,55.82,56.39,57.00,58.08,59.22,60.05,60.42,60.60,60.67,60.74,61.05,61.49,61.98,62.34,62.45
120.28,117.83,119.06,122.56,127.12,131.16,135.00,136.88,136.90,135.51,133.25,129.04,124.83,121.94,120.44,121.72,124.92,129.19,133.44,136.81,139.39,140.78,140.41,139.08,137.78,137.26,137.59,137.95,136.73,135.09,133.46,132.01,130.68,128.78,126.64,124.54,122.46,119.90,116.13,112.70,113.57,117.01,120.48,123.28,124.97,124.92,121.59,117.45,113.68,110.50,109.54,109.15,108.76,108.38,108.01,108.13,108.48,108.86,109.20,109.57,109.81,109.55,107.92,105.53,103.19,101.17,99.66,99.10,98.66,98.12,97.47,96.74,96.01,95.29,94.56,93.82,93.02,92.08,91.15,90.32,89.57,88.03,85.69,83.04,81.05,79.12,77.45,75.95,74.46,72.94,71.41,70.18,69.38,68.64,67.94,67.25,66.53,65.79,65.25,64.97,64.80,64.65,64.52,64.37,64.29,64.28,64.20,63.60,62.89,62.23,61.76,61.79,61.93,62.08,62.24,62.39,62.61,62.76,62.78,62.63,62.48,62.33,62.17,62.02,61.86,61.70,61.52,61.34,61.27,61.26,61.22,61.19,61.19,61.19,61.19,61.21,61.25,61.26,61.26,61.26,61.26,61.28,61.29,61.32,61.36,61.36,61.36,61.36,61.36,61.40,61.45,61.46,61.44,61.42,61.41,61.35,61.28,61.17,61.02,60.94,60.86,60.76,60.63,60.54,60.45,60.33,60.20,60.13,60.05,59.95,59.76,59.51,59.36,59.17,58.99,58.84,58.69,58.52,58.38,58.23,58.10,57.96,57.84,57.74,57.64,57.48,57.38,57.29,57.21,57.13,57.00,56.91,56.82,56.73,56.65,56.58,56.46,56.34,56.24,56.17,56.09,55.99,55.86,55.76,55.68,55.56,55.43,55.34,55.20,55.06,54.91,54.70,54.60,54.69,54.74,54.65,54.45,54.26,53.95,53.84,54.37,54.77,54.81,54.74,54.68,54.67,54.69,54.74,54.81,54.85,54.77,54.49,54.29,54.38,54.36,54.22,54.09,54.07,54.22,54.40,54.65,54.95,55.24,55.54,56.44,57.54,58.48,59.05,59.48,59.68,59.73,59.92,60.13,60.30,60.42,60.41
119.68,116.67,117.68,120.93,125.09,128.87,132.31,133.72,133.14,130.81,127.59,123.50,119.92,117.75,116.80,118.69,121.89,125.68,129.75,133.54,136.39,138.06,138.29,137.69,136.72,136.08,136.06,136.48,135.16,133.66,132.42,131.33,130.26,128.88,127.13,125.06,123.05,121.06,117.43,113.08,111.52,113.59,116.96,120.09,122.02,123.10,121.30,117.81,113.60,110.20,109.04,108.67,108.44,108.16,107.77,107.71,107.90,108.25,108.58,109.22,109.77,109.77,108.47,106.38,104.32,102.47,100.91,99.74,98.94,98.21,97.40,96.51,95.67,94.92,94.23,93.54,92.66,91.58,90.43,89.32,88.39,87.09,85.21,83.02,81.21,79.17,77.29,75.59,74.03,72.53,71.14,70.02,69.19,68.42,67.72,67.16,66.64,65.98,65.45,65.13,64.90,64.70,64.61,64.57,64.56,64.56,64.48,63.94,63.21,62.45,61.81,61.61,61.69,61.84,62.00,62.16,62.37,62.56,62.65,62.56,62.42,62.27,62.11,61.95,61.80,61.63,61.43,61.25,61.15,61.11,61.07,61.04,61.04,61.04,61.04,61.06,61.10,61.11,61.12,61.14,61.14,61.14,61.14,61.17,61.20,61.21,61.23,61.24,61.24,61.25,61.30,61.30,61.32,61.34,61.33,61.28,61.22,61.10,60.96,60.88,60.80,60.70,60.57,60.48,60.39,60.27,60.14,60.06,59.96,59.86,59.66,59.41,59.25,59.05,58.88,58.73,58.60,58.47,58.32,58.20,58.11,57.99,57.90,57.81,57.70,57.58,57.49,57.41,57.32,57.22,57.09,57.00,56.93,56.84,56.75,56.66,56.56,56.44,56.36,56.29,56.19,56.08,55.96,55.88,55.80,55.68,55.55,55.46,55.32,55.21,55.09,54.91,54.89,54.98,55.03,55.01,54.89,54.59,54.05,53.63,53.91,54.40,54.67,54.77,54.76,54.73,54.71,54.74,54.81,54.86,54.89,54.60,54.25,54.13,54.00,53.84,53.72,53.70,53.83,53.98,54.13,54.29,54.47,54.66,55.27,56.07,56.83,57.48,58.08,58.44,58.56,58.72,58.87,58.93,58.83,58.54
118.92,115.63,116.84,119.96,123.58,127.15,130.02,130.87,129.58,126.14,121.99,119.09,116.96,115.28,114.34,116.14,118.83,121.97,126.16,130.18,132.94,134.61,135.43,135.77,135.38,134.85,134.62,134.96,133.48,131.92,130.74,129.92,129.37,128.61,127.27,125.26,123.30,121.45,118.57,114.72,111.25,110.66,113.15,116.46,118.64,120.25,120.18,117.61,113.05,109.57,108.08,107.68,107.71,107.63,107.25,106.92,106.87,107.19,107.55,108.58,109.58,110.00,109.17,107.62,105.77,103.77,101.68,99.83,98.75,97.79,96.69,95.59,94.64,93.84,93.16,92.53,91.80,90.86,89.57,88.00,86.82,85.63,84.27,82.72,80.93,78.91,76.82,74.88,73.31,71.88,70.77,69.85,69.04,68.30,67.66,67.36,67.16,66.67,66.19,65.70,65.26,64.93,64.83,64.84,64.87,64.86,64.75,64.28,63.58,62.80,62.06,61.48,61.44,61.60,61.75,61.91,62.13,62.32,62.44,62.48,62.35,62.20,62.05,61.90,61.73,61.53,61.34,61.18,61.04,60.96,60.92,60.91,60.92,60.92,60.92,60.92,60.93,60.93,60.98,61.01,61.01,61.02,61.02,61.02,61.03,61.04,61.10,61.11,61.12,61.12,61.13,61.13,61.17,61.22,61.22,61.21,61.15,61.04,60.90,60.82,60.75,60.66,60.56,60.43,60.34,60.21,60.09,60.00,59.86,59.71,59.52,59.29,59.14,58.98,58.82,58.69,58.60,58.52,58.38,58.26,58.19,58.10,58.02,57.90,57.78,57.69,57.61,57.53,57.43,57.29,57.20,57.13,57.05,56.95,56.82,56.73,56.65,56.56,56.48,56.40,56.28,56.16,56.08,56.00,55.92,55.80,55.67,55.58,55.44,55.33,55.23,55.09,55.07,55.09,55.09,55.09,55.06,54.96,54.58,53.99,53.47,53.76,54.32,54.74,54.85,54.80,54.74,54.74,54.81,54.82,54.88,54.69,54.35,54.03,53.80,53.57,53.38,53.28,53.36,53.50,53.66,53.83,54.05,54.27,54.56,54.85,55.17,55.74,56.37,56.91,57.30,57.47,57.73,57.82,57.54,56.82
118.10,114.78,115.67,118.56,122.10,125.32,127.54,127.77,126.03,122.51,119.26,116.87,114.93,113.23,111.98,113.61,116.06,118.73,122.06,125.48,128.28,130.52,132.22,133.14,133.14,133.02,133.14,133.45,132.32,130.90,129.56,128.47,127.84,127.42,126.78,125.66,124.20,122.52,120.04,116.74,113.07,110.44,110.68,112.67,115.10,117.09,116.74,114.42,110.97,108.55,107.11,106.37,106.11,106.20,106.09,105.98,105.98,106.23,106.97,108.29,109.50,110.18,109.85,108.68,106.55,103.81,100.98,99.31,98.17,97.09,95.92,94.78,93.74,92.82,92.04,91.44,90.73,89.75,88.39,86.68,85.26,83.92,82.51,81.03,79.50,77.65,76.01,74.59,73.21,71.65,70.55,69.84,69.40,68.95,68.60,68.43,68.29,67.86,67.36,66.78,66.18,65.68,65.38,65.29,65.31,65.33,65.16,64.78,64.06,63.15,62.18,61.27,61.18,61.36,61.51,61.67,61.89,62.08,62.22,62.32,62.27,62.11,61.95,61.82,61.64,61.44,61.27,61.12,60.96,60.84,60.77,60.76,60.79,60.79,60.79,60.79,60.79,60.80,60.82,60.84,60.85,60.89,60.89,60.89,60.89,60.90,60.94,60.98,61.00,61.00,61.00,61.00,61.04,61.11,61.14,61.11,61.04,60.95,60.84,60.76,60.69,60.61,60.53,60.45,60.34,60.23,60.11,59.98,59.83,59.65,59.45,59.27,59.12,59.00,58.88,58.78,58.70,58.58,58.47,58.37,58.30,58.22,58.10,57.99,57.89,57.81,57.73,57.63,57.51,57.40,57.32,57.24,57.15,57.03,56.92,56.84,56.76,56.68,56.60,56.48,56.37,56.27,56.20,56.12,56.01,55.89,55.79,55.70,55.56,55.45,55.35,55.22,55.21,55.21,55.19,55.15,55.10,55.03,54.76,54.23,53.54,53.32,53.82,54.46,54.82,54.85,54.82,54.82,54.86,54.86,54.88,54.78,54.51,54.10,53.78,53.46,53.16,52.95,52.95,53.06,53.23,53.40,53.62,53.78,53.90,54.00,53.96,53.46,53.41,54.47,56.04,56.34,56.64,56.50,55.90,54.99
117.04,113.84,114.32,116.97,120.53,123.43,125.11,124.79,122.77,119.72,117.60,115.49,113.44,111.54,109.76,110.92,113.23,115.77,118.19,120.81,123.39,125.93,128.30,129.80,130.48,131.00,131.57,131.95,131.28,130.12,128.75,127.34,126.42,126.02,125.84,125.59,124.74,123.34,121.20,118.36,114.98,111.07,109.09,109.38,111.72,114.01,113.13,111.00,108.83,107.46,106.14,105.04,104.39,104.51,104.65,104.81,104.95,105.28,106.49,108.08,109.49,110.41,110.39,109.44,106.95,103.52,100.15,98.76,97.60,96.43,95.25,94.09,92.96,91.89,90.96,90.28,89.52,88.47,87.07,85.36,83.80,82.44,81.08,79.73,78.60,77.11,76.10,75.23,73.91,72.14,70.94,70.31,70.13,69.92,69.82,69.70,69.51,69.10,68.55,67.90,67.22,66.56,66.09,65.85,65.79,65.78,65.52,65.20,64.45,63.42,62.27,61.12,60.95,61.12,61.27,61.43,61.64,61.83,61.99,62.13,62.16,62.02,61.85,61.74,61.54,61.37,61.21,61.05,60.90,60.74,60.63,60.60,60.65,60.66,60.66,60.66,60.67,60.67,60.67,60.67,60.69,60.75,60.77,60.77,60.77,60.77,60.78,60.83,60.86,60.87,60.87,60.88,60.93,61.00,61.05,61.01,60.94,60.86,60.79,60.71,60.64,60.56,60.50,60.47,60.35,60.25,60.15,60.00,59.86,59.65,59.45,59.29,59.14,59.06,58.98,58.90,58.80,58.67,58.57,58.49,58.40,58.32,58.19,58.08,58.01,57.92,57.84,57.72,57.60,57.52,57.44,57.35,57.24,57.11,57.03,56.96,56.87,56.79,56.70,56.57,56.47,56.39,56.31,56.22,56.09,55.99,55.91,55.81,55.68,55.58,55.47,55.34,55.32,55.31,55.27,55.19,55.10,55.00,54.75,54.31,53.64,53.00,53.39,54.14,54.72,54.85,54.87,54.87,54.87,54.86,54.86,54.80,54.57,54.13,53.75,53.38,53.00,52.67,52.56,52.65,52.80,52.95,53.14,53.24,53.27,53.28,53.01,51.60,50.77,51.98,54.31,54.89,55.45,55.13,54.22,53.17
115.22,112.41,112.64,115.07,118.64,121.41,123.06,122.42,120.48,118.75,117.07,115.05,112.91,110.67,107.87,107.69,109.92,113.27,115.54,117.32,118.74,120.26,122.32,124.78,127.18,128.87,129.77,130.47,130.21,129.57,128.67,127.33,125.92,124.70,123.98,123.82,123.54,122.81,121.07,118.43,115.45,112.22,109.30,107.83,108.95,111.44,110.88,109.27,107.76,106.48,105.18,103.96,103.03,102.70,102.79,103.03,103.41,104.21,105.95,107.84,109.61,110.82,110.55,109.32,106.67,103.27,100.13,98.66,97.44,96.19,94.94,93.72,92.47,91.23,90.02,88.91,88.03,86.94,85.56,84.01,82.73,81.95,81.34,80.78,80.37,79.76,79.36,78.57,76.71,74.63,73.15,72.22,71.71,71.29,71.14,70.90,70.53,70.11,69.44,68.78,68.12,67.47,66.99,66.64,66.33,66.00,65.60,65.19,64.43,63.44,62.33,61.17,60.84,60.88,61.03,61.19,61.36,61.55,61.75,61.89,61.96,61.90,61.77,61.63,61.47,61.30,61.15,60.99,60.84,60.63,60.51,60.46,60.48,60.48,60.48,60.51,60.55,60.55,60.55,60.55,60.56,60.58,60.64,60.65,60.65,60.65,60.65,60.67,60.71,60.75,60.75,60.81,60.84,60.88,60.94,60.93,60.88,60.82,60.79,60.71,60.63,60.56,60.49,60.42,60.33,60.25,60.16,60.06,59.97,59.77,59.54,59.36,59.25,59.18,59.10,59.01,58.88,58.77,58.69,58.59,58.47,58.39,58.29,58.20,58.12,57.98,57.90,57.81,57.72,57.64,57.56,57.44,57.33,57.23,57.16,57.08,56.97,56.85,56.77,56.67,56.59,56.49,56.37,56.28,56.19,56.11,56.02,55.89,55.78,55.70,55.59,55.45,55.39,55.38,55.31,55.18,55.04,54.86,54.50,53.99,53.42,52.94,53.28,53.94,54.50,54.71,54.75,54.75,54.74,54.69,54.69,54.56,54.29,53.90,53.56,53.23,52.88,52.51,52.22,52.25,52.35,52.44,52.50,52.58,52.64,52.69,52.55,51.54,50.23,50.05,51.05,52.31,53.91,53.84,52.70,51.46
113.17,110.42,111.06,113.65,117.01,119.74,121.16,120.40,118.64,117.44,116.09,114.56,112.72,110.24,106.69,104.71,106.16,109.93,112.76,114.18,115.12,116.33,118.29,120.88,123.63,125.82,127.26,128.18,128.19,127.89,127.44,126.72,125.66,124.17,122.88,122.25,122.21,122.29,121.20,118.92,116.17,113.18,109.79,107.07,106.54,108.94,108.85,107.91,106.96,105.69,104.38,103.10,101.95,101.23,101.21,101.34,101.94,103.37,105.47,107.57,109.55,110.90,110.44,108.69,106.10,103.09,100.23,98.60,97.28,96.00,94.69,93.40,92.09,90.85,89.63,88.32,87.25,86.10,84.99,84.09,83.44,83.35,83.29,83.11,82.97,82.62,82.12,80.97,78.68,76.82,75.27,74.08,73.27,72.62,72.34,71.96,71.41,70.81,69.95,69.25,68.57,67.86,67.31,66.83,66.40,66.00,65.53,65.00,64.22,63.28,62.28,61.22,60.70,60.62,60.79,60.94,61.10,61.30,61.51,61.65,61.74,61.77,61.70,61.55,61.40,61.24,61.09,60.93,60.75,60.54,60.40,60.32,60.30,60.30,60.32,60.36,60.40,60.43,60.43,60.43,60.43,60.44,60.48,60.52,60.53,60.53,60.53,60.55,60.59,60.64,60.67,60.71,60.73,60.76,60.83,60.83,60.79,60.77,60.75,60.68,60.62,60.56,60.48,60.40,60.33,60.25,60.17,60.09,60.02,59.84,59.64,59.45,59.37,59.27,59.19,59.09,58.97,58.89,58.79,58.68,58.56,58.48,58.40,58.31,58.20,58.08,57.99,57.92,57.83,57.73,57.65,57.53,57.43,57.35,57.27,57.17,57.06,56.94,56.87,56.79,56.69,56.58,56.46,56.38,56.30,56.21,56.10,55.98,55.89,55.82,55.71,55.57,55.48,55.43,55.33,55.16,54.95,54.62,54.16,53.64,53.14,52.82,53.16,53.76,54.23,54.46,54.48,54.47,54.45,54.41,54.38,54.24,53.97,53.62,53.28,52.97,52.63,52.27,51.90,51.84,51.87,51.91,51.94,52.01,52.07,52.11,52.00,51.28,49.99,49.06,49.02,50.37,52.24,52.41,51.23,49.51
110.86,107.98,109.59,112.65,115.62,118.32,119.37,118.67,117.14,115.80,114.67,113.95,112.69,110.14,106.12,102.16,102.20,105.83,109.68,111.19,112.33,113.83,115.90,118.00,119.98,122.11,124.18,125.23,125.39,125.28,125.25,125.51,125.49,124.23,122.45,120.96,120.82,121.76,121.51,119.70,117.03,113.92,110.47,106.99,104.58,106.54,106.96,106.73,106.31,105.04,103.73,102.42,101.13,100.05,99.92,99.87,100.65,102.74,105.01,107.23,109.30,110.69,110.12,107.68,105.25,102.88,100.32,98.52,97.11,95.79,94.47,93.11,91.81,90.70,89.65,88.39,87.08,85.92,85.27,85.37,85.60,86.20,86.47,86.32,86.13,85.45,84.25,82.35,79.81,78.56,77.11,75.76,74.71,73.85,73.38,72.84,72.10,71.20,70.12,69.34,68.63,67.83,67.14,66.53,66.10,65.79,65.32,64.69,63.86,62.97,62.14,61.21,60.55,60.34,60.55,60.70,60.86,61.06,61.27,61.41,61.51,61.61,61.64,61.49,61.34,61.19,61.03,60.85,60.64,60.47,60.31,60.19,60.13,60.12,60.17,60.22,60.23,60.30,60.31,60.31,60.31,60.31,60.32,60.37,60.41,60.41,60.42,60.47,60.50,60.53,60.59,60.61,60.61,60.64,60.70,60.71,60.71,60.70,60.69,60.62,60.59,60.55,60.48,60.40,60.33,60.25,60.17,60.09,60.02,59.88,59.72,59.57,59.49,59.35,59.25,59.17,59.09,59.00,58.88,58.76,58.68,58.60,58.52,58.41,58.28,58.19,58.11,58.04,57.93,57.79,57.72,57.63,57.55,57.47,57.39,57.26,57.15,57.06,56.98,56.90,56.78,56.66,56.58,56.49,56.42,56.30,56.17,56.09,56.00,55.93,55.82,55.69,55.59,55.47,55.33,55.14,54.84,54.32,53.80,53.30,52.81,52.64,53.04,53.57,53.93,54.10,54.08,54.05,54.04,54.03,53.97,53.84,53.63,53.30,52.93,52.61,52.29,51.96,51.60,51.42,51.37,51.39,51.45,51.53,51.56,51.53,51.37,50.80,49.86,48.72,48.02,49.05,50.61,50.87,49.66,47.27
107.64,105.36,108.21,111.88,114.46,116.45,117.51,117.04,115.64,114.10,112.67,112.49,111.97,109.84,106.02,101.97,100.05,101.00,104.89,107.22,109.29,111.45,113.67,115.70,117.47,119.33,121.19,122.31,122.52,122.60,122.91,123.61,124.28,123.78,122.34,120.47,119.61,120.81,121.07,119.63,117.10,114.18,111.07,107.66,104.48,104.49,104.82,105.02,104.97,104.39,103.22,101.91,100.58,99.42,99.42,99.55,100.33,102.20,104.40,106.63,108.76,110.24,109.74,106.68,103.85,101.61,99.69,98.19,96.75,95.37,94.07,92.85,91.72,90.72,89.70,88.47,87.25,86.64,86.64,87.14,87.77,88.38,88.67,88.66,88.46,87.14,84.57,81.72,79.66,78.53,77.24,76.08,75.19,74.40,73.76,73.04,72.16,71.10,70.03,69.18,68.40,67.57,66.82,66.08,65.60,65.34,64.93,64.28,63.44,62.55,61.74,60.90,60.31,60.12,60.31,60.46,60.62,60.81,61.03,61.18,61.30,61.42,61.48,61.42,61.27,61.13,60.95,60.75,60.57,60.41,60.23,60.07,60.00,59.99,60.02,60.05,60.10,60.13,60.18,60.19,60.19,60.19,60.19,60.22,60.26,60.29,60.30,60.35,60.39,60.41,60.48,60.49,60.49,60.52,60.58,60.59,60.62,60.63,60.59,60.55,60.51,60.47,60.44,60.39,60.33,60.25,60.17,60.10,60.06,59.97,59.81,59.64,59.56,59.45,59.36,59.27,59.16,59.08,58.97,58.88,58.80,58.72,58.61,58.49,58.39,58.31,58.23,58.13,58.01,57.91,57.83,57.75,57.65,57.54,57.46,57.35,57.24,57.13,57.06,56.97,56.84,56.72,56.64,56.56,56.46,56.34,56.23,56.15,56.04,55.95,55.86,55.75,55.63,55.48,55.33,55.15,54.86,54.34,53.76,53.18,52.65,52.47,52.82,53.27,53.57,53.70,53.69,53.66,53.63,53.62,53.55,53.45,53.27,52.96,52.61,52.26,51.94,51.63,51.34,51.15,51.01,50.93,50.97,51.01,51.05,50.97,50.64,49.91,48.73,47.44,46.90,48.60,50.18,49.27,46.84,44.24
104.83,102.88,106.50,110.68,113.17,114.52,115.68,115.47,114.20,112.49,110.67,110.84,111.02,109.57,106.14,102.44,98.90,97.05,99.93,103.15,106.20,108.97,111.38,113.50,115.25,116.86,118.38,119.52,119.75,119.99,120.58,121.65,122.85,123.16,122.25,120.21,118.50,119.76,120.33,119.19,116.92,114.38,111.71,108.63,105.13,102.97,102.81,103.14,103.36,103.44,102.57,101.37,100.10,99.02,99.10,99.42,100.14,101.56,103.61,105.80,107.85,109.28,108.86,105.42,102.31,100.16,98.85,97.68,96.30,94.94,93.77,92.75,91.81,90.91,89.95,88.80,87.74,87.60,88.06,88.83,89.62,90.08,90.31,90.36,90.05,87.95,84.16,80.62,79.12,77.97,76.81,75.83,75.08,74.38,73.67,72.85,71.90,70.81,69.88,69.03,68.20,67.35,66.56,65.73,65.17,64.85,64.45,63.81,62.99,62.12,61.31,60.55,60.10,59.96,60.10,60.24,60.38,60.56,60.76,60.94,61.09,61.21,61.28,61.33,61.21,61.05,60.86,60.65,60.49,60.33,60.14,59.97,59.89,59.87,59.87,59.91,59.97,59.97,60.03,60.05,60.06,60.07,60.07,60.07,60.10,60.17,60.17,60.23,60.27,60.29,60.36,60.37,60.38,60.41,60.47,60.48,60.54,60.54,60.49,60.47,60.42,60.38,60.37,60.36,60.31,60.23,60.16,60.10,60.09,60.03,59.90,59.71,59.63,59.54,59.47,59.37,59.23,59.14,59.05,58.97,58.89,58.81,58.67,58.56,58.48,58.39,58.31,58.19,58.07,57.98,57.90,57.82,57.72,57.60,57.51,57.42,57.29,57.16,57.08,57.00,56.87,56.75,56.67,56.58,56.45,56.34,56.26,56.17,56.04,55.94,55.85,55.75,55.62,55.48,55.33,55.16,54.92,54.43,53.80,53.16,52.62,52.38,52.59,52.94,53.21,53.29,53.30,53.27,53.20,53.19,53.13,53.06,52.91,52.60,52.29,51.93,51.59,51.31,51.08,50.91,50.71,50.54,50.52,50.50,50.49,50.33,49.82,48.91,47.50,46.12,45.67,47.58,48.89,47.00,43.75,41.42
103.94,100.93,103.70,107.98,111.33,112.72,113.99,114.01,112.94,111.24,109.18,109.25,109.90,109.52,106.59,103.21,99.55,96.36,95.70,99.55,103.13,106.01,108.76,111.25,113.08,114.64,116.06,117.13,117.38,117.67,118.44,119.99,121.50,122.38,122.00,120.02,117.55,118.66,119.23,118.20,116.54,114.76,112.58,109.96,106.74,102.83,101.39,101.16,101.39,101.57,101.43,100.70,99.70,98.96,98.75,99.05,99.64,100.60,102.41,104.43,106.02,106.90,106.50,103.37,100.74,99.04,97.93,96.83,95.69,94.72,93.91,93.12,92.31,91.53,90.75,89.91,89.01,88.60,88.91,89.87,90.51,90.86,90.92,90.70,89.92,86.86,82.88,79.62,78.30,77.09,75.88,74.77,73.84,73.15,72.57,71.94,71.17,70.24,69.74,69.09,68.29,67.40,66.57,65.77,65.08,64.49,63.84,63.20,62.45,61.68,61.01,60.35,60.02,59.91,59.97,60.06,60.16,60.27,60.43,60.69,60.85,61.00,61.11,61.16,61.13,60.96,60.77,60.58,60.38,60.21,60.04,59.91,59.83,59.77,59.75,59.79,59.84,59.85,59.87,59.88,59.89,59.94,59.95,59.95,59.98,60.05,60.05,60.11,60.15,60.17,60.23,60.25,60.29,60.33,60.35,60.41,60.44,60.45,60.41,60.36,60.34,60.29,60.25,60.25,60.23,60.17,60.12,60.09,60.04,60.01,59.95,59.82,59.69,59.60,59.53,59.42,59.29,59.20,59.08,58.97,58.89,58.81,58.67,58.56,58.47,58.34,58.25,58.16,58.05,57.93,57.84,57.77,57.71,57.65,57.51,57.38,57.23,57.11,57.02,56.89,56.78,56.70,56.61,56.47,56.37,56.28,56.19,56.06,55.96,55.88,55.78,55.65,55.55,55.45,55.33,55.17,54.97,54.45,53.86,53.32,52.88,52.48,52.42,52.58,52.84,52.88,52.88,52.84,52.78,52.77,52.70,52.67,52.55,52.24,51.93,51.56,51.27,51.06,50.84,50.67,50.47,50.27,50.16,50.04,49.82,49.44,48.81,47.90,46.70,45.30,44.15,44.09,44.03,42.61,40.82,39.85
103.48,100.30,101.42,104.77,108.66,111.08,112.43,112.50,111.56,109.79,107.64,107.44,108.05,108.21,106.52,103.68,100.20,96.29,92.82,95.19,99.06,102.83,106.00,108.72,110.74,112.42,113.84,114.78,115.02,115.44,116.46,118.34,120.07,121.28,121.44,120.00,117.15,117.38,117.70,117.06,115.74,114.28,112.45,110.15,106.95,102.12,101.03,101.62,102.45,102.42,101.87,100.77,99.59,99.00,98.53,98.66,99.11,99.80,101.10,102.63,103.74,104.25,104.05,101.63,99.62,98.29,97.30,96.31,95.50,94.88,94.35,93.63,92.89,92.18,91.48,90.78,90.02,89.64,89.90,90.78,91.36,91.41,91.14,90.49,88.96,85.36,81.62,78.81,77.50,76.24,74.97,73.78,72.73,71.94,71.41,70.94,70.40,69.80,69.55,69.09,68.39,67.53,66.73,66.00,65.34,64.74,64.07,63.35,62.63,61.90,61.15,60.37,60.02,59.90,59.91,59.96,60.01,60.06,60.17,60.41,60.61,60.77,60.90,60.99,60.99,60.85,60.67,60.49,60.28,60.10,59.95,59.84,59.77,59.69,59.64,59.65,59.70,59.73,59.73,59.73,59.74,59.79,59.82,59.83,59.86,59.93,59.93,59.99,60.03,60.05,60.11,60.13,60.18,60.24,60.27,60.34,60.34,60.33,60.32,60.25,60.23,60.20,60.16,60.16,60.14,60.10,60.06,60.05,59.98,59.97,59.92,59.84,59.69,59.59,59.50,59.39,59.27,59.19,59.05,58.94,58.85,58.75,58.62,58.53,58.42,58.28,58.20,58.10,57.99,57.87,57.78,57.73,57.69,57.64,57.51,57.39,57.24,57.10,56.99,56.84,56.73,56.62,56.52,56.39,56.30,56.21,56.10,55.98,55.89,55.80,55.69,55.57,55.48,55.41,55.30,55.17,54.99,54.53,54.00,53.52,53.10,52.64,52.35,52.31,52.47,52.46,52.45,52.41,52.36,52.35,52.29,52.26,52.16,51.88,51.57,51.24,50.99,50.82,50.59,50.43,50.24,49.98,49.60,49.28,48.87,48.37,47.69,46.78,45.69,44.40,43.09,42.20,41.50,40.46,39.48,39.04
103.34,100.65,99.57,101.25,105.44,109.46,110.93,110.97,110.03,108.14,106.01,105.45,105.66,105.97,105.93,103.84,100.78,96.70,91.18,90.53,94.33,99.34,103.04,105.95,108.25,110.16,111.66,112.45,112.67,113.28,114.59,116.66,118.52,119.87,120.53,119.92,117.06,115.96,115.85,115.78,114.62,113.16,111.55,109.41,106.00,100.84,101.46,103.94,105.69,105.16,103.44,101.41,99.77,99.11,98.45,98.30,98.56,99.12,99.78,100.57,101.16,101.51,101.62,100.20,98.88,97.84,96.92,96.04,95.62,95.34,94.97,94.25,93.54,92.84,92.14,91.45,90.81,90.69,91.00,91.60,92.11,91.75,91.03,89.87,87.43,83.65,80.46,78.20,76.77,75.44,74.12,72.87,71.75,70.81,70.26,69.91,69.65,69.43,69.32,69.01,68.47,67.73,67.02,66.38,65.86,65.42,64.89,64.08,63.33,62.57,61.59,60.57,60.07,59.90,59.90,59.90,59.91,59.92,59.98,60.15,60.36,60.53,60.68,60.80,60.82,60.75,60.59,60.38,60.21,60.00,59.86,59.78,59.70,59.63,59.55,59.52,59.53,59.59,59.61,59.61,59.61,59.63,59.69,59.71,59.74,59.80,59.81,59.87,59.91,59.93,60.00,60.02,60.07,60.14,60.21,60.28,60.25,60.21,60.20,60.13,60.11,60.11,60.10,60.09,60.04,60.01,60.00,59.99,59.92,59.90,59.86,59.77,59.63,59.53,59.42,59.29,59.20,59.12,58.99,58.88,58.78,58.64,58.55,58.46,58.36,58.22,58.13,58.01,57.88,57.80,57.73,57.70,57.66,57.59,57.51,57.42,57.30,57.15,57.01,56.86,56.71,56.56,56.42,56.32,56.25,56.13,56.00,55.91,55.83,55.71,55.58,55.50,55.42,55.34,55.26,55.16,54.99,54.63,54.19,53.72,53.27,52.80,52.37,52.13,52.13,52.07,52.04,52.00,51.94,51.93,51.87,51.83,51.76,51.51,51.22,50.95,50.75,50.58,50.37,50.20,50.05,49.72,49.00,48.40,47.86,47.28,46.60,45.67,44.63,43.53,42.47,41.59,40.81,40.03,39.34,38.80
103.52,100.95,97.91,98.39,102.80,106.93,109.32,109.53,108.19,106.01,103.91,103.29,103.45,103.88,104.19,103.07,100.96,97.42,91.52,88.62,90.33,94.57,99.30,102.89,105.47,107.52,109.11,109.99,110.25,111.07,112.59,114.58,116.31,117.83,118.72,118.30,116.00,114.32,113.88,114.09,113.42,112.12,110.30,107.74,103.91,98.47,101.94,106.46,107.99,106.61,104.47,102.27,100.42,99.42,98.64,98.05,97.95,98.44,98.89,99.06,99.22,99.56,100.10,99.49,98.57,97.62,96.70,95.80,95.73,95.72,95.42,94.87,94.20,93.48,92.76,92.08,91.52,91.58,92.00,92.41,92.25,91.53,90.55,89.07,86.30,82.62,79.82,77.87,76.37,74.92,73.48,72.11,70.92,70.09,69.62,69.33,69.12,68.97,68.84,68.66,68.37,67.95,67.40,66.83,66.34,65.93,65.41,64.73,63.86,62.86,61.79,60.82,60.19,59.90,59.89,59.85,59.84,59.87,59.93,60.05,60.19,60.34,60.48,60.58,60.63,60.61,60.47,60.26,60.10,59.92,59.80,59.72,59.64,59.56,59.48,59.42,59.40,59.43,59.47,59.49,59.49,59.49,59.52,59.56,59.60,59.64,59.68,59.75,59.81,59.86,59.93,59.98,60.05,60.12,60.19,60.19,60.13,60.09,60.08,60.05,60.01,59.99,59.99,59.99,59.95,59.92,59.89,59.88,59.85,59.81,59.75,59.67,59.56,59.47,59.36,59.22,59.14,59.02,58.91,58.81,58.72,58.57,58.48,58.38,58.26,58.15,58.07,57.94,57.81,57.75,57.71,57.66,57.61,57.54,57.50,57.43,57.34,57.22,57.10,56.95,56.80,56.63,56.45,56.32,56.20,56.08,55.97,55.85,55.73,55.62,55.52,55.43,55.32,55.23,55.15,55.07,54.94,54.57,54.14,53.72,53.29,52.84,52.40,52.07,51.88,51.79,51.71,51.63,51.56,51.52,51.44,51.42,51.37,51.20,50.95,50.71,50.53,50.41,50.27,50.15,50.04,49.81,49.29,48.68,48.06,47.38,46.57,45.47,44.54,43.67,42.73,41.62,40.71,39.95,39.31,38.76
103.57,101.15,96.83,96.15,100.08,104.23,107.48,107.96,106.28,103.77,101.73,101.00,101.14,101.77,102.15,101.81,100.54,97.73,92.26,87.88,87.09,89.78,95.23,99.53,102.58,104.86,106.49,107.46,107.80,108.82,110.49,112.33,113.91,115.38,116.22,115.91,114.32,112.60,112.03,112.32,112.03,110.86,108.76,105.81,101.78,96.44,102.32,108.45,109.70,107.66,105.38,103.17,101.21,99.79,98.90,97.98,97.52,97.82,98.15,97.96,97.87,98.18,98.95,98.94,98.33,97.44,96.53,95.68,95.89,96.09,95.82,95.45,94.84,94.11,93.37,92.71,92.27,92.47,92.90,93.03,92.19,91.16,89.88,88.11,85.28,81.85,79.39,77.65,76.10,74.56,73.02,71.53,70.27,69.58,69.17,68.87,68.63,68.47,68.31,68.20,68.12,67.99,67.61,67.18,66.74,66.28,65.73,65.17,64.21,63.05,61.96,61.08,60.32,59.91,59.88,59.81,59.80,59.84,59.91,59.98,60.05,60.17,60.30,60.38,60.44,60.45,60.35,60.16,60.00,59.85,59.74,59.66,59.58,59.50,59.42,59.34,59.29,59.28,59.33,59.36,59.36,59.37,59.38,59.44,59.49,59.52,59.58,59.66,59.74,59.81,59.89,59.97,60.04,60.10,60.14,60.09,60.02,59.98,59.98,59.97,59.91,59.88,59.88,59.87,59.87,59.83,59.78,59.77,59.77,59.72,59.64,59.57,59.49,59.40,59.28,59.16,59.06,58.92,58.83,58.75,58.65,58.51,58.42,58.30,58.16,58.08,58.00,57.88,57.76,57.70,57.69,57.63,57.55,57.50,57.48,57.41,57.33,57.27,57.18,57.04,56.90,56.72,56.52,56.36,56.20,56.08,55.97,55.83,55.67,55.56,55.47,55.37,55.22,55.13,55.04,54.96,54.86,54.48,54.07,53.69,53.29,52.84,52.42,52.05,51.72,51.60,51.45,51.34,51.27,51.19,51.11,51.08,51.05,50.96,50.77,50.56,50.41,50.34,50.25,50.17,50.10,49.98,49.74,49.24,48.66,47.98,47.09,45.84,44.90,44.12,43.23,41.88,40.83,39.99,39.31,38.72
103.05,101.10,97.32,95.28,96.72,101.60,105.10,105.91,104.44,101.50,99.56,98.42,98.43,99.52,99.97,99.64,98.62,96.62,92.82,88.76,85.63,85.73,90.69,95.48,99.56,102.38,103.90,104.83,105.27,106.45,108.21,109.88,111.40,112.13,112.37,112.22,111.46,110.85,110.63,110.61,110.17,108.86,106.59,103.68,100.25,96.17,102.41,108.74,110.32,108.43,106.25,104.10,102.04,100.20,99.17,98.32,97.66,97.37,97.53,97.72,97.82,97.94,98.27,98.38,97.99,97.25,96.40,95.89,96.23,96.44,96.21,95.92,95.40,94.74,94.03,93.40,93.16,93.47,93.63,93.09,91.95,90.63,88.91,86.74,84.26,81.39,79.20,77.53,75.98,74.44,72.90,71.37,70.05,69.43,68.93,68.49,68.14,67.93,67.77,67.63,67.52,67.43,67.32,67.24,66.89,66.27,65.67,65.02,64.15,63.15,62.19,61.33,60.46,59.95,59.89,59.81,59.80,59.81,59.84,59.92,59.94,60.05,60.18,60.25,60.27,60.27,60.22,60.09,59.94,59.84,59.72,59.60,59.53,59.45,59.33,59.24,59.21,59.16,59.16,59.17,59.19,59.25,59.31,59.38,59.45,59.51,59.58,59.66,59.74,59.81,59.89,59.97,60.01,60.01,59.98,59.95,59.93,59.92,59.91,59.86,59.83,59.83,59.81,59.76,59.75,59.74,59.70,59.66,59.65,59.64,59.58,59.51,59.43,59.30,59.19,59.08,58.95,58.85,58.77,58.67,58.54,58.44,58.36,58.24,58.11,58.02,57.89,57.79,57.72,57.70,57.64,57.56,57.52,57.49,57.43,57.36,57.28,57.20,57.12,57.03,56.93,56.80,56.63,56.48,56.32,56.18,56.04,55.89,55.73,55.59,55.45,55.31,55.16,55.06,54.96,54.84,54.74,54.44,54.07,53.69,53.29,52.84,52.42,52.07,51.76,51.56,51.40,51.28,51.20,51.13,51.05,50.99,50.94,50.91,50.80,50.69,50.59,50.51,50.44,50.36,50.28,50.20,50.07,49.87,49.65,49.26,48.53,47.32,45.95,44.83,43.84,42.46,41.17,40.11,39.28,38.61
102.33,100.90,97.12,93.97,93.82,99.00,103.33,104.53,102.95,99.59,97.30,95.64,95.06,95.65,95.77,95.45,94.93,94.00,91.89,88.17,84.19,82.85,86.41,90.93,95.43,98.81,100.78,102.01,102.78,104.00,105.58,106.94,107.89,107.94,107.74,107.63,107.31,107.13,107.01,106.82,106.27,105.03,103.04,100.22,96.74,94.78,101.73,108.63,111.00,109.05,106.94,104.88,102.82,100.81,99.45,98.32,97.60,97.40,97.23,97.24,97.29,97.37,97.53,97.70,97.57,97.05,96.28,96.16,96.60,96.81,96.58,96.33,95.94,95.38,94.70,94.09,94.08,94.16,93.85,92.89,91.65,90.15,88.16,85.78,83.40,80.91,79.00,77.44,75.90,74.36,72.81,71.27,69.92,69.34,68.80,68.29,67.83,67.50,67.23,67.04,66.91,66.85,66.84,66.97,66.78,66.23,65.61,64.92,64.09,63.16,62.24,61.38,60.48,59.94,59.89,59.81,59.78,59.78,59.81,59.86,59.87,59.95,60.05,60.09,60.09,60.12,60.09,60.00,59.88,59.77,59.65,59.54,59.46,59.36,59.23,59.15,59.12,59.07,59.04,59.04,59.09,59.17,59.23,59.31,59.40,59.47,59.55,59.63,59.71,59.78,59.86,59.91,59.93,59.91,59.87,59.87,59.87,59.85,59.82,59.77,59.77,59.75,59.72,59.67,59.64,59.63,59.61,59.56,59.54,59.53,59.50,59.44,59.34,59.22,59.11,59.02,58.88,58.78,58.69,58.58,58.46,58.38,58.27,58.16,58.04,57.93,57.81,57.73,57.69,57.65,57.58,57.53,57.49,57.45,57.38,57.32,57.25,57.18,57.10,57.02,56.95,56.85,56.72,56.59,56.44,56.29,56.13,55.95,55.79,55.64,55.48,55.33,55.17,55.05,54.92,54.74,54.60,54.35,54.02,53.65,53.26,52.83,52.42,52.08,51.79,51.60,51.45,51.34,51.29,51.22,51.13,51.06,51.00,50.99,50.92,50.84,50.78,50.70,50.61,50.54,50.47,50.38,50.31,50.23,50.16,49.95,49.49,48.66,47.36,45.98,44.48,42.57,40.99,39.93,39.17,38.49
101.35,100.43,96.31,92.33,91.33,96.37,101.81,103.60,101.94,98.22,95.33,93.11,91.71,91.19,90.72,90.39,90.42,90.60,89.99,86.75,83.03,81.01,82.48,86.13,90.58,94.42,97.16,98.93,100.17,101.39,102.65,103.64,103.79,103.26,102.73,102.52,102.30,102.07,101.87,101.63,101.00,99.95,98.50,95.78,91.99,92.61,100.49,108.17,111.61,109.52,107.43,105.45,103.49,101.50,99.69,98.08,97.40,97.80,97.24,96.73,96.56,96.69,96.83,97.01,97.08,96.80,96.19,96.47,96.98,97.17,96.94,96.70,96.45,95.99,95.36,94.80,94.94,94.56,93.69,92.51,91.33,89.71,87.60,85.14,82.71,80.46,78.78,77.36,75.83,74.29,72.75,71.21,69.87,69.28,68.75,68.20,67.68,67.16,66.72,66.46,66.32,66.24,66.25,66.48,66.50,66.16,65.55,64.88,64.04,63.12,62.19,61.33,60.42,59.91,59.88,59.81,59.74,59.75,59.80,59.80,59.80,59.86,59.92,59.92,59.92,59.98,59.97,59.89,59.80,59.67,59.56,59.47,59.39,59.25,59.15,59.07,59.02,59.00,58.95,58.96,59.03,59.11,59.17,59.25,59.34,59.41,59.48,59.56,59.65,59.72,59.79,59.81,59.81,59.81,59.80,59.80,59.80,59.78,59.72,59.71,59.70,59.67,59.61,59.59,59.53,59.51,59.51,59.49,59.43,59.41,59.41,59.37,59.23,59.14,59.05,58.95,58.81,58.72,58.60,58.48,58.39,58.31,58.18,58.07,57.97,57.83,57.73,57.70,57.67,57.60,57.53,57.50,57.46,57.39,57.32,57.30,57.24,57.18,57.09,57.02,56.94,56.86,56.77,56.69,56.55,56.41,56.23,56.02,55.85,55.70,55.55,55.39,55.24,55.09,54.90,54.68,54.45,54.21,53.92,53.59,53.20,52.81,52.43,52.09,51.82,51.72,51.58,51.50,51.47,51.39,51.31,51.24,51.19,51.17,51.11,51.03,50.95,50.88,50.80,50.72,50.64,50.56,50.48,50.41,50.34,50.24,50.09,49.82,48.91,47.39,45.23,42.44,40.52,39.56,39.00,38.36
99.31,98.77,94.46,90.50,89.55,93.42,98.88,102.55,102.98,99.39,96.31,93.85,92.06,90.98,90.09,89.44,89.18,89.10,88.55,86.76,83.89,81.13,80.03,82.16,85.91,89.51,92.39,94.82,96.54,97.93,99.16,100.13,100.17,99.69,98.95,98.13,97.61,97.15,96.85,96.63,96.12,95.14,93.45,90.93,88.42,90.39,98.92,107.17,111.21,109.40,107.37,105.41,103.46,101.49,99.52,97.75,97.31,98.32,97.93,97.26,96.89,96.82,96.76,96.69,96.57,96.41,96.33,96.80,97.34,97.55,97.34,97.08,96.84,96.48,96.03,95.56,95.19,94.40,93.33,92.15,91.01,89.38,87.25,84.79,82.38,80.22,78.55,77.13,75.67,74.21,72.69,71.16,69.86,69.28,68.73,68.17,67.58,67.00,66.45,66.05,65.77,65.61,65.68,66.01,66.18,66.02,65.53,64.94,64.14,63.20,62.23,61.29,60.39,59.90,59.88,59.81,59.73,59.72,59.74,59.74,59.74,59.80,59.84,59.84,59.84,59.87,59.85,59.77,59.69,59.59,59.50,59.41,59.34,59.19,59.08,59.01,58.94,58.90,58.89,58.92,58.97,59.05,59.11,59.19,59.28,59.35,59.42,59.50,59.59,59.65,59.69,59.73,59.74,59.74,59.74,59.74,59.74,59.71,59.65,59.64,59.64,59.61,59.53,59.49,59.45,59.42,59.39,59.38,59.35,59.31,59.29,59.26,59.16,59.07,58.97,58.85,58.75,58.66,58.53,58.41,58.33,58.21,58.09,58.00,57.91,57.76,57.67,57.64,57.61,57.54,57.51,57.46,57.41,57.34,57.30,57.26,57.20,57.12,57.05,56.97,56.88,56.81,56.73,56.66,56.59,56.47,56.31,56.13,55.97,55.81,55.66,55.50,55.35,55.16,54.97,54.75,54.44,54.12,53.80,53.47,53.09,52.75,52.47,52.22,52.03,51.94,51.80,51.70,51.65,51.57,51.50,51.45,51.41,51.36,51.28,51.21,51.13,51.06,50.98,50.91,50.82,50.75,50.67,50.59,50.51,50.42,50.30,50.18,49.72,48.59,46.50,43.13,40.60,39.39,38.82,38.21
96.82,96.48,92.60,89.05,88.05,90.66,95.62,100.70,103.35,101.00,98.32,95.94,94.02,92.60,91.40,90.34,89.68,89.24,88.50,87.81,85.56,82.08,78.67,78.91,81.73,84.91,87.78,90.65,92.75,94.35,95.69,96.78,96.89,96.50,95.58,94.22,93.43,92.81,92.45,92.26,91.88,90.64,88.43,86.28,85.76,88.82,97.63,106.12,110.59,109.05,106.98,104.98,103.04,101.08,99.02,97.49,97.44,98.82,98.61,97.96,97.46,97.19,96.86,96.48,96.22,96.22,96.60,97.16,97.72,97.94,97.74,97.44,97.20,96.93,96.61,96.14,95.26,94.18,93.03,91.90,90.80,89.18,87.05,84.59,82.20,80.07,78.38,76.93,75.51,74.11,72.61,71.11,69.85,69.26,68.71,68.12,67.51,66.90,66.28,65.75,65.31,65.05,65.15,65.55,65.83,65.84,65.48,64.98,64.17,63.17,62.17,61.16,60.33,59.89,59.87,59.80,59.72,59.69,59.69,59.69,59.69,59.73,59.77,59.77,59.77,59.77,59.73,59.65,59.57,59.50,59.42,59.34,59.25,59.12,59.03,58.94,58.86,58.80,58.84,58.89,58.92,59.00,59.08,59.14,59.22,59.29,59.36,59.44,59.52,59.57,59.59,59.66,59.69,59.69,59.69,59.69,59.67,59.64,59.59,59.59,59.57,59.53,59.47,59.39,59.37,59.33,59.29,59.28,59.27,59.22,59.18,59.15,59.09,59.02,58.89,58.76,58.68,58.59,58.47,58.36,58.26,58.11,58.02,57.94,57.83,57.70,57.62,57.59,57.55,57.49,57.48,57.42,57.35,57.30,57.28,57.22,57.14,57.08,57.00,56.92,56.84,56.77,56.69,56.62,56.59,56.51,56.37,56.23,56.08,55.93,55.77,55.61,55.45,55.25,55.06,54.86,54.49,54.10,53.73,53.39,53.05,52.75,52.56,52.41,52.28,52.18,52.04,51.93,51.85,51.76,51.67,51.64,51.63,51.55,51.47,51.39,51.31,51.23,51.16,51.09,51.00,50.92,50.85,50.78,50.70,50.59,50.45,50.35,50.20,49.37,47.30,43.36,40.56,39.25,38.64,38.06
93.77,93.20,91.24,88.69,86.92,88.61,92.27,96.81,100.81,102.40,101.38,99.77,98.17,96.74,95.38,93.82,92.96,92.63,91.93,90.82,88.21,84.16,79.38,77.14,78.71,81.45,84.24,86.91,89.12,90.96,92.60,93.98,94.21,93.69,92.59,91.17,90.46,89.93,89.61,89.47,89.09,86.81,83.76,82.40,84.84,89.02,97.23,105.26,109.93,108.41,106.05,103.89,101.94,99.94,97.87,97.42,98.13,99.19,98.89,98.50,98.14,97.72,97.07,96.36,96.27,96.63,97.11,97.55,98.11,98.34,98.11,97.80,97.56,97.31,96.93,96.17,95.17,94.09,92.98,91.90,90.85,89.24,87.11,84.63,82.16,80.05,78.38,76.89,75.40,73.94,72.46,71.04,69.84,69.20,68.61,68.03,67.45,66.84,66.22,65.63,65.08,64.68,64.69,65.11,65.46,65.56,65.34,64.91,63.96,62.81,61.80,60.80,60.17,59.87,59.81,59.73,59.66,59.63,59.63,59.63,59.63,59.64,59.65,59.65,59.65,59.65,59.61,59.53,59.45,59.38,59.30,59.22,59.14,59.05,58.97,58.86,58.75,58.73,58.78,58.86,58.92,59.00,59.08,59.11,59.16,59.23,59.30,59.39,59.43,59.46,59.52,59.59,59.63,59.63,59.63,59.63,59.58,59.54,59.52,59.52,59.48,59.43,59.41,59.33,59.27,59.23,59.23,59.22,59.16,59.13,59.09,59.04,59.02,58.95,58.83,58.70,58.62,58.48,58.38,58.29,58.20,58.05,57.95,57.85,57.73,57.64,57.60,57.56,57.50,57.43,57.42,57.36,57.31,57.29,57.23,57.16,57.11,57.08,57.00,56.92,56.84,56.77,56.69,56.61,56.55,56.47,56.38,56.28,56.18,56.05,55.88,55.67,55.52,55.34,55.18,54.99,54.66,54.24,53.80,53.42,53.16,52.96,52.80,52.67,52.56,52.43,52.28,52.17,52.08,51.94,51.86,51.83,51.81,51.73,51.64,51.57,51.50,51.41,51.34,51.26,51.19,51.11,51.03,50.95,50.88,50.77,50.62,50.48,50.28,49.19,46.55,41.92,39.92,39.04,38.48,37.93
92.86,92.02,90.83,88.73,86.45,86.71,89.37,93.28,97.54,101.05,101.75,101.42,100.63,99.50,98.33,96.89,95.86,95.14,94.05,92.59,90.22,86.45,81.27,77.44,76.79,78.36,81.28,83.95,86.30,88.23,89.91,91.37,91.71,91.26,90.33,89.20,88.60,88.09,87.72,87.37,86.54,84.05,81.09,80.08,83.25,88.41,95.95,103.49,108.56,107.70,105.33,102.89,100.65,98.68,97.49,98.00,99.06,99.68,99.25,98.72,98.16,97.55,96.80,96.20,96.41,97.05,97.65,97.99,98.50,98.72,98.47,98.17,97.92,97.65,97.18,96.20,95.16,94.11,93.05,92.01,90.95,89.39,87.25,84.67,82.02,79.89,78.22,76.74,75.23,73.76,72.29,70.92,69.81,69.21,68.60,68.03,67.47,66.85,66.23,65.61,64.99,64.43,64.14,64.51,64.97,65.20,65.05,64.52,63.51,62.33,61.35,60.45,60.02,59.82,59.75,59.67,59.59,59.56,59.56,59.56,59.56,59.56,59.55,59.53,59.53,59.53,59.50,59.44,59.34,59.26,59.18,59.10,59.02,58.95,58.87,58.77,58.67,58.67,58.72,58.80,58.88,58.93,59.00,59.04,59.09,59.16,59.22,59.29,59.34,59.38,59.45,59.51,59.54,59.56,59.56,59.54,59.49,59.47,59.47,59.46,59.39,59.35,59.32,59.26,59.19,59.14,59.13,59.12,59.08,59.04,59.00,58.96,58.92,58.86,58.75,58.63,58.52,58.40,58.30,58.22,58.11,57.99,57.89,57.78,57.65,57.60,57.57,57.52,57.45,57.40,57.37,57.30,57.27,57.25,57.17,57.12,57.09,57.04,56.97,56.88,56.80,56.73,56.66,56.57,56.50,56.44,56.38,56.30,56.23,56.12,55.97,55.77,55.61,55.45,55.30,55.12,54.83,54.40,53.94,53.55,53.36,53.22,53.08,52.94,52.82,52.67,52.54,52.43,52.31,52.16,52.05,52.02,51.98,51.91,51.83,51.75,51.67,51.59,51.52,51.45,51.36,51.28,51.22,51.13,51.02,50.86,50.68,50.53,50.31,49.12,46.20,41.09,39.49,38.85,38.30,37.76
93.25,92.10,90.92,88.92,86.35,85.01,86.83,90.03,93.87,97.90,100.21,101.41,101.70,101.13,100.36,99.42,98.30,96.95,95.28,93.54,91.73,88.80,83.94,79.17,75.90,75.80,78.66,81.46,83.99,85.93,87.50,88.90,89.38,89.15,88.59,87.93,87.43,86.91,86.43,85.77,84.34,82.18,79.81,78.84,81.25,87.04,93.89,100.97,106.59,106.88,104.72,101.94,99.28,97.44,97.63,98.95,100.07,100.25,99.69,98.78,97.88,97.05,96.31,96.05,96.57,97.45,98.19,98.46,98.90,99.08,98.83,98.53,98.28,97.95,97.35,96.23,95.20,94.19,93.18,92.16,91.08,89.57,87.41,84.68,81.77,79.63,77.98,76.50,75.03,73.57,72.11,70.78,69.77,69.25,68.66,68.09,67.53,66.91,66.29,65.67,65.00,64.27,63.60,63.84,64.34,64.70,64.58,63.91,62.88,61.77,60.84,60.11,59.86,59.77,59.70,59.62,59.54,59.51,59.51,59.51,59.51,59.50,59.47,59.41,59.41,59.41,59.41,59.37,59.23,59.14,59.07,58.98,58.91,58.84,58.75,58.67,58.61,58.61,58.67,58.74,58.80,58.82,58.88,58.96,59.03,59.09,59.11,59.17,59.25,59.31,59.38,59.41,59.45,59.51,59.50,59.43,59.41,59.41,59.41,59.40,59.33,59.26,59.21,59.19,59.13,59.06,59.01,59.01,59.00,58.95,58.91,58.88,58.82,58.75,58.66,58.56,58.42,58.33,58.24,58.14,58.01,57.92,57.83,57.72,57.61,57.59,57.53,57.46,57.41,57.38,57.32,57.25,57.21,57.19,57.12,57.10,57.05,56.98,56.91,56.83,56.75,56.68,56.60,56.52,56.45,56.40,56.37,56.30,56.22,56.14,56.03,55.88,55.72,55.57,55.42,55.25,55.00,54.58,54.13,53.75,53.61,53.50,53.37,53.22,53.07,52.92,52.82,52.70,52.55,52.40,52.25,52.20,52.16,52.09,52.01,51.94,51.86,51.78,51.70,51.63,51.55,51.47,51.39,51.29,51.11,50.90,50.68,50.52,50.31,49.03,45.94,40.65,39.22,38.66,38.12,37.58
93.19,91.81,90.43,88.47,85.97,84.08,84.80,87.20,90.48,94.07,97.11,99.28,100.53,100.81,100.48,99.92,99.08,97.86,96.08,94.27,92.58,90.45,86.99,81.66,77.49,75.37,75.81,78.83,81.65,83.74,85.32,86.68,87.48,87.61,87.31,86.75,86.24,85.74,85.24,84.62,83.55,81.66,79.49,78.21,79.35,83.89,90.20,97.23,103.53,105.69,103.84,100.99,98.39,96.93,98.07,99.51,100.53,100.82,100.23,99.34,98.33,97.27,96.31,96.00,96.65,97.71,98.61,99.09,99.39,99.44,99.20,98.93,98.62,98.16,97.42,96.24,95.21,94.20,93.20,92.19,91.14,89.72,87.41,84.31,81.10,79.16,77.66,76.20,74.71,73.32,71.94,70.70,69.75,69.26,68.74,68.18,67.59,66.97,66.35,65.70,65.05,64.39,63.64,63.22,63.25,63.54,63.55,63.03,62.10,61.08,60.33,59.93,59.82,59.77,59.69,59.61,59.53,59.47,59.45,59.45,59.45,59.41,59.36,59.29,59.28,59.28,59.28,59.26,59.16,59.07,59.00,58.91,58.84,58.77,58.65,58.57,58.55,58.55,58.61,58.66,58.70,58.74,58.81,58.90,58.95,58.99,59.03,59.11,59.18,59.25,59.28,59.32,59.39,59.45,59.44,59.36,59.34,59.34,59.34,59.34,59.28,59.20,59.13,59.09,59.05,59.00,58.92,58.89,58.88,58.86,58.82,58.78,58.74,58.67,58.59,58.49,58.35,58.27,58.16,58.04,57.94,57.86,57.74,57.65,57.59,57.54,57.47,57.42,57.39,57.33,57.26,57.22,57.18,57.13,57.06,57.05,57.00,56.94,56.89,56.82,56.74,56.67,56.59,56.51,56.44,56.38,56.32,56.25,56.17,56.09,56.00,55.89,55.78,55.67,55.54,55.38,55.13,54.78,54.36,54.00,53.89,53.77,53.62,53.47,53.32,53.20,53.09,52.95,52.80,52.64,52.53,52.43,52.34,52.26,52.20,52.11,52.03,51.96,51.88,51.81,51.73,51.64,51.50,51.31,51.08,50.85,50.63,50.47,50.25,48.30,44.50,40.27,39.04,38.48,37.94,37.40
93.10,91.55,89.92,87.92,85.53,83.38,82.94,84.55,87.37,90.46,93.73,96.46,98.46,99.50,99.40,99.03,98.56,97.84,96.51,94.87,93.25,91.68,89.50,84.47,79.90,76.03,73.89,76.13,78.94,81.34,83.18,84.50,85.56,86.10,86.09,85.58,85.05,84.56,84.06,83.52,82.87,81.34,79.35,77.67,77.50,80.70,86.36,93.18,99.94,103.95,103.01,100.38,97.78,96.64,98.40,99.87,100.83,101.31,100.80,100.01,98.97,97.74,96.55,95.99,96.59,97.77,98.85,99.60,99.86,99.82,99.58,99.31,98.95,98.36,97.47,96.26,95.22,94.22,93.22,92.22,91.20,89.82,87.27,83.73,80.39,78.68,77.25,75.79,74.39,73.06,71.76,70.61,69.74,69.26,68.80,68.27,67.66,67.03,66.44,65.81,65.21,64.67,63.92,62.96,62.45,62.46,62.41,62.08,61.31,60.45,59.95,59.82,59.79,59.75,59.67,59.59,59.52,59.44,59.38,59.36,59.36,59.32,59.25,59.19,59.17,59.16,59.16,59.14,59.07,58.99,58.92,58.84,58.76,58.69,58.56,58.48,58.47,58.48,58.54,58.57,58.61,58.68,58.75,58.83,58.87,58.89,58.97,59.05,59.11,59.17,59.19,59.25,59.33,59.38,59.36,59.30,59.29,59.29,59.28,59.27,59.21,59.14,59.06,58.99,58.97,58.92,58.86,58.79,58.77,58.76,58.73,58.68,58.66,58.61,58.53,58.42,58.29,58.20,58.07,57.95,57.87,57.78,57.66,57.59,57.56,57.49,57.42,57.39,57.36,57.28,57.22,57.19,57.14,57.07,57.01,56.99,56.94,56.88,56.88,56.80,56.72,56.65,56.57,56.50,56.41,56.34,56.27,56.20,56.13,56.05,55.97,55.89,55.82,55.74,55.64,55.47,55.25,54.98,54.60,54.27,54.17,54.03,53.87,53.72,53.58,53.49,53.34,53.19,53.04,52.90,52.80,52.67,52.54,52.45,52.39,52.31,52.23,52.16,52.07,51.97,51.88,51.75,51.56,51.28,51.02,50.79,50.57,50.39,50.19,47.42,42.78,39.89,38.89,38.31,37.76,37.23
93.14,91.56,89.68,87.48,85.06,82.85,81.23,82.12,84.75,87.68,90.41,93.03,95.32,96.75,96.34,95.83,95.76,96.08,96.25,95.30,93.79,92.21,90.53,87.68,83.13,78.27,74.36,73.29,75.37,78.42,81.05,82.29,83.38,84.36,84.76,84.36,83.84,83.36,82.86,82.31,81.73,80.83,79.17,77.09,75.74,78.31,82.94,88.90,95.58,101.06,102.41,100.53,97.61,96.52,98.33,99.91,100.99,101.60,101.39,100.71,99.72,98.50,97.17,96.00,96.26,97.43,98.75,99.77,100.21,100.24,99.98,99.64,99.25,98.55,97.53,96.32,95.28,94.28,93.28,92.28,91.26,89.84,86.87,82.80,79.80,78.22,76.65,75.15,74.11,72.82,71.55,70.47,69.68,69.25,68.80,68.31,67.77,67.11,66.59,66.08,65.63,65.21,64.51,63.53,62.60,61.86,61.32,61.09,60.58,60.05,59.91,59.82,59.75,59.69,59.61,59.53,59.45,59.38,59.31,59.25,59.24,59.23,59.20,59.12,59.06,59.04,59.04,59.02,58.95,58.87,58.80,58.72,58.64,58.57,58.47,58.39,58.36,58.41,58.43,58.48,58.55,58.62,58.69,58.73,58.77,58.83,58.91,58.98,59.03,59.06,59.12,59.19,59.27,59.30,59.25,59.23,59.23,59.23,59.21,59.15,59.13,59.08,59.00,58.93,58.86,58.83,58.80,58.72,58.66,58.64,58.64,58.61,58.55,58.53,58.44,58.32,58.22,58.14,58.01,57.89,57.80,57.67,57.62,57.57,57.50,57.43,57.41,57.36,57.30,57.23,57.20,57.15,57.08,57.02,57.00,56.95,56.88,56.83,56.81,56.75,56.66,56.59,56.52,56.44,56.36,56.28,56.22,56.20,56.13,56.05,55.97,55.89,55.82,55.74,55.66,55.54,55.37,55.14,54.87,54.61,54.43,54.32,54.14,53.97,53.87,53.74,53.59,53.43,53.29,53.19,53.06,52.91,52.77,52.65,52.62,52.55,52.48,52.39,52.25,52.11,51.94,51.74,51.51,51.22,50.96,50.73,50.50,50.28,50.10,46.50,40.95,39.46,38.75,38.16,37.58,37.06
92.46,91.36,89.50,87.24,84.78,82.39,79.64,80.04,82.68,85.41,87.84,90.30,92.51,93.87,93.29,92.78,93.07,94.07,95.07,94.84,93.96,92.81,91.52,89.81,86.13,81.35,76.20,71.97,72.34,74.74,77.41,79.23,81.15,82.60,83.33,83.21,82.71,82.19,81.65,81.08,80.39,79.43,77.85,75.82,74.28,76.36,80.04,85.00,91.14,97.49,100.62,99.65,96.86,95.89,97.73,99.61,100.99,101.78,102.02,101.42,100.40,99.14,97.66,96.13,95.91,96.75,98.04,98.73,99.71,100.34,100.31,99.97,99.52,98.70,97.59,96.38,95.32,94.31,93.30,92.30,91.28,89.85,86.73,82.44,79.28,77.32,75.40,73.66,72.53,71.66,70.85,70.12,69.49,69.06,68.63,68.20,67.73,67.21,66.78,66.36,65.91,65.42,64.76,63.82,62.76,61.75,60.98,60.54,60.16,59.90,59.89,59.82,59.76,59.70,59.62,59.52,59.43,59.36,59.28,59.21,59.17,59.14,59.09,59.02,58.97,58.94,58.92,58.91,58.83,58.75,58.68,58.60,58.52,58.44,58.37,58.30,58.28,58.35,58.37,58.41,58.48,58.52,58.60,58.64,58.69,58.76,58.82,58.88,58.94,58.98,59.05,59.14,59.19,59.21,59.17,59.16,59.16,59.16,59.15,59.08,59.04,59.00,58.95,58.86,58.78,58.74,58.71,58.65,58.58,58.54,58.52,58.51,58.47,58.44,58.35,58.23,58.16,58.05,57.93,57.82,57.75,57.63,57.58,57.52,57.45,57.41,57.37,57.31,57.24,57.20,57.17,57.11,57.04,56.99,56.96,56.89,56.83,56.79,56.76,56.71,56.64,56.57,56.49,56.41,56.34,56.26,56.19,56.16,56.08,56.02,55.94,55.86,55.78,55.70,55.63,55.55,55.45,55.29,55.08,54.86,54.70,54.59,54.41,54.25,54.13,53.98,53.82,53.69,53.57,53.45,53.31,53.15,53.01,52.89,52.83,52.75,52.66,52.54,52.33,52.14,51.92,51.70,51.45,51.16,50.90,50.67,50.44,50.19,49.41,45.43,40.04,39.20,38.59,38.01,37.44,36.94
91.29,90.92,89.27,87.03,84.56,81.94,78.12,78.15,80.90,83.45,85.75,88.02,89.97,91.04,90.41,90.01,90.61,92.00,93.36,93.82,93.74,93.23,92.25,91.06,88.71,84.64,78.73,72.03,70.17,71.02,73.08,75.57,78.50,80.50,81.66,82.02,81.59,81.00,80.40,79.76,78.87,77.55,75.95,74.22,73.03,74.66,77.50,81.45,86.77,93.43,97.83,97.83,95.55,94.85,96.80,99.11,100.86,101.84,102.62,102.07,100.98,99.62,97.94,96.29,95.66,96.01,96.96,96.96,98.54,99.96,100.39,100.23,99.72,98.82,97.65,96.43,95.33,94.30,93.29,92.28,91.24,89.81,86.74,82.45,78.95,76.32,73.93,71.83,70.44,70.10,69.91,69.63,69.20,68.75,68.35,67.96,67.58,67.24,66.91,66.55,66.06,65.42,64.79,63.93,62.94,61.93,61.10,60.32,59.99,59.92,59.89,59.83,59.80,59.76,59.67,59.53,59.44,59.36,59.28,59.20,59.13,59.05,58.98,58.91,58.90,58.84,58.80,58.79,58.71,58.63,58.55,58.48,58.40,58.32,58.25,58.21,58.22,58.29,58.30,58.34,58.41,58.42,58.48,58.56,58.63,58.69,58.71,58.77,58.85,58.92,58.99,59.07,59.10,59.11,59.10,59.10,59.10,59.10,59.08,59.01,58.94,58.90,58.88,58.80,58.72,58.66,58.61,58.58,58.52,58.45,58.41,58.40,58.39,58.34,58.26,58.17,58.09,57.95,57.85,57.77,57.69,57.61,57.53,57.46,57.41,57.39,57.32,57.26,57.20,57.18,57.11,57.05,57.00,56.98,56.91,56.84,56.80,56.77,56.71,56.70,56.64,56.56,56.48,56.41,56.33,56.25,56.18,56.11,56.03,55.96,55.88,55.80,55.73,55.65,55.57,55.51,55.49,55.42,55.26,55.07,54.97,54.83,54.67,54.52,54.38,54.22,54.07,53.95,53.84,53.70,53.54,53.39,53.26,53.16,53.02,52.92,52.80,52.62,52.34,52.09,51.86,51.64,51.39,51.09,50.84,50.61,50.38,50.09,48.34,44.27,39.69,39.04,38.43,37.86,37.31,36.83
