33.13,32.73,32.34,31.94,31.58,31.49,31.66,31.94,32.25,32.56,32.90,33.22,33.53,33.85,34.23,34.55,34.83,35.02,35.11,35.25,35.35,35.43,35.51,35.58,35.72,35.84,35.91,36.00,36.14,36.24,36.32,36.40,36.48,36.61,36.73,36.81,36.89,36.96,37.08,37.22,37.30,37.37,37.45,37.56,37.70,37.78,37.86,37.97,38.11,38.19,38.27,38.39,38.52,38.60,38.68,38.81,38.93,39.01,39.09,39.16,39.24,39.31,39.34,39.38,39.42,39.45,39.45,39.53,39.55,39.53,39.49,39.50,39.59,39.76,40.13,40.97,42.11,43.31,44.36,45.06,45.26,45.41,45.54,45.66,45.81,45.91,46.03,46.17,46.29,46.41,46.52,46.64,46.75,46.88,47.02,47.13,47.23,47.38,47.50,47.64,47.78,47.90,48.01,48.09,48.18,48.25,48.33,48.41,48.38,48.28,48.13,48.01,47.92,47.88,47.89,47.93,47.96,48.00,48.05,48.13,48.16,48.21,48.27,48.34,48.41,48.44,48.44,48.43,48.38,48.24,48.08,47.93,47.76,47.54,47.36,47.21,47.04,46.81,46.64,46.45,46.24,46.08,45.93,45.72,45.52,45.37,45.21,45.02,44.87,44.75,44.63,44.48,44.35,44.24,44.11,43.96,43.84,43.72,43.60,43.45,43.33,43.19,43.04,42.88,42.73,42.62,42.54,42.47,42.43,42.39,42.33,42.26,42.21,42.04,41.77,41.44,41.04,40.79,40.61,40.44,40.24,40.02,39.78,39.55,39.30,39.00,38.72,38.41,38.05,37.65,37.33,37.13,37.01,36.85,36.55,36.91,37.26,37.41,37.39,37.32,37.24,37.16,37.07,36.93,36.84,36.76,36.68,36.61,36.56,36.37,36.06,35.67,35.29,35.00,34.83,34.74,34.62,34.51,34.39,34.28,34.17,34.09,34.01,33.95,33.91,33.87,33.80,33.75,33.71,33.67,33.59,33.54,33.50,33.46,33.43,33.31,33.16,33.02,32.90,32.88,32.86,32.84,32.84,32.84,32.84,32.81,32.78,32.78,32.78,32.78,32.78,32.78,32.78,32.82,32.88,32.93
33.08,32.67,32.28,31.86,31.50,31.53,31.72,32.00,32.31,32.62,32.91,33.22,33.53,33.85,34.23,34.55,34.83,35.02,35.11,35.25,35.35,35.43,35.51,35.58,35.72,35.84,35.91,36.00,36.14,36.24,36.32,36.40,36.48,36.61,36.73,36.81,36.89,36.96,37.08,37.22,37.30,37.37,37.45,37.56,37.70,37.78,37.86,37.97,38.11,38.19,38.27,38.39,38.52,38.60,38.68,38.81,38.92,39.00,39.07,39.14,39.22,39.29,39.29,39.29,39.33,39.38,39.39,39.45,39.47,39.44,39.39,39.39,39.53,39.72,39.96,40.38,41.29,42.44,43.64,44.67,45.09,45.28,45.40,45.50,45.65,45.74,45.86,46.02,46.16,46.25,46.38,46.50,46.59,46.75,46.89,47.00,47.11,47.26,47.34,47.47,47.63,47.75,47.84,47.91,48.00,48.06,48.14,48.22,48.20,48.09,47.94,47.80,47.69,47.64,47.66,47.73,47.75,47.80,47.87,47.93,47.95,48.00,48.09,48.15,48.22,48.25,48.26,48.25,48.22,48.02,47.84,47.69,47.52,47.30,47.12,46.97,46.80,46.58,46.41,46.21,46.00,45.84,45.69,45.48,45.28,45.12,44.97,44.75,44.59,44.49,44.34,44.19,44.08,43.97,43.82,43.67,43.57,43.46,43.30,43.16,43.06,42.93,42.78,42.63,42.47,42.31,42.20,42.13,42.10,42.05,41.98,41.91,41.84,41.59,41.33,41.06,40.72,40.47,40.28,40.12,39.93,39.71,39.49,39.26,39.01,38.73,38.50,38.27,38.01,37.70,37.35,36.94,36.72,36.67,36.46,36.73,36.92,36.94,36.86,36.77,36.70,36.62,36.52,36.39,36.30,36.21,36.13,36.06,35.98,35.80,35.52,35.13,34.76,34.56,34.45,34.36,34.22,34.13,34.00,33.88,33.80,33.73,33.66,33.61,33.59,33.52,33.45,33.41,33.39,33.32,33.24,33.21,33.18,33.12,33.10,33.05,32.98,32.88,32.69,32.64,32.64,32.64,32.64,32.65,32.66,32.63,32.58,32.57,32.57,32.57,32.57,32.57,32.57,32.58,32.59,32.60
33.06,32.63,32.23,31.80,31.46,31.57,31.79,32.06,32.37,32.67,32.93,33.22,33.53,33.85,34.23,34.55,34.83,35.02,35.11,35.25,35.35,35.43,35.51,35.58,35.72,35.84,35.91,36.00,36.14,36.24,36.32,36.40,36.48,36.61,36.73,36.81,36.89,36.96,37.08,37.22,37.30,37.37,37.45,37.56,37.70,37.78,37.86,37.97,38.11,38.19,38.27,38.39,38.52,38.60,38.68,38.81,38.91,38.94,39.01,39.08,39.17,39.23,39.23,39.23,39.28,39.33,39.33,39.34,39.35,39.34,39.33,39.34,39.51,39.66,39.79,39.97,40.33,41.27,42.46,43.67,44.79,45.13,45.24,45.38,45.53,45.62,45.75,45.90,46.05,46.13,46.26,46.38,46.47,46.63,46.73,46.85,46.99,47.14,47.22,47.35,47.48,47.58,47.66,47.74,47.81,47.89,47.97,48.05,47.99,47.87,47.76,47.61,47.47,47.39,47.41,47.48,47.54,47.62,47.68,47.70,47.75,47.83,47.90,47.97,47.99,48.04,48.07,48.06,47.99,47.78,47.60,47.45,47.28,47.05,46.88,46.73,46.55,46.34,46.16,45.96,45.75,45.60,45.45,45.24,45.04,44.88,44.73,44.51,44.32,44.18,44.04,43.93,43.81,43.67,43.52,43.42,43.29,43.16,43.01,42.91,42.78,42.64,42.48,42.33,42.17,42.02,41.89,41.82,41.75,41.73,41.68,41.57,41.34,41.09,40.85,40.60,40.34,40.11,39.89,39.68,39.46,39.23,39.04,38.84,38.60,38.36,38.18,37.97,37.73,37.47,37.21,36.93,36.67,36.47,36.35,36.42,36.45,36.39,36.31,36.23,36.16,36.06,35.93,35.83,35.75,35.68,35.59,35.52,35.44,35.27,34.98,34.60,34.27,34.12,34.03,33.95,33.85,33.72,33.61,33.52,33.44,33.36,33.33,33.30,33.23,33.16,33.13,33.09,33.04,33.02,32.95,32.88,32.84,32.81,32.76,32.68,32.63,32.60,32.49,32.42,32.39,32.39,32.40,32.45,32.48,32.46,32.45,32.45,32.45,32.45,32.45,32.45,32.45,32.48,32.52,32.53
33.02,32.57,32.14,31.72,31.43,31.61,31.84,32.12,32.43,32.73,32.97,33.25,33.56,33.88,34.23,34.55,34.83,35.02,35.11,35.25,35.35,35.43,35.51,35.58,35.72,35.84,35.91,36.00,36.11,36.23,36.32,36.40,36.48,36.61,36.73,36.81,36.89,36.96,37.08,37.22,37.30,37.37,37.45,37.56,37.70,37.78,37.86,37.97,38.11,38.19,38.27,38.39,38.52,38.60,38.68,38.79,38.87,38.91,38.98,39.04,39.09,39.13,39.16,39.16,39.19,39.24,39.26,39.24,39.23,39.23,39.24,39.30,39.48,39.61,39.69,39.77,39.89,40.45,41.36,42.54,43.90,44.65,45.04,45.25,45.38,45.49,45.63,45.77,45.89,46.00,46.12,46.24,46.35,46.47,46.58,46.72,46.86,46.98,47.09,47.22,47.32,47.39,47.47,47.55,47.63,47.71,47.81,47.87,47.78,47.62,47.51,47.38,47.24,47.14,47.13,47.21,47.28,47.36,47.42,47.45,47.50,47.57,47.65,47.72,47.75,47.82,47.88,47.90,47.76,47.54,47.36,47.20,47.04,46.81,46.64,46.48,46.31,46.09,45.92,45.72,45.51,45.36,45.20,45.00,44.80,44.64,44.48,44.27,44.08,43.92,43.77,43.66,43.52,43.37,43.26,43.14,43.00,42.86,42.74,42.63,42.48,42.33,42.17,42.02,41.87,41.71,41.58,41.48,41.43,41.39,41.31,41.14,40.84,40.57,40.33,40.11,39.90,39.67,39.44,39.21,38.98,38.74,38.58,38.38,38.15,37.93,37.76,37.55,37.33,37.09,36.86,36.65,36.41,36.17,36.06,36.02,35.95,35.84,35.77,35.70,35.59,35.48,35.37,35.29,35.20,35.13,35.05,34.94,34.86,34.70,34.43,34.07,33.84,33.72,33.64,33.56,33.45,33.33,33.23,33.16,33.08,33.03,32.99,32.95,32.88,32.83,32.79,32.75,32.71,32.68,32.64,32.59,32.55,32.55,32.53,32.49,32.47,32.45,32.41,32.38,32.37,32.37,32.38,32.45,32.47,32.47,32.47,32.47,32.47,32.47,32.47,32.47,32.47,32.52,32.57,32.57
32.97,32.51,32.05,31.63,31.39,31.65,31.90,32.18,32.49,32.78,33.03,33.32,33.63,33.93,34.24,34.55,34.83,35.02,35.11,35.25,35.35,35.43,35.51,35.58,35.72,35.84,35.91,35.99,36.08,36.20,36.32,36.40,36.48,36.61,36.73,36.81,36.89,36.96,37.08,37.22,37.30,37.37,37.45,37.56,37.70,37.78,37.86,37.97,38.11,38.19,38.27,38.39,38.52,38.60,38.68,38.76,38.84,38.90,38.98,39.00,39.01,39.03,39.09,39.10,39.11,39.13,39.18,39.13,39.11,39.11,39.14,39.28,39.43,39.55,39.63,39.70,39.78,39.93,40.39,41.36,42.62,43.89,44.73,45.08,45.21,45.35,45.50,45.63,45.73,45.86,45.97,46.08,46.21,46.30,46.44,46.59,46.73,46.82,46.95,47.06,47.14,47.22,47.29,47.37,47.44,47.54,47.68,47.71,47.57,47.37,47.23,47.13,47.00,46.88,46.84,46.91,46.98,47.06,47.13,47.20,47.22,47.27,47.34,47.42,47.50,47.58,47.69,47.75,47.54,47.31,47.13,46.97,46.80,46.58,46.40,46.25,46.08,45.86,45.68,45.48,45.27,45.12,44.96,44.76,44.55,44.40,44.24,44.03,43.84,43.68,43.53,43.37,43.23,43.09,43.00,42.85,42.71,42.58,42.48,42.34,42.18,42.03,41.88,41.72,41.56,41.42,41.26,41.13,41.11,41.05,40.91,40.66,40.36,40.06,39.80,39.58,39.41,39.19,38.96,38.73,38.49,38.27,38.09,37.90,37.67,37.44,37.27,37.07,36.84,36.61,36.38,36.20,36.00,35.79,35.64,35.56,35.44,35.31,35.23,35.16,35.03,34.91,34.82,34.74,34.66,34.59,34.50,34.36,34.27,34.13,33.89,33.56,33.44,33.36,33.28,33.19,33.05,32.95,32.88,32.81,32.74,32.72,32.67,32.61,32.55,32.53,32.48,32.45,32.43,32.37,32.35,32.35,32.34,32.35,32.41,32.42,32.41,32.41,32.41,32.46,32.49,32.49,32.50,32.57,32.59,32.59,32.59,32.59,32.59,32.59,32.59,32.59,32.59,32.64,32.69,32.67
32.91,32.45,32.02,31.63,31.42,31.67,31.95,32.24,32.54,32.80,33.08,33.38,33.69,33.99,34.25,34.55,34.83,35.02,35.11,35.25,35.35,35.43,35.51,35.58,35.72,35.84,35.91,35.99,36.07,36.19,36.32,36.40,36.48,36.61,36.73,36.81,36.89,36.96,37.08,37.22,37.30,37.37,37.45,37.56,37.70,37.78,37.86,37.97,38.11,38.19,38.27,38.39,38.52,38.60,38.68,38.75,38.81,38.84,38.88,38.92,38.95,38.95,38.98,39.03,39.05,39.05,39.08,39.05,39.01,39.01,39.07,39.23,39.38,39.48,39.56,39.64,39.67,39.74,39.96,40.48,41.34,42.61,43.78,44.62,45.03,45.23,45.38,45.51,45.59,45.70,45.82,45.94,46.05,46.17,46.32,46.45,46.56,46.68,46.80,46.89,46.95,47.03,47.07,47.17,47.27,47.36,47.51,47.57,47.42,47.17,46.98,46.85,46.73,46.64,46.58,46.61,46.68,46.75,46.84,46.91,46.96,46.99,47.05,47.13,47.20,47.38,47.54,47.58,47.39,47.13,46.94,46.77,46.56,46.34,46.16,46.00,45.84,45.61,45.44,45.24,45.03,44.88,44.72,44.52,44.31,44.16,44.00,43.79,43.59,43.44,43.28,43.09,42.95,42.83,42.71,42.55,42.43,42.32,42.19,42.04,41.89,41.73,41.58,41.42,41.27,41.11,40.95,40.82,40.76,40.66,40.47,40.19,39.88,39.57,39.30,39.08,38.88,38.70,38.48,38.24,38.01,37.78,37.58,37.38,37.18,36.96,36.76,36.56,36.36,36.13,35.89,35.72,35.55,35.38,35.22,35.09,34.98,34.87,34.75,34.67,34.53,34.39,34.28,34.20,34.13,34.05,33.95,33.80,33.71,33.59,33.38,33.12,33.02,32.95,32.87,32.78,32.67,32.59,32.54,32.51,32.47,32.47,32.45,32.41,32.39,32.39,32.39,32.40,32.39,32.36,32.36,32.36,32.38,32.42,32.45,32.45,32.45,32.45,32.46,32.53,32.58,32.61,32.62,32.69,32.71,32.71,32.71,32.71,32.71,32.71,32.71,32.71,32.71,32.76,32.80,32.76
32.85,32.39,31.98,31.64,31.46,31.70,32.00,32.30,32.59,32.83,33.13,33.44,33.74,34.03,34.28,34.58,34.83,35.02,35.11,35.25,35.35,35.43,35.51,35.58,35.72,35.84,35.91,35.99,36.07,36.19,36.32,36.40,36.48,36.61,36.73,36.81,36.89,36.96,37.08,37.22,37.30,37.37,37.45,37.56,37.70,37.78,37.86,37.97,38.11,38.19,38.27,38.39,38.52,38.58,38.66,38.73,38.77,38.78,38.79,38.84,38.87,38.88,38.89,38.94,38.98,38.98,38.97,38.97,38.92,38.92,39.01,39.16,39.30,39.41,39.48,39.54,39.56,39.62,39.70,39.84,40.31,41.31,42.60,43.85,44.63,45.05,45.25,45.38,45.47,45.55,45.68,45.80,45.90,46.05,46.19,46.30,46.40,46.52,46.62,46.70,46.77,46.83,46.85,46.98,47.09,47.18,47.33,47.41,47.25,46.96,46.74,46.57,46.46,46.38,46.32,46.32,46.38,46.46,46.53,46.62,46.69,46.72,46.77,46.86,46.96,47.22,47.40,47.43,47.27,46.98,46.75,46.56,46.34,46.11,45.94,45.78,45.60,45.38,45.21,45.01,44.80,44.64,44.48,44.27,44.07,43.92,43.76,43.55,43.36,43.20,43.04,42.82,42.67,42.56,42.41,42.27,42.16,42.05,41.89,41.74,41.59,41.45,41.29,41.14,40.98,40.82,40.66,40.51,40.41,40.25,40.01,39.70,39.39,39.08,38.82,38.59,38.37,38.19,37.99,37.76,37.53,37.30,37.07,36.87,36.69,36.47,36.24,36.05,35.87,35.64,35.41,35.24,35.09,34.95,34.80,34.64,34.53,34.42,34.28,34.18,34.06,33.91,33.77,33.68,33.60,33.51,33.41,33.27,33.18,33.05,32.89,32.71,32.64,32.58,32.52,32.45,32.41,32.34,32.31,32.31,32.31,32.31,32.31,32.32,32.33,32.34,32.39,32.41,32.41,32.42,32.43,32.43,32.46,32.51,32.52,32.52,32.52,32.52,32.53,32.59,32.67,32.71,32.73,32.80,32.83,32.83,32.83,32.83,32.83,32.83,32.83,32.83,32.83,32.87,32.90,32.84
32.79,32.33,31.92,31.60,31.47,31.75,32.05,32.36,32.64,32.89,33.19,33.50,33.78,34.04,34.33,34.63,34.87,35.02,35.11,35.25,35.35,35.43,35.51,35.58,35.72,35.84,35.91,35.99,36.07,36.19,36.32,36.40,36.48,36.61,36.73,36.81,36.89,36.96,37.08,37.22,37.30,37.37,37.45,37.56,37.70,37.78,37.86,37.97,38.11,38.19,38.27,38.39,38.51,38.53,38.59,38.63,38.67,38.72,38.73,38.74,38.77,38.83,38.83,38.84,38.88,38.90,38.85,38.84,38.83,38.86,38.95,39.10,39.20,39.29,39.35,39.37,39.42,39.50,39.58,39.68,39.92,40.25,41.15,42.50,43.72,44.70,45.11,45.21,45.34,45.42,45.56,45.68,45.78,45.92,46.03,46.14,46.26,46.30,46.42,46.52,46.58,46.60,46.66,46.79,46.91,47.00,47.15,47.24,47.08,46.77,46.50,46.33,46.19,46.08,46.02,46.02,46.08,46.16,46.23,46.31,46.38,46.45,46.54,46.69,46.89,47.12,47.28,47.30,47.15,46.86,46.58,46.34,46.16,45.93,45.75,45.57,45.37,45.19,44.99,44.79,44.61,44.41,44.24,44.03,43.83,43.68,43.52,43.31,43.11,42.96,42.80,42.58,42.41,42.27,42.11,42.02,41.89,41.74,41.59,41.44,41.33,41.20,41.05,40.89,40.74,40.55,40.36,40.20,40.06,39.82,39.53,39.22,38.91,38.60,38.34,38.11,37.88,37.66,37.48,37.28,37.05,36.82,36.59,36.36,36.16,35.98,35.76,35.54,35.34,35.16,34.93,34.76,34.63,34.53,34.38,34.22,34.08,33.95,33.85,33.72,33.61,33.49,33.34,33.20,33.12,33.00,32.88,32.78,32.65,32.54,32.44,32.35,32.38,32.38,32.36,32.36,32.39,32.39,32.38,32.38,32.38,32.38,32.38,32.40,32.45,32.46,32.47,32.48,32.48,32.48,32.53,32.56,32.56,32.58,32.58,32.58,32.58,32.59,32.65,32.67,32.72,32.77,32.78,32.86,32.92,32.96,32.96,32.96,32.96,32.96,32.96,32.96,32.96,32.97,32.97,32.96
32.73,32.27,31.86,31.58,31.51,31.80,32.12,32.40,32.68,32.95,33.25,33.54,33.81,34.07,34.35,34.66,34.88,35.02,35.11,35.25,35.35,35.43,35.51,35.58,35.72,35.84,35.91,35.99,36.07,36.19,36.32,36.40,36.48,36.61,36.73,36.81,36.89,36.96,37.08,37.22,37.30,37.37,37.45,37.56,37.70,37.78,37.86,37.96,38.08,38.19,38.27,38.37,38.47,38.47,38.53,38.56,38.58,38.63,38.66,38.66,38.69,38.73,38.76,38.77,38.79,38.81,38.76,38.73,38.72,38.77,38.89,39.03,39.10,39.17,39.22,39.23,39.30,39.38,39.44,39.51,39.66,39.77,40.30,41.28,42.47,43.70,44.47,44.90,45.17,45.29,45.42,45.54,45.64,45.77,45.88,45.98,46.06,46.10,46.23,46.34,46.38,46.40,46.47,46.59,46.70,46.82,46.97,47.05,46.91,46.62,46.30,46.10,45.94,45.83,45.78,45.76,45.79,45.86,45.94,46.00,46.09,46.20,46.37,46.59,46.81,47.02,47.16,47.19,47.06,46.78,46.47,46.19,45.98,45.75,45.58,45.38,45.16,44.98,44.78,44.58,44.40,44.20,44.01,43.81,43.62,43.44,43.28,43.06,42.87,42.72,42.55,42.34,42.16,42.00,41.85,41.74,41.60,41.45,41.33,41.17,41.06,40.92,40.77,40.61,40.46,40.26,40.03,39.82,39.61,39.34,39.05,38.74,38.43,38.12,37.84,37.60,37.39,37.16,36.96,36.76,36.53,36.30,36.09,35.87,35.65,35.47,35.27,35.05,34.84,34.68,34.48,34.31,34.18,34.06,33.91,33.76,33.62,33.50,33.39,33.27,33.16,33.05,32.91,32.76,32.67,32.60,32.54,32.49,32.42,32.37,32.32,32.29,32.36,32.38,32.38,32.39,32.43,32.44,32.46,32.48,32.48,32.48,32.48,32.49,32.53,32.53,32.53,32.53,32.54,32.58,32.62,32.63,32.63,32.63,32.63,32.66,32.68,32.69,32.73,32.76,32.81,32.84,32.88,32.92,33.00,33.05,33.08,33.08,33.08,33.08,33.08,33.08,33.08,33.08,33.08,33.08
32.67,32.21,31.80,31.56,31.57,31.86,32.17,32.44,32.70,33.00,33.30,33.56,33.83,34.12,34.37,34.66,34.88,35.02,35.11,35.25,35.35,35.43,35.51,35.59,35.72,35.84,35.91,35.99,36.08,36.19,36.32,36.40,36.48,36.61,36.73,36.81,36.89,36.96,37.08,37.22,37.30,37.37,37.45,37.56,37.70,37.78,37.86,37.94,38.04,38.18,38.27,38.34,38.41,38.41,38.47,38.50,38.51,38.52,38.58,38.60,38.61,38.63,38.69,38.70,38.70,38.70,38.69,38.62,38.61,38.68,38.83,38.97,39.01,39.05,39.10,39.12,39.18,39.26,39.31,39.34,39.48,39.63,39.83,40.23,41.11,42.34,43.49,44.39,44.89,45.13,45.26,45.38,45.51,45.60,45.73,45.80,45.84,45.92,46.06,46.15,46.20,46.21,46.29,46.37,46.49,46.64,46.79,46.88,46.76,46.47,46.12,45.87,45.70,45.61,45.59,45.52,45.52,45.56,45.63,45.71,45.81,45.98,46.23,46.52,46.75,46.93,47.04,47.08,46.98,46.71,46.41,46.10,45.81,45.57,45.39,45.20,44.97,44.75,44.58,44.38,44.17,44.00,43.79,43.60,43.42,43.21,43.04,42.83,42.63,42.48,42.31,42.10,41.91,41.76,41.60,41.45,41.30,41.17,41.07,40.92,40.78,40.63,40.47,40.31,40.15,39.93,39.67,39.38,39.08,38.83,38.56,38.26,37.95,37.65,37.34,37.08,36.90,36.68,36.45,36.22,35.99,35.77,35.59,35.39,35.16,34.94,34.77,34.56,34.37,34.21,34.05,33.89,33.75,33.59,33.44,33.28,33.17,33.06,32.93,32.84,32.72,32.62,32.52,32.39,32.31,32.30,32.35,32.34,32.39,32.41,32.41,32.41,32.47,32.50,32.50,32.50,32.50,32.50,32.54,32.59,32.59,32.59,32.59,32.59,32.59,32.59,32.60,32.60,32.62,32.68,32.70,32.70,32.70,32.70,32.70,32.75,32.79,32.79,32.80,32.86,32.90,32.93,32.98,33.00,33.06,33.12,33.19,33.19,33.20,33.20,33.20,33.20,33.20,33.20,33.20,33.20
32.60,32.15,31.74,31.54,31.61,31.87,32.17,32.46,32.74,33.01,33.31,33.56,33.83,34.13,34.41,34.68,34.88,35.03,35.15,35.26,35.35,35.43,35.51,35.63,35.74,35.84,35.91,35.99,36.11,36.23,36.32,36.40,36.48,36.61,36.73,36.81,36.89,36.96,37.08,37.22,37.30,37.37,37.45,37.56,37.70,37.78,37.86,37.94,38.03,38.17,38.23,38.28,38.34,38.35,38.37,38.42,38.45,38.45,38.48,38.52,38.55,38.55,38.58,38.63,38.61,38.58,38.57,38.50,38.52,38.62,38.76,38.87,38.92,38.96,38.99,39.04,39.07,39.14,39.18,39.21,39.35,39.47,39.60,39.83,40.30,41.05,42.07,43.14,44.01,44.73,45.07,45.23,45.34,45.42,45.56,45.63,45.66,45.78,45.89,45.95,45.97,45.98,46.05,46.16,46.31,46.45,46.60,46.69,46.58,46.31,45.98,45.70,45.48,45.37,45.35,45.29,45.27,45.28,45.34,45.48,45.68,45.90,46.16,46.46,46.69,46.83,46.90,46.92,46.86,46.60,46.30,45.98,45.69,45.45,45.21,44.98,44.79,44.56,44.39,44.20,43.98,43.82,43.60,43.39,43.20,43.01,42.81,42.62,42.42,42.24,42.08,41.86,41.67,41.52,41.36,41.16,40.99,40.88,40.78,40.64,40.47,40.33,40.16,39.95,39.72,39.45,39.16,38.85,38.54,38.30,38.05,37.78,37.51,37.22,36.91,36.62,36.38,36.19,35.96,35.73,35.50,35.27,35.10,34.91,34.67,34.45,34.29,34.11,33.93,33.78,33.63,33.47,33.31,33.16,33.01,32.86,32.72,32.60,32.50,32.46,32.44,32.41,32.38,32.36,32.33,32.36,32.42,32.42,32.49,32.52,32.52,32.52,32.55,32.59,32.62,32.62,32.62,32.62,32.63,32.66,32.66,32.66,32.66,32.66,32.66,32.66,32.70,32.72,32.73,32.75,32.76,32.76,32.76,32.76,32.81,32.84,32.86,32.86,32.86,32.92,32.98,33.03,33.06,33.10,33.14,33.19,33.25,33.26,33.30,33.32,33.32,33.32,33.32,33.32,33.32,33.31
32.55,32.10,31.69,31.52,31.65,31.89,32.18,32.48,32.77,33.03,33.32,33.58,33.84,34.14,34.45,34.69,34.88,35.04,35.19,35.27,35.35,35.43,35.52,35.67,35.76,35.84,35.91,36.00,36.14,36.24,36.32,36.40,36.48,36.61,36.73,36.81,36.89,36.96,37.08,37.22,37.30,37.37,37.45,37.56,37.70,37.78,37.86,37.94,38.02,38.16,38.19,38.22,38.27,38.28,38.29,38.32,38.37,38.38,38.38,38.44,38.47,38.48,38.49,38.54,38.52,38.48,38.45,38.40,38.44,38.55,38.69,38.77,38.84,38.87,38.90,38.95,38.98,39.02,39.06,39.09,39.21,39.32,39.44,39.60,39.77,40.08,40.81,41.80,42.87,43.95,44.58,44.95,45.15,45.25,45.37,45.44,45.48,45.63,45.71,45.74,45.75,45.76,45.83,45.97,46.13,46.27,46.41,46.51,46.40,46.14,45.84,45.52,45.26,45.10,45.03,44.95,44.98,45.04,45.13,45.30,45.58,45.84,46.10,46.39,46.62,46.72,46.76,46.76,46.74,46.49,46.19,45.88,45.58,45.33,45.03,44.78,44.59,44.38,44.20,44.01,43.80,43.63,43.42,43.19,42.98,42.82,42.59,42.42,42.23,42.01,41.84,41.63,41.44,41.28,41.11,40.89,40.71,40.59,40.48,40.33,40.16,39.97,39.77,39.53,39.24,38.93,38.62,38.31,38.00,37.74,37.50,37.27,37.05,36.77,36.46,36.16,35.86,35.68,35.48,35.25,35.02,34.79,34.61,34.41,34.20,33.97,33.80,33.65,33.49,33.34,33.19,33.04,32.89,32.75,32.62,32.51,32.40,32.30,32.25,32.24,32.29,32.34,32.36,32.42,32.44,32.48,32.54,32.56,32.61,32.65,32.65,32.64,32.64,32.70,32.74,32.74,32.74,32.74,32.74,32.74,32.74,32.74,32.74,32.74,32.74,32.74,32.79,32.81,32.81,32.81,32.81,32.81,32.83,32.84,32.90,32.91,32.91,32.92,32.94,32.99,33.06,33.12,33.13,33.20,33.23,33.27,33.31,33.34,33.39,33.42,33.44,33.44,33.44,33.43,33.41,33.41
32.49,32.09,31.65,31.49,31.66,31.95,32.20,32.48,32.79,33.08,33.33,33.61,33.88,34.14,34.45,34.69,34.88,35.04,35.19,35.27,35.35,35.43,35.52,35.67,35.76,35.84,35.91,36.00,36.14,36.24,36.32,36.40,36.48,36.61,36.73,36.81,36.89,36.96,37.08,37.22,37.30,37.37,37.45,37.56,37.70,37.78,37.86,37.94,38.01,38.11,38.13,38.13,38.16,38.22,38.23,38.23,38.27,38.32,38.33,38.34,38.38,38.42,38.42,38.44,38.43,38.40,38.34,38.33,38.38,38.49,38.63,38.71,38.74,38.78,38.83,38.84,38.90,38.93,38.94,38.96,39.05,39.18,39.32,39.47,39.63,39.83,40.10,40.55,41.34,42.44,43.46,44.33,44.96,45.11,45.17,45.22,45.31,45.44,45.48,45.53,45.57,45.58,45.65,45.79,45.95,46.08,46.18,46.31,46.22,45.96,45.65,45.34,45.05,44.78,44.55,44.43,44.60,44.84,45.06,45.23,45.52,45.78,46.04,46.33,46.51,46.60,46.64,46.64,46.62,46.42,46.13,45.82,45.51,45.22,44.91,44.62,44.36,44.19,43.98,43.79,43.61,43.40,43.22,43.01,42.80,42.63,42.41,42.24,42.05,41.82,41.61,41.43,41.23,41.03,40.87,40.65,40.47,40.33,40.18,40.02,39.77,39.49,39.23,38.99,38.70,38.38,38.08,37.77,37.46,37.16,36.90,36.68,36.50,36.27,35.98,35.67,35.38,35.15,34.97,34.77,34.54,34.31,34.09,33.90,33.71,33.49,33.32,33.17,33.01,32.86,32.70,32.59,32.47,32.34,32.31,32.33,32.36,32.37,32.36,32.36,32.41,32.46,32.48,32.55,32.56,32.60,32.67,32.73,32.75,32.80,32.81,32.77,32.76,32.82,32.86,32.86,32.86,32.86,32.86,32.86,32.86,32.86,32.86,32.86,32.86,32.86,32.87,32.88,32.88,32.88,32.88,32.88,32.90,32.95,32.97,32.98,32.98,32.99,33.05,33.07,33.13,33.17,33.19,33.25,33.32,33.37,33.39,33.45,33.47,33.51,33.56,33.56,33.56,33.52,33.48,33.48
32.44,32.05,31.60,31.46,31.69,31.97,32.23,32.53,32.82,33.10,33.37,33.64,33.91,34.17,34.45,34.72,34.92,35.07,35.19,35.27,35.35,35.44,35.55,35.67,35.76,35.84,35.92,36.03,36.15,36.24,36.32,36.40,36.51,36.63,36.73,36.81,36.89,36.99,37.11,37.22,37.30,37.37,37.47,37.59,37.70,37.78,37.86,37.92,37.97,38.02,38.05,38.06,38.08,38.12,38.15,38.16,38.18,38.23,38.26,38.27,38.29,38.33,38.35,38.33,38.32,38.30,38.23,38.26,38.34,38.46,38.56,38.62,38.65,38.69,38.73,38.76,38.81,38.82,38.82,38.84,38.91,39.05,39.19,39.32,39.50,39.63,39.73,39.93,40.41,41.11,42.05,43.02,43.85,44.28,44.51,44.77,45.06,45.26,45.29,45.31,45.34,45.36,45.46,45.58,45.72,45.87,45.98,46.10,46.08,45.90,45.59,45.28,44.99,44.65,44.26,44.06,44.34,44.73,45.04,45.21,45.47,45.72,45.96,46.23,46.39,46.46,46.48,46.48,46.47,46.30,46.03,45.72,45.41,45.11,44.82,44.53,44.24,44.01,43.76,43.56,43.39,43.19,43.03,42.83,42.63,42.45,42.23,42.04,41.85,41.63,41.41,41.24,41.04,40.84,40.67,40.45,40.25,40.02,39.76,39.54,39.28,38.98,38.68,38.42,38.14,37.84,37.53,37.23,36.91,36.60,36.33,36.12,35.93,35.73,35.48,35.20,34.92,34.66,34.45,34.25,34.02,33.82,33.59,33.40,33.24,33.04,32.88,32.72,32.59,32.50,32.44,32.39,32.33,32.29,32.32,32.39,32.44,32.49,32.51,32.52,32.55,32.59,32.63,32.67,32.70,32.74,32.80,32.87,32.88,32.93,32.95,32.89,32.88,32.91,32.95,32.98,32.98,32.98,32.98,32.98,32.98,32.98,32.98,32.98,32.98,32.98,32.98,32.98,32.98,32.98,32.98,32.98,32.99,33.03,33.03,33.03,33.05,33.09,33.13,33.17,33.22,33.28,33.29,33.36,33.43,33.48,33.49,33.56,33.60,33.64,33.68,33.67,33.65,33.61,33.58,33.58
32.38,31.98,31.55,31.45,31.74,31.98,32.27,32.58,32.87,33.11,33.41,33.66,33.93,34.22,34.46,34.75,34.98,35.11,35.20,35.27,35.35,35.45,35.59,35.68,35.76,35.84,35.93,36.07,36.17,36.24,36.32,36.41,36.55,36.65,36.73,36.81,36.89,37.02,37.13,37.22,37.30,37.37,37.50,37.62,37.70,37.77,37.85,37.89,37.90,37.91,37.97,38.00,38.01,38.02,38.07,38.10,38.11,38.12,38.18,38.20,38.20,38.22,38.27,38.23,38.20,38.17,38.13,38.19,38.31,38.43,38.49,38.51,38.56,38.60,38.62,38.69,38.70,38.70,38.70,38.71,38.79,38.92,39.04,39.16,39.37,39.48,39.56,39.67,39.85,40.02,40.63,41.43,42.27,43.02,43.54,44.12,44.69,44.98,45.05,45.06,45.08,45.11,45.24,45.34,45.47,45.62,45.76,45.86,45.93,45.87,45.58,45.29,45.03,44.64,44.10,43.80,44.15,44.64,45.02,45.20,45.43,45.66,45.89,46.11,46.27,46.31,46.31,46.31,46.30,46.16,45.91,45.61,45.30,44.99,44.73,44.46,44.15,43.85,43.55,43.33,43.16,43.00,42.84,42.64,42.44,42.27,42.05,41.83,41.63,41.45,41.23,41.06,40.86,40.65,40.48,40.26,40.01,39.68,39.26,38.96,38.71,38.43,38.13,37.83,37.58,37.30,36.99,36.68,36.37,36.06,35.79,35.56,35.34,35.16,34.95,34.72,34.48,34.19,33.94,33.71,33.49,33.32,33.11,32.93,32.78,32.63,32.50,32.36,32.27,32.27,32.32,32.33,32.36,32.42,32.49,32.56,32.60,32.63,32.68,32.70,32.70,32.73,32.79,32.80,32.86,32.90,32.92,32.99,33.00,33.05,33.07,33.00,33.00,33.00,33.04,33.09,33.09,33.09,33.09,33.09,33.09,33.10,33.10,33.10,33.10,33.10,33.10,33.10,33.10,33.10,33.10,33.10,33.11,33.11,33.11,33.11,33.14,33.19,33.22,33.28,33.35,33.41,33.41,33.48,33.56,33.61,33.62,33.69,33.76,33.80,33.80,33.79,33.73,33.70,33.70,33.70
32.37,31.94,31.55,31.49,31.75,32.03,32.30,32.58,32.87,33.11,33.41,33.66,33.93,34.22,34.46,34.75,34.98,35.12,35.20,35.27,35.35,35.45,35.59,35.68,35.76,35.84,35.93,36.08,36.17,36.24,36.32,36.41,36.56,36.66,36.73,36.81,36.89,37.03,37.14,37.22,37.30,37.37,37.50,37.63,37.70,37.73,37.77,37.80,37.84,37.84,37.87,37.91,37.95,37.95,37.97,38.01,38.05,38.05,38.07,38.12,38.14,38.15,38.17,38.11,38.08,38.07,38.05,38.13,38.25,38.36,38.39,38.43,38.47,38.48,38.50,38.57,38.58,38.58,38.58,38.59,38.62,38.74,38.88,39.02,39.20,39.34,39.43,39.52,39.62,39.70,40.02,40.43,40.88,41.46,42.17,42.96,43.71,44.21,44.45,44.57,44.64,44.70,44.85,44.98,45.12,45.27,45.42,45.55,45.65,45.66,45.52,45.32,45.09,44.71,44.12,43.55,43.83,44.38,44.90,45.18,45.38,45.59,45.83,46.04,46.16,46.18,46.18,46.18,46.17,46.04,45.82,45.54,45.23,44.92,44.64,44.34,44.03,43.73,43.46,43.20,42.97,42.78,42.61,42.44,42.25,42.05,41.86,41.64,41.45,41.27,41.05,40.88,40.68,40.46,40.25,40.02,39.66,39.20,38.73,38.41,38.13,37.86,37.59,37.28,37.00,36.73,36.45,36.14,35.83,35.52,35.25,35.02,34.79,34.58,34.36,34.15,33.95,33.70,33.45,33.22,33.00,32.80,32.64,32.50,32.38,32.36,32.34,32.33,32.34,32.38,32.41,32.45,32.52,32.59,32.67,32.71,32.75,32.79,32.82,32.87,32.88,32.89,32.92,32.97,33.01,33.02,33.04,33.11,33.12,33.17,33.19,33.13,33.12,33.12,33.13,33.16,33.16,33.16,33.16,33.16,33.16,33.21,33.22,33.22,33.22,33.22,33.22,33.22,33.22,33.22,33.22,33.22,33.23,33.27,33.27,33.25,33.23,33.27,33.37,33.45,33.53,33.58,33.58,33.66,33.73,33.77,33.79,33.87,33.91,33.92,33.91,33.87,33.83,33.82,33.82,33.82
32.33,31.90,31.56,31.51,31.76,32.06,32.30,32.58,32.87,33.11,33.41,33.66,33.93,34.23,34.48,34.76,34.98,35.12,35.20,35.27,35.36,35.47,35.60,35.68,35.76,35.84,35.95,36.08,36.17,36.24,36.33,36.42,36.56,36.66,36.73,36.81,36.91,37.03,37.14,37.22,37.30,37.39,37.50,37.61,37.67,37.68,37.68,37.71,37.76,37.77,37.78,37.82,37.86,37.88,37.88,37.92,37.97,37.98,37.98,38.03,38.06,38.06,38.05,38.00,37.97,37.97,37.99,38.06,38.19,38.27,38.29,38.35,38.36,38.36,38.38,38.44,38.45,38.46,38.46,38.46,38.47,38.59,38.74,38.89,39.05,39.20,39.31,39.39,39.46,39.54,39.67,39.80,39.92,40.27,41.00,41.86,42.69,43.33,43.74,43.97,44.09,44.20,44.38,44.55,44.73,44.92,45.10,45.25,45.36,45.42,45.40,45.29,45.11,44.75,44.16,43.40,43.46,43.99,44.64,45.08,45.30,45.52,45.75,45.95,46.03,46.04,46.04,46.05,46.05,45.94,45.73,45.46,45.15,44.84,44.54,44.25,43.94,43.63,43.37,43.09,42.80,42.56,42.37,42.22,42.04,41.83,41.67,41.45,41.27,41.09,40.87,40.69,40.49,40.26,39.99,39.72,39.24,38.70,38.20,37.85,37.55,37.29,37.02,36.71,36.42,36.16,35.89,35.59,35.29,34.98,34.71,34.47,34.23,33.99,33.77,33.57,33.39,33.18,32.95,32.75,32.58,32.39,32.32,32.24,32.18,32.25,32.34,32.40,32.47,32.54,32.56,32.62,32.70,32.77,32.83,32.85,32.91,32.96,32.97,33.02,33.05,33.06,33.07,33.13,33.15,33.16,33.17,33.23,33.25,33.30,33.32,33.26,33.24,33.24,33.24,33.24,33.24,33.24,33.24,33.24,33.27,33.32,33.34,33.34,33.34,33.34,33.34,33.35,33.36,33.36,33.36,33.36,33.38,33.44,33.44,33.37,33.33,33.37,33.52,33.62,33.70,33.74,33.77,33.84,33.90,33.95,33.97,34.03,34.04,34.03,34.01,33.95,33.94,33.94,33.94,33.94
32.22,31.88,31.56,31.51,31.76,32.06,32.30,32.58,32.87,33.11,33.41,33.66,33.93,34.23,34.53,34.78,34.98,35.12,35.20,35.27,35.39,35.51,35.60,35.68,35.76,35.86,35.99,36.09,36.17,36.24,36.34,36.48,36.58,36.66,36.73,36.82,36.95,37.05,37.14,37.22,37.30,37.43,37.50,37.55,37.61,37.62,37.62,37.63,37.65,37.71,37.72,37.73,37.76,37.81,37.81,37.83,37.86,37.91,37.92,37.93,37.94,37.94,37.94,37.93,37.88,37.86,37.92,38.00,38.09,38.17,38.22,38.24,38.24,38.24,38.24,38.27,38.32,38.34,38.34,38.34,38.34,38.47,38.62,38.77,38.93,39.08,39.19,39.27,39.34,39.42,39.55,39.67,39.77,39.92,40.40,41.06,41.77,42.39,42.96,43.24,43.39,43.55,43.82,44.05,44.30,44.58,44.84,44.96,45.09,45.18,45.18,45.15,45.06,44.75,44.17,43.42,43.04,43.38,44.16,44.81,45.15,45.39,45.63,45.82,45.85,45.86,45.86,45.87,45.92,45.86,45.64,45.34,45.03,44.72,44.46,44.19,43.88,43.57,43.27,42.97,42.67,42.38,42.15,41.98,41.82,41.65,41.49,41.28,41.09,40.91,40.68,40.46,40.27,40.05,39.68,39.27,38.77,38.23,37.70,37.27,36.99,36.72,36.42,36.12,35.86,35.58,35.31,35.05,34.74,34.44,34.16,33.92,33.63,33.39,33.19,33.01,32.80,32.63,32.41,32.28,32.29,32.25,32.28,32.32,32.36,32.44,32.52,32.55,32.59,32.66,32.73,32.80,32.88,32.94,32.96,33.02,33.09,33.14,33.14,33.16,33.20,33.24,33.25,33.26,33.31,33.34,33.35,33.36,33.42,33.45,33.46,33.43,33.38,33.36,33.36,33.36,33.36,33.36,33.36,33.38,33.44,33.46,33.46,33.46,33.46,33.46,33.46,33.49,33.54,33.55,33.55,33.55,33.55,33.56,33.56,33.45,33.41,33.49,33.64,33.78,33.85,33.88,33.94,34.02,34.05,34.08,34.14,34.16,34.16,34.13,34.08,34.06,34.06,34.06,34.06,34.06
32.22,31.88,31.56,31.51,31.76,32.06,32.30,32.58,32.87,33.11,33.41,33.69,33.95,34.24,34.55,34.82,35.01,35.12,35.20,35.27,35.40,35.53,35.61,35.68,35.76,35.87,36.01,36.09,36.17,36.24,36.34,36.49,36.58,36.66,36.73,36.83,36.97,37.06,37.14,37.22,37.30,37.41,37.45,37.48,37.52,37.52,37.54,37.55,37.57,37.61,37.65,37.66,37.67,37.72,37.75,37.76,37.78,37.82,37.85,37.86,37.86,37.85,37.83,37.82,37.77,37.76,37.86,37.94,38.02,38.08,38.12,38.12,38.12,38.12,38.12,38.13,38.20,38.22,38.22,38.23,38.29,38.40,38.52,38.66,38.81,38.96,39.07,39.16,39.26,39.37,39.52,39.63,39.72,39.84,40.21,40.76,41.37,41.92,42.48,42.83,43.06,43.30,43.60,43.87,44.14,44.42,44.67,44.76,44.86,44.93,44.90,44.89,44.82,44.50,43.91,43.21,42.70,42.87,43.56,44.30,44.84,45.20,45.45,45.63,45.70,45.72,45.72,45.73,45.76,45.74,45.53,45.23,44.95,44.64,44.37,44.08,43.78,43.47,43.16,42.87,42.58,42.27,42.00,41.78,41.58,41.42,41.27,41.08,40.89,40.70,40.50,40.27,40.03,39.72,39.26,38.77,38.26,37.74,37.21,36.73,36.42,36.15,35.86,35.55,35.28,35.01,34.74,34.47,34.20,33.90,33.61,33.34,33.07,32.83,32.66,32.54,32.44,32.34,32.24,32.21,32.28,32.32,32.36,32.42,32.50,32.58,32.66,32.70,32.75,32.83,32.91,32.98,33.04,33.09,33.12,33.19,33.25,33.29,33.32,33.33,33.35,33.39,33.42,33.42,33.46,33.50,33.52,33.53,33.57,33.58,33.58,33.57,33.53,33.50,33.50,33.52,33.52,33.52,33.52,33.54,33.58,33.58,33.58,33.59,33.62,33.63,33.63,33.65,33.68,33.68,33.68,33.68,33.68,33.67,33.62,33.51,33.49,33.61,33.76,33.91,34.00,34.05,34.12,34.20,34.23,34.25,34.31,34.29,34.28,34.24,34.18,34.18,34.18,34.16,34.15,34.18
32.26,31.88,31.56,31.51,31.76,32.06,32.30,32.58,32.87,33.12,33.41,33.72,33.99,34.25,34.55,34.85,35.04,35.12,35.20,35.27,35.40,35.53,35.61,35.68,35.77,35.88,36.01,36.09,36.17,36.25,36.35,36.49,36.58,36.66,36.73,36.83,36.97,37.06,37.14,37.22,37.29,37.36,37.39,37.40,37.41,37.41,37.46,37.49,37.50,37.51,37.56,37.59,37.60,37.61,37.67,37.69,37.70,37.72,37.78,37.79,37.79,37.77,37.71,37.70,37.65,37.66,37.80,37.88,37.95,38.00,38.00,38.00,38.00,38.00,38.00,38.02,38.08,38.10,38.10,38.13,38.28,38.38,38.46,38.56,38.70,38.85,38.96,39.07,39.22,39.37,39.52,39.65,39.74,39.91,40.26,40.73,41.26,41.73,42.20,42.60,42.94,43.23,43.54,43.84,44.11,44.35,44.55,44.59,44.64,44.67,44.61,44.60,44.49,44.14,43.52,42.90,42.41,42.42,42.89,43.66,44.40,44.91,45.23,45.41,45.56,45.59,45.59,45.60,45.60,45.60,45.41,45.13,44.88,44.57,44.27,43.97,43.66,43.35,43.04,42.77,42.51,42.20,41.90,41.60,41.36,41.19,41.03,40.87,40.68,40.47,40.31,40.07,39.73,39.30,38.78,38.25,37.76,37.27,36.72,36.19,35.84,35.57,35.31,35.00,34.70,34.44,34.17,33.89,33.64,33.34,33.05,32.78,32.56,32.35,32.22,32.19,32.23,32.24,32.27,32.33,32.41,32.48,32.50,32.55,32.62,32.70,32.77,32.85,32.92,33.00,33.08,33.16,33.20,33.23,33.30,33.38,33.41,33.43,33.49,33.50,33.51,33.54,33.59,33.60,33.61,33.65,33.70,33.70,33.71,33.71,33.70,33.70,33.69,33.64,33.64,33.69,33.69,33.69,33.69,33.70,33.71,33.71,33.71,33.74,33.79,33.80,33.80,33.80,33.81,33.81,33.81,33.81,33.80,33.77,33.65,33.55,33.57,33.72,33.88,34.04,34.15,34.23,34.30,34.37,34.40,34.43,34.47,34.41,34.39,34.36,34.30,34.30,34.30,34.25,34.23,34.29
32.27,31.88,31.56,31.51,31.76,32.06,32.30,32.58,32.89,33.16,33.43,33.72,34.02,34.29,34.55,34.86,35.04,35.12,35.20,35.27,35.40,35.53,35.61,35.68,35.80,35.91,36.01,36.09,36.17,36.27,36.39,36.50,36.58,36.66,36.75,36.87,36.98,37.06,37.14,37.21,37.24,37.27,37.28,37.29,37.33,37.34,37.36,37.40,37.44,37.44,37.46,37.51,37.54,37.54,37.57,37.61,37.63,37.64,37.67,37.68,37.68,37.66,37.59,37.58,37.56,37.59,37.73,37.82,37.86,37.88,37.88,37.88,37.88,37.88,37.89,37.94,37.97,37.98,38.00,38.08,38.31,38.46,38.56,38.64,38.70,38.80,38.95,39.12,39.27,39.42,39.58,39.72,39.86,40.06,40.42,40.86,41.34,41.76,42.22,42.59,42.91,43.17,43.48,43.75,44.02,44.27,44.39,44.41,44.41,44.39,44.35,44.31,44.21,43.88,43.27,42.66,42.20,42.00,42.17,42.95,43.72,44.36,44.86,45.21,45.38,45.41,45.44,45.48,45.48,45.48,45.32,45.05,44.77,44.46,44.15,43.87,43.59,43.28,42.97,42.69,42.39,42.09,41.78,41.50,41.24,41.01,40.80,40.63,40.46,40.28,40.11,39.74,39.28,38.79,38.30,37.76,37.27,36.77,36.23,35.71,35.31,35.00,34.72,34.46,34.16,33.87,33.59,33.33,33.05,32.75,32.51,32.37,32.32,32.28,32.24,32.25,32.32,32.37,32.41,32.45,32.53,32.61,32.66,32.70,32.74,32.82,32.89,32.97,33.05,33.13,33.20,33.28,33.34,33.40,33.48,33.55,33.59,33.59,33.63,33.67,33.68,33.70,33.73,33.77,33.78,33.80,33.83,33.88,33.89,33.85,33.82,33.82,33.82,33.76,33.74,33.77,33.81,33.82,33.82,33.83,33.88,33.89,33.89,33.90,33.92,33.92,33.92,33.95,33.98,33.98,33.98,33.95,33.91,33.84,33.70,33.61,33.63,33.80,33.99,34.16,34.30,34.41,34.48,34.51,34.56,34.57,34.56,34.53,34.48,34.42,34.37,34.37,34.37,34.34,34.33,34.36
32.27,31.88,31.56,31.51,31.76,32.06,32.30,32.58,32.89,33.20,33.44,33.72,34.03,34.33,34.56,34.86,35.04,35.12,35.20,35.29,35.41,35.53,35.61,35.68,35.82,35.94,36.01,36.09,36.17,36.29,36.42,36.50,36.58,36.66,36.77,36.91,36.99,37.05,37.11,37.16,37.17,37.17,37.17,37.20,37.26,37.27,37.27,37.31,37.36,37.37,37.38,37.41,37.46,37.48,37.48,37.52,37.56,37.56,37.57,37.58,37.57,37.54,37.49,37.46,37.47,37.53,37.66,37.74,37.76,37.76,37.76,37.76,37.77,37.77,37.80,37.85,37.86,37.87,37.93,38.09,38.38,38.57,38.68,38.74,38.75,38.81,38.97,39.15,39.31,39.48,39.63,39.80,39.99,40.25,40.62,41.04,41.46,41.82,42.23,42.57,42.85,43.11,43.40,43.66,43.92,44.14,44.20,44.20,44.14,44.10,44.09,44.02,43.94,43.62,43.01,42.45,42.02,41.67,41.59,42.20,42.94,43.65,44.31,44.84,45.13,45.22,45.27,45.32,45.33,45.34,45.20,44.96,44.67,44.36,44.05,43.77,43.51,43.20,42.89,42.58,42.28,41.99,41.68,41.41,41.14,40.84,40.59,40.40,40.22,40.01,39.75,39.28,38.77,38.26,37.79,37.27,36.78,36.28,35.76,35.22,34.78,34.43,34.14,33.89,33.59,33.29,33.02,32.79,32.56,32.34,32.20,32.18,32.24,32.31,32.34,32.37,32.44,32.52,32.54,32.58,32.65,32.73,32.81,32.85,32.88,32.94,33.02,33.09,33.17,33.25,33.33,33.40,33.48,33.56,33.63,33.71,33.75,33.77,33.77,33.83,33.85,33.86,33.88,33.93,33.96,33.96,33.98,34.03,34.04,34.00,33.96,33.96,33.95,33.90,33.86,33.86,33.93,33.96,33.96,33.98,34.03,34.04,34.04,34.05,34.06,34.06,34.06,34.09,34.14,34.14,34.13,34.08,34.00,33.91,33.76,33.68,33.72,33.88,34.09,34.26,34.42,34.57,34.65,34.66,34.70,34.70,34.64,34.62,34.57,34.50,34.44,34.44,34.44,34.44,34.44,34.45
32.27,31.88,31.56,31.51,31.76,32.06,32.30,32.58,32.89,33.20,33.44,33.72,34.03,34.33,34.56,34.86,35.04,35.12,35.20,35.33,35.44,35.53,35.61,35.68,35.82,35.94,36.01,36.09,36.17,36.29,36.42,36.50,36.58,36.66,36.77,36.91,36.98,37.01,37.02,37.05,37.11,37.12,37.12,37.12,37.15,37.20,37.22,37.23,37.25,37.30,37.31,37.33,37.35,37.41,37.41,37.43,37.44,37.45,37.50,37.52,37.48,37.44,37.41,37.36,37.38,37.45,37.54,37.62,37.64,37.64,37.64,37.64,37.69,37.72,37.72,37.74,37.74,37.78,37.92,38.20,38.50,38.69,38.80,38.86,38.87,38.94,39.03,39.15,39.32,39.53,39.70,39.88,40.13,40.48,40.86,41.25,41.62,41.88,42.15,42.45,42.75,43.04,43.29,43.57,43.81,43.95,43.97,43.91,43.84,43.79,43.78,43.72,43.63,43.32,42.74,42.30,41.91,41.53,41.28,41.42,42.05,42.75,43.46,44.16,44.76,44.99,45.06,45.09,45.14,45.16,45.05,44.86,44.60,44.30,43.99,43.69,43.39,43.08,42.78,42.47,42.17,41.92,41.62,41.32,41.02,40.72,40.42,40.18,39.90,39.53,39.07,38.65,38.19,37.72,37.26,36.78,36.27,35.76,35.27,34.73,34.21,33.85,33.59,33.30,32.99,32.72,32.48,32.28,32.27,32.28,32.30,32.35,32.36,32.43,32.46,32.49,32.56,32.64,32.66,32.70,32.77,32.85,32.93,33.00,33.05,33.07,33.14,33.21,33.29,33.37,33.45,33.52,33.60,33.68,33.75,33.83,33.90,33.95,33.95,33.96,34.01,34.05,34.05,34.06,34.12,34.14,34.15,34.16,34.16,34.15,34.14,34.14,34.08,34.05,34.02,33.98,34.05,34.12,34.14,34.15,34.16,34.16,34.16,34.19,34.24,34.24,34.24,34.25,34.26,34.25,34.20,34.14,34.06,33.97,33.82,33.77,33.84,33.99,34.16,34.31,34.51,34.70,34.83,34.84,34.81,34.77,34.75,34.69,34.67,34.62,34.56,34.56,34.56,34.56,34.56,34.58
32.31,31.93,31.57,31.51,31.76,32.06,32.34,32.61,32.89,33.20,33.47,33.74,34.03,34.33,34.60,34.87,35.04,35.12,35.20,35.34,35.45,35.53,35.61,35.72,35.84,35.94,36.01,36.09,36.20,36.31,36.42,36.50,36.58,36.68,36.78,36.86,36.91,36.94,36.95,36.97,37.01,37.02,37.04,37.05,37.06,37.11,37.14,37.16,37.17,37.21,37.25,37.26,37.27,37.31,37.32,37.34,37.36,37.36,37.41,37.42,37.38,37.32,37.31,37.27,37.30,37.39,37.46,37.51,37.52,37.52,37.52,37.56,37.60,37.62,37.62,37.62,37.65,37.78,38.00,38.31,38.59,38.82,38.95,38.99,39.03,39.07,39.11,39.20,39.36,39.59,39.76,39.98,40.28,40.60,40.92,41.24,41.54,41.77,42.03,42.33,42.64,42.94,43.21,43.48,43.65,43.69,43.69,43.62,43.56,43.52,43.49,43.44,43.35,43.04,42.52,42.13,41.74,41.36,41.03,40.91,41.18,41.76,42.48,43.27,44.08,44.50,44.68,44.73,44.84,44.91,44.92,44.83,44.59,44.31,44.02,43.72,43.44,43.13,42.82,42.49,42.16,41.83,41.49,41.12,40.76,40.41,40.05,39.71,39.33,38.90,38.40,37.96,37.52,37.06,36.63,36.17,35.67,35.20,34.75,34.25,33.71,33.30,33.01,32.74,32.52,32.38,32.28,32.20,32.27,32.34,32.42,32.48,32.49,32.55,32.60,32.64,32.69,32.76,32.78,32.82,32.89,32.97,33.05,33.13,33.19,33.23,33.30,33.38,33.45,33.53,33.61,33.69,33.77,33.84,33.91,34.00,34.08,34.13,34.13,34.13,34.16,34.18,34.19,34.22,34.26,34.28,34.28,34.28,34.28,34.28,34.28,34.28,34.24,34.20,34.16,34.13,34.14,34.24,34.30,34.33,34.33,34.33,34.33,34.34,34.38,34.38,34.38,34.38,34.38,34.37,34.28,34.20,34.11,33.99,33.87,33.84,33.93,34.11,34.27,34.42,34.58,34.75,34.88,34.93,34.91,34.87,34.84,34.79,34.76,34.72,34.68,34.68,34.68,34.68,34.68,34.70
32.36,31.99,31.61,31.51,31.75,32.06,32.36,32.63,32.89,33.20,33.51,33.77,34.04,34.34,34.64,34.89,35.04,35.12,35.21,35.35,35.45,35.53,35.62,35.76,35.86,35.94,36.01,36.09,36.23,36.34,36.42,36.50,36.58,36.70,36.78,36.80,36.80,36.86,36.89,36.89,36.90,36.91,36.95,36.99,37.00,37.00,37.06,37.09,37.10,37.11,37.16,37.19,37.19,37.20,37.20,37.25,37.29,37.30,37.30,37.30,37.26,37.20,37.20,37.20,37.25,37.32,37.38,37.40,37.40,37.41,37.42,37.48,37.50,37.50,37.50,37.51,37.60,37.83,38.12,38.41,38.66,38.95,39.09,39.12,39.18,39.20,39.20,39.26,39.42,39.64,39.81,40.05,40.39,40.63,40.87,41.12,41.37,41.61,41.90,42.20,42.52,42.83,43.13,43.37,43.45,43.40,43.39,43.33,43.29,43.26,43.20,43.19,43.08,42.79,42.34,41.95,41.57,41.19,40.82,40.54,40.40,40.80,41.49,42.30,43.26,43.91,44.21,44.30,44.43,44.56,44.68,44.71,44.55,44.31,44.01,43.72,43.46,43.14,42.82,42.47,42.08,41.63,41.24,40.81,40.39,39.99,39.55,39.09,38.64,38.18,37.71,37.26,36.80,36.35,35.95,35.50,35.03,34.60,34.19,33.73,33.21,32.79,32.48,32.28,32.18,32.19,32.25,32.31,32.39,32.46,32.54,32.60,32.62,32.67,32.75,32.80,32.81,32.88,32.91,32.95,33.02,33.09,33.17,33.26,33.33,33.41,33.48,33.55,33.64,33.72,33.78,33.87,33.95,34.02,34.09,34.17,34.25,34.30,34.30,34.30,34.31,34.31,34.32,34.38,34.41,34.41,34.41,34.41,34.41,34.41,34.40,34.40,34.40,34.34,34.30,34.28,34.23,34.33,34.44,34.49,34.50,34.50,34.50,34.50,34.51,34.51,34.50,34.50,34.50,34.48,34.35,34.25,34.15,34.01,33.92,33.91,34.00,34.20,34.36,34.52,34.63,34.75,34.88,34.97,34.99,34.96,34.91,34.90,34.85,34.81,34.80,34.80,34.80,34.80,34.80,34.81
32.38,32.04,31.66,31.52,31.70,32.01,32.31,32.61,32.89,33.20,33.51,33.80,34.07,34.34,34.64,34.89,35.04,35.13,35.25,35.36,35.45,35.53,35.62,35.77,35.86,35.94,36.01,36.09,36.24,36.34,36.42,36.50,36.58,36.64,36.69,36.73,36.74,36.76,36.78,36.79,36.83,36.84,36.86,36.89,36.93,36.94,36.96,37.00,37.04,37.04,37.06,37.08,37.09,37.13,37.13,37.16,37.19,37.23,37.19,37.18,37.16,37.13,37.09,37.12,37.19,37.25,37.27,37.28,37.31,37.34,37.34,37.37,37.38,37.38,37.39,37.46,37.66,37.91,38.19,38.49,38.77,39.04,39.19,39.24,39.31,39.32,39.32,39.36,39.48,39.65,39.81,40.01,40.24,40.43,40.70,40.97,41.24,41.48,41.78,42.08,42.39,42.70,43.01,43.18,43.21,43.15,43.14,43.08,43.02,42.98,42.95,42.90,42.81,42.56,42.17,41.82,41.45,41.06,40.68,40.33,40.03,40.14,40.64,41.50,42.48,43.27,43.68,43.75,43.80,43.82,43.87,44.02,44.27,44.06,43.69,43.32,42.98,42.58,42.21,41.84,41.43,40.97,40.53,40.15,39.75,39.31,38.85,38.38,37.93,37.46,37.00,36.54,36.07,35.63,35.23,34.78,34.35,33.92,33.50,33.07,32.60,32.35,32.29,32.22,32.22,32.28,32.35,32.43,32.51,32.59,32.66,32.73,32.78,32.81,32.87,32.92,32.93,33.00,33.06,33.12,33.19,33.23,33.33,33.42,33.50,33.59,33.66,33.73,33.81,33.89,33.97,34.05,34.13,34.20,34.28,34.36,34.44,34.48,34.48,34.48,34.48,34.48,34.49,34.52,34.57,34.59,34.59,34.59,34.59,34.56,34.52,34.52,34.52,34.46,34.42,34.41,34.34,34.42,34.50,34.59,34.67,34.64,34.62,34.64,34.68,34.68,34.65,34.62,34.61,34.56,34.41,34.31,34.21,34.06,33.98,33.96,34.02,34.16,34.31,34.48,34.61,34.73,34.84,34.96,35.00,35.01,35.02,35.02,35.00,34.96,34.92,34.92,34.92,34.92,34.92,34.93
32.41,32.09,31.72,31.55,31.67,31.96,32.28,32.58,32.89,33.20,33.51,33.82,34.10,34.36,34.65,34.89,35.04,35.14,35.28,35.37,35.45,35.53,35.62,35.77,35.86,35.94,36.02,36.12,36.25,36.34,36.42,36.48,36.55,36.58,36.60,36.66,36.67,36.67,36.67,36.69,36.75,36.77,36.77,36.80,36.85,36.87,36.88,36.91,36.96,36.97,36.98,36.98,37.00,37.05,37.07,37.08,37.10,37.14,37.09,37.06,37.05,37.04,36.97,37.04,37.12,37.16,37.17,37.17,37.22,37.25,37.25,37.25,37.25,37.27,37.31,37.46,37.73,37.99,38.27,38.57,38.86,39.12,39.28,39.36,39.44,39.46,39.46,39.46,39.53,39.67,39.80,39.94,40.08,40.24,40.52,40.83,41.12,41.38,41.68,41.99,42.30,42.60,42.89,42.99,42.97,42.91,42.91,42.84,42.76,42.71,42.70,42.63,42.55,42.36,42.00,41.64,41.26,40.87,40.48,40.08,39.67,39.64,40.05,40.91,41.88,42.70,43.09,43.13,43.10,43.03,43.00,43.14,43.58,43.73,43.55,43.08,42.36,41.70,41.28,40.92,40.54,40.13,39.72,39.38,39.02,38.57,38.12,37.66,37.20,36.74,36.30,35.82,35.36,34.92,34.52,34.08,33.66,33.24,32.83,32.55,32.23,32.14,32.25,32.27,32.34,32.41,32.50,32.58,32.65,32.73,32.80,32.86,32.94,32.95,32.99,33.05,33.08,33.14,33.23,33.32,33.38,33.38,33.47,33.56,33.65,33.74,33.82,33.91,34.00,34.08,34.15,34.23,34.30,34.39,34.46,34.53,34.62,34.66,34.66,34.66,34.66,34.66,34.66,34.67,34.71,34.75,34.75,34.75,34.75,34.70,34.65,34.65,34.64,34.60,34.56,34.53,34.48,34.51,34.56,34.66,34.80,34.78,34.77,34.79,34.84,34.84,34.78,34.73,34.70,34.62,34.49,34.40,34.30,34.17,34.09,34.06,34.09,34.16,34.27,34.41,34.56,34.68,34.78,34.91,34.97,35.00,35.07,35.10,35.12,35.10,35.06,35.05,35.05,35.03,35.02,35.02
32.47,32.15,31.78,31.59,31.67,31.96,32.28,32.58,32.89,33.20,33.51,33.82,34.13,34.41,34.66,34.89,35.04,35.14,35.28,35.37,35.45,35.53,35.62,35.77,35.86,35.94,36.03,36.16,36.26,36.34,36.40,36.42,36.50,36.52,36.52,36.54,36.60,36.62,36.62,36.62,36.64,36.70,36.72,36.72,36.74,36.80,36.81,36.82,36.85,36.90,36.91,36.91,36.92,36.94,37.00,37.02,37.02,37.03,37.02,36.97,36.93,36.91,36.86,36.96,37.02,37.06,37.11,37.12,37.13,37.13,37.13,37.13,37.13,37.17,37.29,37.56,37.80,38.09,38.39,38.69,38.94,39.22,39.41,39.48,39.56,39.63,39.61,39.57,39.59,39.68,39.77,39.86,39.97,40.12,40.40,40.71,41.02,41.31,41.62,41.93,42.24,42.53,42.78,42.79,42.73,42.67,42.66,42.60,42.52,42.47,42.46,42.39,42.31,42.15,41.85,41.36,40.95,40.57,40.16,39.71,39.27,39.35,39.85,40.66,41.58,42.21,42.45,42.39,42.33,42.26,42.18,42.12,42.22,43.30,43.81,43.21,41.63,40.43,39.98,39.68,39.37,39.10,38.83,38.53,38.19,37.79,37.39,36.94,36.48,36.03,35.62,35.11,34.66,34.25,33.80,33.40,32.96,32.53,32.22,32.26,32.26,32.30,32.38,32.45,32.53,32.60,32.67,32.75,32.84,32.91,32.95,32.98,33.05,33.07,33.11,33.19,33.25,33.33,33.45,33.56,33.61,33.56,33.57,33.63,33.72,33.85,33.94,34.06,34.17,34.25,34.34,34.41,34.48,34.56,34.64,34.72,34.80,34.84,34.84,34.84,34.84,34.84,34.84,34.85,34.86,34.87,34.87,34.87,34.87,34.81,34.77,34.77,34.77,34.76,34.72,34.66,34.65,34.61,34.63,34.73,34.87,34.93,34.95,34.95,34.97,34.97,34.90,34.83,34.77,34.69,34.60,34.52,34.44,34.34,34.27,34.24,34.25,34.26,34.23,34.35,34.47,34.58,34.71,34.81,34.88,34.94,35.02,35.09,35.15,35.21,35.23,35.18,35.17,35.13,35.09,35.09
32.52,32.18,31.83,31.61,31.63,31.93,32.23,32.54,32.85,33.16,33.47,33.78,34.09,34.39,34.65,34.89,35.04,35.14,35.28,35.37,35.45,35.54,35.65,35.77,35.86,35.94,36.03,36.17,36.24,36.30,36.36,36.36,36.40,36.44,36.45,36.46,36.50,36.51,36.53,36.55,36.56,36.60,36.63,36.66,36.66,36.70,36.74,36.76,36.77,36.80,36.81,36.83,36.86,36.86,36.90,36.94,36.94,36.91,36.91,36.85,36.81,36.80,36.77,36.87,36.93,36.97,37.01,37.01,37.01,37.01,37.01,37.02,37.04,37.14,37.33,37.63,37.90,38.20,38.50,38.77,39.03,39.34,39.53,39.61,39.71,39.77,39.76,39.73,39.73,39.78,39.82,39.88,39.97,40.13,40.38,40.66,40.94,41.25,41.56,41.87,42.18,42.45,42.59,42.57,42.49,42.43,42.42,42.36,42.28,42.23,42.22,42.15,42.05,41.92,41.72,41.23,40.74,40.27,39.78,39.21,38.81,39.07,39.71,40.49,41.30,41.72,41.81,41.71,41.63,41.50,41.31,41.07,40.92,41.58,41.88,41.42,40.28,39.41,39.02,38.73,38.42,38.17,37.93,37.67,37.35,36.96,36.58,36.16,35.73,35.31,34.91,34.42,33.97,33.54,33.09,32.72,32.48,32.29,32.17,32.30,32.39,32.45,32.51,32.58,32.66,32.74,32.81,32.89,32.97,33.05,33.09,33.11,33.17,33.22,33.30,33.40,33.47,33.55,33.68,33.80,33.85,33.78,33.72,33.71,33.78,33.93,34.05,34.17,34.28,34.39,34.47,34.55,34.64,34.75,34.82,34.87,34.95,35.02,35.03,35.06,35.10,35.11,35.11,35.08,35.05,35.02,35.02,34.99,34.99,34.94,34.89,34.89,34.89,34.89,34.86,34.83,34.83,34.79,34.80,34.85,34.94,35.02,35.07,35.10,35.13,35.13,35.06,34.97,34.88,34.83,34.75,34.68,34.61,34.56,34.49,34.47,34.46,34.41,34.35,34.41,34.47,34.52,34.62,34.73,34.81,34.89,34.96,35.01,35.10,35.19,35.26,35.28,35.25,35.22,35.19,35.19
32.57,32.20,31.86,31.63,31.58,31.87,32.18,32.48,32.79,33.10,33.41,33.72,34.02,34.33,34.63,34.89,35.04,35.14,35.28,35.36,35.45,35.56,35.69,35.77,35.85,35.94,36.03,36.16,36.20,36.24,36.29,36.30,36.30,36.35,36.38,36.39,36.40,36.40,36.44,36.49,36.49,36.50,36.54,36.59,36.59,36.60,36.65,36.69,36.69,36.70,36.70,36.74,36.79,36.80,36.80,36.85,36.86,36.80,36.79,36.74,36.70,36.69,36.70,36.77,36.84,36.89,36.89,36.89,36.89,36.89,36.89,36.91,36.98,37.15,37.40,37.71,38.01,38.31,38.59,38.85,39.14,39.45,39.65,39.74,39.87,39.91,39.91,39.90,39.90,39.91,39.91,39.95,40.04,40.19,40.41,40.64,40.89,41.19,41.50,41.81,42.11,42.35,42.38,42.32,42.25,42.19,42.18,42.12,42.04,41.99,41.98,41.90,41.77,41.68,41.58,41.15,40.59,40.02,39.42,38.69,38.35,38.79,39.57,40.34,41.01,41.23,41.18,41.04,40.93,40.73,40.41,40.05,39.72,39.56,39.38,39.13,38.81,38.50,38.19,37.88,37.57,37.28,37.03,36.79,36.50,36.12,35.73,35.34,34.95,34.57,34.17,33.72,33.28,32.85,32.46,32.17,32.18,32.27,32.34,32.47,32.56,32.61,32.64,32.71,32.79,32.87,32.94,33.02,33.09,33.17,33.21,33.24,33.32,33.39,33.51,33.64,33.72,33.80,33.93,34.05,34.09,34.03,33.90,33.83,33.86,34.00,34.14,34.25,34.36,34.50,34.59,34.67,34.79,34.92,34.99,35.01,35.11,35.21,35.22,35.28,35.35,35.39,35.37,35.30,35.23,35.19,35.17,35.12,35.10,35.05,35.01,35.01,35.01,35.00,35.00,34.99,34.99,34.99,34.99,35.00,35.02,35.08,35.15,35.23,35.29,35.29,35.23,35.11,35.00,34.99,34.92,34.85,34.80,34.79,34.72,34.70,34.66,34.59,34.52,34.52,34.52,34.52,34.55,34.66,34.76,34.83,34.89,34.91,35.03,35.14,35.24,35.35,35.32,35.30,35.30,35.30
32.63,32.25,31.88,31.63,31.57,31.87,32.13,32.42,32.73,33.04,33.35,33.66,33.97,34.27,34.58,34.87,35.04,35.13,35.23,35.31,35.42,35.54,35.64,35.72,35.83,35.94,36.02,36.12,36.13,36.15,36.19,36.23,36.23,36.26,36.27,36.28,36.33,36.34,36.35,36.38,36.43,36.44,36.46,36.49,36.53,36.54,36.56,36.57,36.58,36.63,36.63,36.65,36.69,36.73,36.73,36.76,36.74,36.67,36.67,36.65,36.61,36.58,36.64,36.70,36.76,36.77,36.77,36.77,36.77,36.77,36.78,36.84,36.99,37.23,37.52,37.82,38.08,38.38,38.68,38.96,39.27,39.54,39.75,39.90,39.96,40.01,40.03,40.03,40.03,40.03,40.03,40.06,40.14,40.25,40.47,40.67,40.87,41.13,41.44,41.75,42.00,42.14,42.14,42.08,42.01,41.95,41.94,41.87,41.80,41.75,41.73,41.62,41.50,41.42,41.33,41.06,40.55,40.00,39.33,38.38,37.91,38.41,39.31,40.13,40.64,40.70,40.54,40.30,40.12,39.85,39.54,39.22,38.93,38.65,38.40,38.19,37.99,37.71,37.37,37.04,36.73,36.42,36.14,35.89,35.62,35.27,34.89,34.51,34.12,33.73,33.34,32.93,32.58,32.34,32.27,32.21,32.30,32.42,32.51,32.61,32.69,32.76,32.81,32.89,32.97,33.05,33.12,33.19,33.22,33.29,33.38,33.47,33.55,33.62,33.75,33.88,33.96,34.08,34.20,34.29,34.34,34.32,34.19,34.06,34.01,34.06,34.16,34.28,34.42,34.57,34.70,34.82,34.97,35.09,35.13,35.17,35.29,35.39,35.41,35.47,35.51,35.51,35.45,35.38,35.34,35.30,35.26,35.23,35.18,35.14,35.13,35.13,35.13,35.09,35.06,35.06,35.06,35.06,35.06,35.08,35.13,35.16,35.22,35.30,35.36,35.36,35.30,35.21,35.12,35.07,35.04,34.98,34.93,34.92,34.90,34.85,34.79,34.72,34.69,34.65,34.63,34.63,34.64,34.69,34.75,34.81,34.84,34.89,34.98,35.10,35.23,35.32,35.36,35.37,35.37,35.37
32.67,32.31,31.94,31.65,31.55,31.82,32.07,32.36,32.67,32.98,33.29,33.59,33.91,34.22,34.52,34.83,35.02,35.10,35.20,35.27,35.39,35.50,35.58,35.68,35.80,35.92,35.99,36.06,36.08,36.08,36.09,36.14,36.15,36.17,36.17,36.19,36.24,36.27,36.27,36.29,36.34,36.37,36.38,36.40,36.44,36.45,36.47,36.48,36.49,36.54,36.57,36.58,36.59,36.64,36.65,36.65,36.63,36.58,36.56,36.55,36.52,36.50,36.57,36.63,36.65,36.65,36.65,36.65,36.67,36.67,36.70,36.80,37.02,37.29,37.58,37.89,38.13,38.42,38.72,39.03,39.32,39.58,39.82,40.00,40.00,40.07,40.11,40.13,40.15,40.15,40.15,40.18,40.26,40.34,40.53,40.72,40.89,41.13,41.39,41.67,41.88,41.92,41.91,41.84,41.77,41.70,41.70,41.63,41.56,41.50,41.46,41.34,41.23,41.14,41.06,40.93,40.51,40.02,39.33,38.21,37.48,37.92,38.87,39.70,40.14,40.09,39.84,39.54,39.30,39.01,38.71,38.43,38.18,37.89,37.64,37.43,37.21,36.91,36.55,36.22,35.91,35.60,35.27,35.00,34.73,34.43,34.05,33.66,33.28,32.94,32.66,32.38,32.18,32.12,32.27,32.35,32.47,32.59,32.68,32.76,32.84,32.90,32.97,33.05,33.12,33.20,33.28,33.34,33.39,33.46,33.57,33.71,33.79,33.86,33.99,34.12,34.21,34.35,34.45,34.53,34.61,34.61,34.49,34.33,34.19,34.18,34.25,34.38,34.55,34.70,34.86,35.00,35.14,35.25,35.28,35.34,35.45,35.55,35.57,35.61,35.63,35.60,35.54,35.46,35.43,35.39,35.34,35.32,35.27,35.23,35.23,35.23,35.23,35.18,35.15,35.15,35.15,35.15,35.15,35.17,35.22,35.24,35.30,35.37,35.42,35.44,35.38,35.31,35.23,35.16,35.13,35.09,35.05,35.05,35.05,34.99,34.91,34.85,34.84,34.80,34.77,34.77,34.75,34.75,34.79,34.83,34.86,34.91,34.98,35.11,35.24,35.31,35.39,35.42,35.42,35.40
32.68,32.36,32.04,31.70,31.48,31.71,32.00,32.30,32.61,32.92,33.23,33.53,33.84,34.16,34.47,34.77,34.95,35.05,35.19,35.27,35.36,35.44,35.53,35.67,35.77,35.86,35.93,36.00,36.02,36.02,36.02,36.03,36.03,36.08,36.12,36.12,36.13,36.19,36.22,36.22,36.23,36.29,36.31,36.32,36.33,36.33,36.38,36.41,36.42,36.43,36.49,36.52,36.52,36.53,36.53,36.53,36.53,36.50,36.44,36.43,36.43,36.44,36.51,36.53,36.53,36.53,36.53,36.53,36.58,36.62,36.64,36.79,37.06,37.32,37.58,37.89,38.13,38.42,38.72,39.02,39.27,39.55,39.82,40.00,40.00,40.07,40.14,40.21,40.26,40.27,40.27,40.30,40.38,40.47,40.61,40.77,40.95,41.18,41.36,41.58,41.74,41.73,41.68,41.60,41.52,41.47,41.45,41.39,41.32,41.24,41.17,41.09,40.96,40.84,40.78,40.73,40.45,40.07,39.44,38.22,37.03,37.25,38.14,38.99,39.47,39.35,39.05,38.76,38.52,38.23,37.95,37.70,37.41,37.16,36.92,36.66,36.38,36.07,35.75,35.43,35.13,34.81,34.44,34.12,33.84,33.58,33.20,32.82,32.47,32.21,32.21,32.21,32.23,32.30,32.45,32.53,32.62,32.73,32.86,32.94,33.02,33.06,33.09,33.16,33.24,33.32,33.40,33.48,33.61,33.70,33.81,33.95,34.03,34.11,34.23,34.36,34.45,34.59,34.69,34.80,34.91,34.91,34.80,34.60,34.42,34.37,34.42,34.60,34.79,34.95,35.10,35.21,35.29,35.38,35.45,35.53,35.60,35.69,35.74,35.70,35.69,35.68,35.66,35.58,35.52,35.48,35.45,35.39,35.37,35.33,35.28,35.28,35.28,35.27,35.27,35.27,35.27,35.27,35.27,35.27,35.29,35.35,35.42,35.47,35.50,35.55,35.51,35.43,35.35,35.27,35.21,35.18,35.17,35.17,35.17,35.11,35.03,34.97,34.97,34.96,34.95,34.94,34.88,34.87,34.88,34.91,34.97,34.98,35.05,35.16,35.31,35.38,35.45,35.48,35.46,35.40
32.73,32.41,32.11,31.77,31.53,31.65,31.93,32.24,32.55,32.86,33.16,33.47,33.78,34.09,34.41,34.71,34.92,35.03,35.15,35.26,35.35,35.43,35.51,35.63,35.72,35.80,35.86,35.90,35.91,35.91,35.91,35.92,35.95,35.98,36.01,36.02,36.05,36.09,36.13,36.16,36.16,36.20,36.21,36.22,36.25,36.26,36.29,36.33,36.36,36.36,36.39,36.43,36.45,36.45,36.45,36.43,36.41,36.40,36.36,36.33,36.33,36.37,36.40,36.41,36.43,36.45,36.45,36.45,36.49,36.51,36.55,36.70,36.95,37.20,37.45,37.75,37.99,38.28,38.58,38.85,39.12,39.42,39.69,39.88,39.95,40.03,40.11,40.19,40.25,40.29,40.35,40.42,40.49,40.55,40.67,40.84,41.00,41.19,41.32,41.44,41.52,41.51,41.48,41.41,41.31,41.22,41.22,41.15,41.07,41.00,40.92,40.81,40.69,40.57,40.48,40.46,40.27,39.99,39.42,38.14,36.80,36.78,37.50,38.28,38.58,38.51,38.27,37.97,37.70,37.46,37.20,36.92,36.63,36.38,36.15,35.89,35.58,35.27,34.96,34.65,34.33,33.99,33.64,33.32,33.02,32.77,32.58,32.40,32.24,32.15,32.23,32.30,32.38,32.47,32.59,32.70,32.79,32.89,33.00,33.08,33.15,33.21,33.25,33.33,33.41,33.48,33.56,33.64,33.76,33.85,33.95,34.06,34.17,34.26,34.38,34.51,34.59,34.71,34.85,35.05,35.24,35.18,34.97,34.74,34.59,34.59,34.69,34.83,34.98,35.09,35.22,35.31,35.40,35.50,35.58,35.66,35.73,35.80,35.84,35.80,35.79,35.77,35.74,35.69,35.63,35.57,35.53,35.49,35.46,35.42,35.39,35.39,35.39,35.37,35.34,35.34,35.34,35.34,35.34,35.34,35.36,35.42,35.50,35.56,35.59,35.64,35.61,35.55,35.47,35.39,35.32,35.27,35.24,35.24,35.24,35.19,35.13,35.08,35.05,35.05,35.05,35.03,35.00,34.99,34.99,35.02,35.09,35.09,35.13,35.23,35.36,35.44,35.52,35.55,35.51,35.39
32.78,32.48,32.16,31.86,31.61,31.62,31.87,32.18,32.49,32.80,33.11,33.41,33.72,34.03,34.34,34.65,34.88,35.02,35.11,35.24,35.34,35.42,35.50,35.58,35.66,35.73,35.79,35.80,35.80,35.80,35.80,35.81,35.87,35.89,35.89,35.91,35.97,35.99,36.03,36.09,36.09,36.10,36.10,36.13,36.18,36.19,36.20,36.23,36.29,36.29,36.30,36.34,36.38,36.38,36.38,36.34,36.30,36.29,36.28,36.23,36.23,36.29,36.30,36.30,36.34,36.38,36.38,36.38,36.39,36.39,36.42,36.57,36.78,37.02,37.28,37.57,37.81,38.10,38.38,38.63,38.93,39.23,39.49,39.70,39.84,39.93,40.03,40.11,40.19,40.27,40.39,40.51,40.58,40.60,40.72,40.88,41.02,41.16,41.24,41.27,41.28,41.28,41.27,41.22,41.11,40.99,40.98,40.91,40.83,40.75,40.66,40.52,40.42,40.30,40.16,40.09,39.92,39.69,39.18,37.95,36.61,36.37,36.85,37.53,37.61,37.61,37.46,37.17,36.88,36.69,36.44,36.14,35.85,35.60,35.37,35.10,34.80,34.48,34.17,33.86,33.53,33.17,32.89,32.61,32.35,32.13,32.15,32.21,32.27,32.33,32.41,32.48,32.56,32.64,32.73,32.87,32.96,33.05,33.13,33.21,33.28,33.36,33.44,33.51,33.59,33.66,33.75,33.82,33.89,33.97,34.05,34.14,34.29,34.38,34.50,34.63,34.71,34.81,35.01,35.30,35.58,35.44,35.10,34.83,34.72,34.80,34.93,35.04,35.13,35.21,35.28,35.36,35.47,35.60,35.68,35.76,35.84,35.89,35.91,35.90,35.90,35.87,35.82,35.80,35.74,35.67,35.61,35.59,35.54,35.51,35.50,35.50,35.50,35.45,35.41,35.41,35.41,35.41,35.41,35.41,35.42,35.49,35.56,35.64,35.70,35.70,35.70,35.66,35.58,35.50,35.43,35.36,35.31,35.31,35.31,35.25,35.21,35.19,35.13,35.12,35.11,35.11,35.11,35.11,35.11,35.14,35.20,35.21,35.22,35.29,35.42,35.49,35.56,35.60,35.55,35.40
32.84,32.53,32.23,31.91,31.66,31.57,31.81,32.12,32.43,32.74,33.05,33.36,33.66,33.97,34.28,34.59,34.84,35.02,35.10,35.20,35.28,35.36,35.44,35.52,35.59,35.67,35.73,35.73,35.73,35.73,35.73,35.74,35.76,35.77,35.79,35.84,35.86,35.91,35.95,35.97,35.97,36.02,36.04,36.04,36.08,36.12,36.13,36.15,36.18,36.23,36.23,36.25,36.27,36.27,36.27,36.25,36.21,36.17,36.17,36.15,36.15,36.18,36.23,36.23,36.25,36.27,36.27,36.27,36.27,36.27,36.29,36.40,36.61,36.87,37.14,37.40,37.63,37.92,38.20,38.45,38.74,39.02,39.23,39.41,39.56,39.69,39.86,40.00,40.08,40.20,40.32,40.43,40.54,40.60,40.69,40.83,40.95,41.00,41.03,41.04,41.04,41.04,41.04,40.98,40.89,40.79,40.74,40.67,40.59,40.50,40.38,40.27,40.15,39.97,39.69,39.34,38.95,38.61,38.21,37.45,36.32,35.91,36.09,36.55,36.59,36.59,36.54,36.39,36.09,35.87,35.63,35.37,35.11,34.83,34.59,34.32,34.01,33.70,33.35,33.02,32.72,32.45,32.37,32.31,32.25,32.20,32.23,32.33,32.44,32.51,32.59,32.66,32.75,32.82,32.90,33.00,33.12,33.23,33.30,33.39,33.46,33.53,33.62,33.70,33.77,33.84,33.92,34.00,34.02,34.09,34.17,34.27,34.41,34.50,34.59,34.70,34.84,35.01,35.30,35.66,35.91,35.70,35.30,34.96,34.80,34.92,35.03,35.11,35.20,35.27,35.34,35.42,35.52,35.61,35.69,35.77,35.85,35.91,35.96,35.96,35.96,35.95,35.92,35.88,35.84,35.79,35.72,35.67,35.64,35.60,35.56,35.56,35.56,35.54,35.53,35.53,35.53,35.53,35.53,35.53,35.53,35.56,35.62,35.70,35.76,35.77,35.77,35.72,35.64,35.57,35.50,35.45,35.43,35.42,35.38,35.34,35.31,35.26,35.23,35.23,35.20,35.18,35.22,35.23,35.23,35.26,35.33,35.33,35.37,35.42,35.47,35.50,35.57,35.63,35.62,35.45
32.93,32.62,32.31,32.00,31.72,31.55,31.76,32.06,32.37,32.68,32.98,33.30,33.61,33.91,34.22,34.53,34.81,35.01,35.08,35.14,35.22,35.31,35.40,35.48,35.56,35.63,35.67,35.67,35.67,35.67,35.67,35.67,35.67,35.67,35.70,35.75,35.77,35.82,35.85,35.85,35.88,35.93,35.96,35.98,35.98,36.04,36.06,36.08,36.09,36.14,36.15,36.16,36.17,36.15,36.15,36.15,36.12,36.05,36.05,36.05,36.06,36.09,36.14,36.15,36.15,36.15,36.15,36.15,36.15,36.15,36.16,36.25,36.45,36.72,36.99,37.22,37.45,37.74,38.02,38.26,38.54,38.76,38.93,39.08,39.22,39.36,39.55,39.75,39.91,40.10,40.22,40.34,40.46,40.54,40.62,40.73,40.83,40.83,40.83,40.83,40.83,40.83,40.82,40.75,40.66,40.58,40.51,40.43,40.34,40.21,40.03,39.88,39.69,39.43,39.08,38.57,38.04,37.59,37.20,36.70,35.83,35.35,35.31,35.55,35.57,35.59,35.60,35.54,35.29,35.04,34.80,34.58,34.35,34.05,33.80,33.54,33.23,32.94,32.67,32.43,32.24,32.11,32.15,32.23,32.30,32.35,32.38,32.48,32.59,32.67,32.76,32.84,32.92,33.00,33.08,33.16,33.27,33.39,33.48,33.56,33.64,33.72,33.80,33.88,33.95,34.03,34.11,34.17,34.20,34.25,34.31,34.41,34.53,34.62,34.70,34.81,35.04,35.32,35.68,36.03,36.20,35.90,35.50,35.14,34.92,35.00,35.07,35.15,35.23,35.30,35.38,35.48,35.56,35.64,35.72,35.80,35.88,35.95,36.02,36.05,36.04,36.02,36.01,35.96,35.94,35.90,35.83,35.76,35.73,35.69,35.65,35.65,35.65,35.63,35.63,35.63,35.63,35.63,35.63,35.63,35.63,35.64,35.69,35.75,35.82,35.85,35.84,35.80,35.73,35.66,35.58,35.54,35.52,35.52,35.46,35.44,35.40,35.35,35.33,35.33,35.29,35.27,35.34,35.35,35.36,35.40,35.45,35.45,35.51,35.55,35.55,35.56,35.62,35.69,35.67,35.52
33.05,32.74,32.43,32.12,31.82,31.57,31.71,32.00,32.31,32.62,32.92,33.23,33.55,33.85,34.16,34.47,34.77,35.00,35.02,35.08,35.17,35.27,35.40,35.48,35.56,35.61,35.62,35.62,35.62,35.62,35.62,35.62,35.62,35.62,35.62,35.64,35.70,35.72,35.73,35.75,35.80,35.83,35.87,35.91,35.92,35.93,35.98,36.02,36.02,36.03,36.03,36.07,36.10,36.04,36.03,36.03,36.00,35.94,35.93,35.93,35.96,36.02,36.03,36.03,36.03,36.03,36.03,36.03,36.03,36.03,36.05,36.13,36.33,36.57,36.81,37.04,37.27,37.56,37.83,38.07,38.31,38.44,38.57,38.70,38.80,38.95,39.10,39.33,39.67,39.96,40.13,40.25,40.34,40.42,40.50,40.58,40.64,40.64,40.64,40.64,40.64,40.64,40.64,40.53,40.42,40.34,40.26,40.19,40.07,39.88,39.59,39.32,38.98,38.65,38.31,37.84,37.32,36.79,36.26,35.67,35.06,34.66,34.49,34.54,34.55,34.60,34.63,34.61,34.48,34.22,33.96,33.75,33.57,33.27,33.02,32.76,32.46,32.23,32.19,32.20,32.22,32.26,32.34,32.41,32.46,32.48,32.54,32.63,32.71,32.80,32.94,33.03,33.11,33.18,33.25,33.34,33.42,33.53,33.66,33.75,33.83,33.89,33.98,34.05,34.13,34.20,34.28,34.36,34.43,34.45,34.50,34.58,34.66,34.74,34.82,34.98,35.34,35.76,36.16,36.41,36.38,36.03,35.69,35.38,35.12,35.03,35.07,35.15,35.23,35.31,35.38,35.51,35.63,35.70,35.78,35.86,35.94,36.00,36.08,36.15,36.13,36.09,36.08,36.07,36.02,35.98,35.95,35.88,35.81,35.78,35.77,35.77,35.77,35.72,35.69,35.69,35.69,35.69,35.69,35.69,35.69,35.75,35.78,35.81,35.89,35.96,35.92,35.88,35.85,35.78,35.70,35.63,35.59,35.58,35.57,35.52,35.48,35.46,35.40,35.38,35.38,35.39,35.46,35.47,35.52,35.56,35.57,35.58,35.63,35.67,35.67,35.67,35.74,35.78,35.73,35.59
33.13,32.81,32.50,32.20,31.89,31.61,31.66,31.89,32.20,32.51,32.82,33.13,33.44,33.75,34.05,34.33,34.63,34.89,35.00,35.07,35.13,35.20,35.31,35.39,35.47,35.52,35.55,35.55,35.55,35.53,35.51,35.51,35.51,35.51,35.52,35.56,35.60,35.61,35.63,35.66,35.70,35.74,35.78,35.81,35.81,35.85,35.88,35.91,35.92,35.95,35.95,35.98,36.00,35.95,35.92,35.91,35.89,35.85,35.82,35.84,35.88,35.91,35.91,35.91,35.91,35.91,35.91,35.91,35.91,35.91,35.92,35.97,36.16,36.42,36.67,36.91,37.14,37.37,37.58,37.75,37.94,38.05,38.16,38.30,38.38,38.53,38.66,38.87,39.25,39.67,39.99,40.17,40.21,40.26,40.33,40.41,40.47,40.47,40.47,40.47,40.45,40.42,40.41,40.32,40.20,40.08,39.89,39.68,39.46,39.20,38.90,38.59,38.24,37.91,37.57,37.11,36.59,36.05,35.48,34.88,34.36,34.03,33.86,33.79,33.72,33.68,33.65,33.61,33.56,33.38,33.16,32.94,32.76,32.59,32.48,32.37,32.24,32.16,32.20,32.28,32.36,32.44,32.52,32.56,32.61,32.65,32.72,32.80,32.88,32.96,33.08,33.16,33.26,33.37,33.44,33.52,33.62,33.73,33.84,33.92,34.00,34.08,34.16,34.23,34.31,34.39,34.47,34.55,34.62,34.64,34.66,34.71,34.79,34.95,35.16,35.42,35.79,36.23,36.64,36.79,36.58,36.20,35.88,35.59,35.33,35.17,35.14,35.20,35.28,35.36,35.42,35.54,35.64,35.71,35.79,35.87,35.95,36.02,36.10,36.18,36.20,36.19,36.18,36.15,36.11,36.07,36.03,35.99,35.92,35.89,35.88,35.85,35.84,35.81,35.79,35.78,35.75,35.74,35.74,35.75,35.79,35.83,35.87,35.91,35.96,36.03,36.01,35.97,35.92,35.86,35.80,35.74,35.69,35.69,35.65,35.62,35.58,35.53,35.46,35.48,35.49,35.50,35.55,35.58,35.62,35.64,35.65,35.68,35.73,35.74,35.75,35.79,35.83,35.84,35.80,35.65
33.20,32.89,32.58,32.27,31.96,31.67,31.59,31.77,32.08,32.39,32.70,33.01,33.31,33.63,33.93,34.17,34.45,34.72,34.94,35.05,35.09,35.13,35.20,35.28,35.36,35.43,35.48,35.48,35.48,35.45,35.40,35.40,35.40,35.40,35.42,35.48,35.49,35.50,35.53,35.59,35.59,35.66,35.69,35.69,35.71,35.77,35.79,35.79,35.81,35.87,35.89,35.89,35.89,35.88,35.82,35.79,35.79,35.77,35.72,35.75,35.78,35.79,35.79,35.79,35.79,35.79,35.79,35.79,35.79,35.79,35.79,35.81,36.00,36.27,36.54,36.77,37.00,37.17,37.28,37.36,37.52,37.62,37.73,37.87,37.96,38.10,38.21,38.39,38.79,39.33,39.81,40.07,40.07,40.08,40.13,40.23,40.29,40.29,40.29,40.27,40.23,40.17,40.16,40.06,39.93,39.72,39.41,39.06,38.73,38.43,38.12,37.81,37.50,37.19,36.85,36.39,35.86,35.32,34.77,34.18,33.71,33.46,33.30,33.16,33.02,32.87,32.76,32.70,32.70,32.63,32.48,32.27,32.11,32.08,32.12,32.19,32.24,32.31,32.39,32.46,32.53,32.62,32.70,32.72,32.75,32.83,32.91,32.97,33.05,33.14,33.22,33.29,33.41,33.53,33.61,33.69,33.82,33.94,34.03,34.11,34.19,34.26,34.34,34.41,34.50,34.57,34.66,34.76,34.86,34.90,34.92,34.96,35.05,35.29,35.61,35.95,36.28,36.72,37.09,37.14,36.77,36.39,36.07,35.80,35.57,35.35,35.25,35.25,35.33,35.40,35.48,35.57,35.65,35.72,35.80,35.88,35.96,36.03,36.11,36.19,36.26,36.30,36.29,36.23,36.20,36.16,36.11,36.10,36.04,36.01,35.97,35.92,35.91,35.91,35.90,35.89,35.83,35.81,35.81,35.84,35.90,35.91,35.96,36.01,36.03,36.09,36.10,36.06,35.99,35.93,35.91,35.86,35.81,35.79,35.72,35.70,35.67,35.60,35.53,35.57,35.60,35.60,35.63,35.68,35.71,35.72,35.73,35.78,35.81,35.81,35.83,35.89,35.91,35.91,35.86,35.72
33.31,33.00,32.70,32.39,32.08,31.77,31.55,31.65,31.96,32.27,32.58,32.89,33.20,33.50,33.75,33.99,34.24,34.49,34.72,34.91,35.00,35.06,35.14,35.22,35.30,35.35,35.37,35.37,35.37,35.35,35.34,35.34,35.34,35.34,35.34,35.37,35.37,35.41,35.45,35.47,35.47,35.54,35.57,35.58,35.63,35.66,35.67,35.69,35.73,35.77,35.81,35.81,35.77,35.77,35.74,35.70,35.67,35.66,35.64,35.66,35.67,35.67,35.67,35.67,35.67,35.67,35.67,35.67,35.67,35.67,35.67,35.69,35.87,36.12,36.36,36.59,36.78,36.87,36.89,36.90,37.04,37.17,37.29,37.40,37.53,37.68,37.78,37.95,38.34,38.99,39.55,39.84,39.84,39.84,39.90,40.04,40.17,40.16,40.12,40.03,39.94,39.87,39.80,39.58,39.30,39.02,38.67,38.33,38.01,37.70,37.39,37.08,36.77,36.47,36.13,35.67,35.14,34.60,34.05,33.52,33.22,33.00,32.83,32.72,32.56,32.41,32.27,32.19,32.23,32.26,32.22,32.16,32.14,32.18,32.25,32.34,32.41,32.48,32.56,32.64,32.72,32.80,32.88,32.89,32.92,33.00,33.08,33.12,33.20,33.31,33.39,33.47,33.56,33.66,33.74,33.86,33.98,34.09,34.20,34.28,34.37,34.45,34.52,34.59,34.67,34.75,34.88,35.11,35.34,35.52,35.65,35.75,35.89,36.04,36.23,36.49,36.82,37.22,37.42,37.34,36.95,36.56,36.28,36.04,35.81,35.58,35.39,35.31,35.33,35.41,35.48,35.60,35.70,35.78,35.86,35.94,36.02,36.09,36.17,36.25,36.33,36.37,36.36,36.34,36.29,36.25,36.22,36.17,36.14,36.10,36.06,36.03,36.03,35.99,35.96,35.96,35.94,35.93,35.93,35.94,35.97,36.02,36.05,36.09,36.14,36.16,36.16,36.13,36.06,36.03,35.99,35.95,35.92,35.86,35.78,35.77,35.73,35.67,35.64,35.66,35.66,35.68,35.73,35.76,35.80,35.83,35.84,35.86,35.91,35.93,35.94,35.97,36.02,36.00,35.93,35.82
33.43,33.13,32.81,32.50,32.20,31.89,31.58,31.59,31.84,32.15,32.46,32.76,33.04,33.32,33.55,33.80,34.05,34.27,34.50,34.72,34.87,34.98,35.07,35.13,35.21,35.26,35.27,35.27,35.27,35.27,35.27,35.27,35.27,35.27,35.27,35.27,35.27,35.32,35.35,35.35,35.38,35.43,35.46,35.50,35.54,35.55,35.56,35.60,35.65,35.67,35.73,35.71,35.67,35.65,35.65,35.59,35.55,35.55,35.55,35.55,35.55,35.55,35.55,35.55,35.55,35.55,35.55,35.55,35.55,35.55,35.55,35.56,35.75,35.98,36.20,36.38,36.49,36.52,36.49,36.47,36.57,36.71,36.84,36.95,37.08,37.23,37.35,37.48,37.75,38.36,38.88,39.14,39.15,39.18,39.36,39.57,39.74,39.79,39.73,39.59,39.44,39.35,39.26,38.96,38.63,38.30,37.92,37.60,37.29,36.98,36.67,36.36,36.05,35.74,35.40,34.94,34.41,33.89,33.39,32.96,32.77,32.55,32.40,32.35,32.25,32.15,32.05,32.00,32.08,32.15,32.19,32.22,32.28,32.36,32.44,32.52,32.59,32.66,32.75,32.83,32.90,32.97,33.03,33.07,33.11,33.18,33.24,33.27,33.34,33.47,33.55,33.64,33.73,33.80,33.89,34.02,34.13,34.24,34.37,34.48,34.57,34.66,34.77,34.93,35.09,35.23,35.44,35.75,36.05,36.30,36.50,36.65,36.80,36.91,37.03,37.20,37.45,37.71,37.72,37.49,37.11,36.77,36.53,36.30,36.08,35.84,35.61,35.45,35.39,35.44,35.50,35.63,35.74,35.81,35.89,35.97,36.05,36.12,36.20,36.28,36.36,36.41,36.42,36.42,36.38,36.34,36.31,36.26,36.23,36.19,36.15,36.15,36.13,36.09,36.05,36.02,36.02,36.02,36.02,36.03,36.06,36.11,36.13,36.16,36.22,36.25,36.23,36.20,36.15,36.12,36.07,36.04,36.00,35.93,35.87,35.84,35.80,35.75,35.73,35.74,35.75,35.77,35.82,35.85,35.89,35.92,35.93,35.95,36.00,36.04,36.05,36.06,36.11,36.08,36.00,35.91
33.55,33.25,32.94,32.63,32.31,32.01,31.70,31.60,31.72,32.03,32.34,32.60,32.84,33.08,33.32,33.60,33.86,34.09,34.32,34.50,34.69,34.88,35.00,35.03,35.09,35.16,35.21,35.22,35.22,35.22,35.22,35.22,35.22,35.22,35.22,35.22,35.22,35.22,35.23,35.24,35.30,35.32,35.37,35.42,35.43,35.43,35.47,35.52,35.54,35.60,35.62,35.62,35.59,35.54,35.53,35.47,35.43,35.43,35.43,35.43,35.43,35.43,35.43,35.43,35.43,35.43,35.43,35.43,35.43,35.43,35.43,35.44,35.63,35.86,36.05,36.13,36.11,36.10,36.09,36.09,36.11,36.23,36.38,36.51,36.60,36.75,36.89,36.98,37.01,37.34,37.69,37.88,37.89,37.98,38.43,38.76,38.94,39.10,39.06,38.89,38.70,38.57,38.48,38.21,37.90,37.58,37.20,36.88,36.57,36.26,35.95,35.64,35.33,35.02,34.68,34.22,33.70,33.20,32.78,32.52,32.35,32.14,32.02,32.07,32.05,32.08,32.12,32.17,32.25,32.33,32.40,32.45,32.47,32.54,32.62,32.70,32.78,32.84,32.92,33.00,33.08,33.15,33.17,33.22,33.29,33.36,33.38,33.43,33.50,33.59,33.67,33.80,33.91,33.98,34.06,34.15,34.28,34.40,34.51,34.71,34.82,34.94,35.13,35.48,35.82,36.12,36.40,36.71,37.02,37.27,37.46,37.62,37.77,37.92,38.02,38.12,38.21,38.21,37.96,37.61,37.25,37.00,36.81,36.61,36.38,36.14,35.91,35.70,35.54,35.51,35.57,35.65,35.74,35.81,35.89,35.97,36.05,36.12,36.20,36.28,36.36,36.43,36.48,36.48,36.48,36.44,36.38,36.37,36.31,36.28,36.27,36.26,36.20,36.18,36.14,36.09,36.09,36.09,36.09,36.11,36.17,36.18,36.19,36.22,36.29,36.36,36.32,36.28,36.26,36.20,36.18,36.13,36.06,36.00,35.97,35.93,35.88,35.86,35.80,35.84,35.87,35.88,35.89,35.95,35.98,35.98,36.00,36.06,36.08,36.12,36.17,36.17,36.18,36.14,36.06,35.98
33.67,33.36,33.05,32.75,32.44,32.13,31.82,31.63,31.63,31.91,32.18,32.42,32.66,32.88,33.13,33.42,33.69,33.91,34.10,34.26,34.46,34.67,34.81,34.93,35.02,35.09,35.15,35.16,35.16,35.16,35.16,35.15,35.12,35.11,35.11,35.11,35.11,35.13,35.16,35.16,35.20,35.24,35.28,35.31,35.31,35.34,35.38,35.42,35.47,35.53,35.52,35.51,35.48,35.42,35.41,35.38,35.34,35.31,35.35,35.36,35.33,35.31,35.31,35.31,35.31,35.31,35.31,35.31,35.31,35.31,35.31,35.32,35.48,35.65,35.77,35.77,35.73,35.72,35.72,35.72,35.72,35.78,35.90,36.04,36.11,36.17,36.23,36.25,36.17,36.24,36.44,36.58,36.66,36.92,37.33,37.64,37.87,38.09,38.21,38.13,37.96,37.78,37.66,37.45,37.16,36.82,36.47,36.15,35.84,35.54,35.23,34.91,34.60,34.28,33.92,33.49,33.01,32.60,32.32,32.19,32.16,32.09,32.07,32.14,32.18,32.22,32.28,32.36,32.44,32.52,32.59,32.65,32.69,32.73,32.80,32.88,32.95,33.03,33.11,33.19,33.25,33.29,33.33,33.39,33.47,33.53,33.55,33.61,33.68,33.75,33.84,33.95,34.04,34.13,34.24,34.32,34.45,34.58,34.71,35.07,35.47,35.79,36.09,36.48,36.86,37.20,37.48,37.73,37.99,38.23,38.43,38.58,38.74,38.89,38.91,38.83,38.70,38.47,38.14,37.81,37.51,37.27,37.08,36.86,36.63,36.40,36.17,35.94,35.73,35.62,35.64,35.70,35.78,35.86,35.94,36.02,36.09,36.17,36.25,36.33,36.41,36.48,36.55,36.58,36.56,36.52,36.48,36.45,36.41,36.37,36.34,36.34,36.30,36.27,36.23,36.20,36.19,36.19,36.19,36.21,36.24,36.24,36.27,36.31,36.36,36.43,36.41,36.38,36.34,36.30,36.26,36.20,36.13,36.09,36.05,36.02,35.98,35.94,35.91,35.93,35.97,35.99,36.00,36.03,36.07,36.09,36.10,36.14,36.18,36.21,36.24,36.25,36.28,36.22,36.12,36.03
33.78,33.48,33.17,32.86,32.55,32.25,31.95,31.69,31.59,31.77,32.01,32.24,32.48,32.70,32.95,33.23,33.50,33.70,33.86,34.03,34.23,34.43,34.60,34.81,34.93,35.01,35.07,35.07,35.07,35.07,35.07,35.06,35.01,34.99,34.99,35.00,35.00,35.05,35.09,35.09,35.10,35.16,35.19,35.19,35.21,35.28,35.30,35.33,35.40,35.47,35.42,35.39,35.36,35.30,35.29,35.28,35.26,35.22,35.27,35.28,35.24,35.19,35.19,35.19,35.19,35.19,35.19,35.19,35.19,35.19,35.19,35.19,35.30,35.40,35.43,35.37,35.36,35.36,35.36,35.36,35.36,35.36,35.43,35.55,35.61,35.56,35.54,35.49,35.36,35.23,35.30,35.40,35.56,35.92,36.18,36.45,36.73,36.96,37.25,37.31,37.20,37.01,36.84,36.69,36.42,36.05,35.74,35.43,35.12,34.81,34.50,34.19,33.88,33.53,33.16,32.80,32.40,32.14,32.02,31.99,32.09,32.18,32.25,32.33,32.40,32.43,32.47,32.55,32.62,32.70,32.77,32.84,32.91,32.93,32.99,33.06,33.14,33.21,33.28,33.36,33.41,33.43,33.50,33.58,33.65,33.70,33.72,33.78,33.86,33.94,34.02,34.09,34.17,34.27,34.41,34.50,34.64,34.80,35.04,35.58,36.28,36.84,37.24,37.62,38.01,38.34,38.59,38.76,38.97,39.17,39.34,39.48,39.61,39.73,39.64,39.39,39.06,38.65,38.31,38.03,37.80,37.56,37.34,37.11,36.87,36.64,36.41,36.18,35.95,35.75,35.71,35.76,35.83,35.91,35.98,36.06,36.14,36.22,36.30,36.38,36.45,36.53,36.61,36.69,36.65,36.61,36.59,36.52,36.51,36.46,36.41,36.41,36.41,36.35,36.31,36.30,36.30,36.30,36.30,36.30,36.31,36.31,36.36,36.41,36.43,36.49,36.51,36.46,36.41,36.40,36.33,36.26,36.21,36.19,36.13,36.11,36.07,36.01,36.01,36.01,36.05,36.10,36.11,36.12,36.16,36.20,36.21,36.22,36.27,36.31,36.31,36.33,36.38,36.31,36.19,36.09
33.85,33.59,33.30,32.98,32.67,32.38,32.11,31.87,31.66,31.58,31.82,32.06,32.30,32.52,32.76,33.05,33.29,33.47,33.63,33.83,34.01,34.20,34.41,34.59,34.73,34.84,34.89,34.89,34.89,34.89,34.89,34.89,34.87,34.86,34.89,34.93,34.94,34.96,34.96,34.98,35.02,35.05,35.06,35.08,35.14,35.22,35.23,35.27,35.33,35.36,35.30,35.26,35.26,35.23,35.18,35.16,35.16,35.14,35.16,35.16,35.13,35.06,35.06,35.06,35.06,35.06,35.06,35.06,35.06,35.06,35.06,35.06,35.06,35.08,35.07,35.00,34.99,34.99,34.99,34.99,34.99,34.99,34.99,35.00,35.02,35.00,34.96,34.91,34.85,34.75,34.69,34.73,34.90,35.01,35.13,35.33,35.58,35.82,36.12,36.31,36.35,36.26,36.06,35.94,35.70,35.32,35.02,34.70,34.39,34.09,33.78,33.47,33.12,32.77,32.46,32.23,32.11,32.06,32.09,32.17,32.27,32.36,32.44,32.51,32.59,32.64,32.71,32.78,32.81,32.88,32.95,33.03,33.10,33.16,33.23,33.28,33.32,33.39,33.47,33.52,33.55,33.60,33.67,33.75,33.81,33.84,33.89,33.97,34.04,34.12,34.20,34.28,34.35,34.43,34.54,34.66,34.81,35.18,35.84,36.54,37.26,37.88,38.38,38.77,39.15,39.45,39.67,39.82,39.95,40.00,40.04,40.09,40.12,40.04,39.87,39.58,39.17,38.80,38.52,38.27,38.04,37.81,37.58,37.34,37.12,36.88,36.65,36.42,36.19,35.96,35.80,35.79,35.84,35.91,35.99,36.07,36.15,36.22,36.30,36.38,36.45,36.55,36.67,36.75,36.75,36.71,36.66,36.63,36.59,36.55,36.54,36.53,36.48,36.45,36.41,36.37,36.37,36.37,36.37,36.38,36.43,36.44,36.45,36.49,36.54,36.56,36.56,36.53,36.46,36.46,36.39,36.35,36.32,36.26,36.19,36.16,36.14,36.07,36.07,36.11,36.15,36.18,36.23,36.24,36.25,36.29,36.34,36.34,36.35,36.39,36.44,36.44,36.46,36.37,36.25,36.16
33.95,33.71,33.43,33.13,32.83,32.55,32.29,32.05,31.80,31.57,31.67,31.88,32.11,32.34,32.58,32.85,33.07,33.23,33.41,33.62,33.80,33.99,34.20,34.37,34.52,34.63,34.69,34.71,34.72,34.72,34.72,34.72,34.72,34.72,34.74,34.78,34.79,34.80,34.82,34.84,34.91,34.91,34.93,34.97,35.05,35.13,35.14,35.18,35.24,35.23,35.18,35.14,35.14,35.13,35.09,35.06,35.04,35.04,35.04,35.03,34.99,34.94,34.92,34.91,34.91,34.91,34.91,34.91,34.91,34.91,34.89,34.88,34.82,34.79,34.77,34.70,34.69,34.69,34.69,34.69,34.69,34.67,34.62,34.57,34.56,34.54,34.48,34.43,34.42,34.38,34.24,34.26,34.41,34.35,34.36,34.46,34.61,34.76,35.00,35.23,35.40,35.45,35.30,35.19,34.95,34.60,34.29,33.98,33.67,33.36,33.06,32.77,32.51,32.27,32.09,32.01,32.05,32.14,32.25,32.38,32.45,32.53,32.62,32.72,32.80,32.86,32.92,32.98,33.01,33.08,33.15,33.20,33.28,33.37,33.44,33.50,33.52,33.60,33.66,33.68,33.70,33.78,33.86,33.92,33.96,33.99,34.06,34.14,34.21,34.27,34.35,34.42,34.52,34.61,34.71,34.97,35.32,35.95,36.88,37.63,38.34,38.97,39.48,39.83,40.13,40.33,40.46,40.53,40.55,40.48,40.42,40.40,40.36,40.18,39.99,39.72,39.30,38.99,38.75,38.51,38.28,38.05,37.82,37.59,37.36,37.15,36.92,36.69,36.45,36.23,35.99,35.89,35.88,35.95,36.02,36.09,36.17,36.25,36.33,36.41,36.48,36.58,36.70,36.78,36.82,36.80,36.75,36.73,36.68,36.64,36.63,36.62,36.57,36.54,36.50,36.46,36.46,36.46,36.46,36.47,36.52,36.52,36.54,36.58,36.62,36.63,36.63,36.60,36.55,36.53,36.48,36.44,36.41,36.33,36.27,36.24,36.20,36.16,36.16,36.21,36.24,36.27,36.32,36.33,36.34,36.38,36.43,36.45,36.46,36.48,36.53,36.55,36.53,36.43,36.31,36.22
34.07,33.83,33.59,33.31,33.02,32.77,32.48,32.23,31.99,31.76,31.59,31.70,31.93,32.16,32.39,32.64,32.83,33.00,33.22,33.39,33.59,33.80,33.97,34.18,34.30,34.39,34.46,34.52,34.54,34.54,34.54,34.54,34.54,34.54,34.54,34.55,34.55,34.60,34.64,34.66,34.72,34.73,34.78,34.85,34.93,35.00,35.02,35.05,35.12,35.11,35.05,35.02,35.02,35.02,35.01,34.96,34.92,34.92,34.92,34.86,34.83,34.80,34.74,34.73,34.73,34.73,34.73,34.73,34.73,34.70,34.65,34.64,34.58,34.55,34.52,34.46,34.45,34.45,34.45,34.45,34.44,34.39,34.32,34.26,34.25,34.20,34.13,34.08,34.07,34.06,33.94,33.93,34.05,33.98,33.92,33.88,33.84,33.82,33.91,34.10,34.34,34.55,34.54,34.42,34.20,33.88,33.57,33.26,32.95,32.65,32.36,32.12,32.06,32.08,32.11,32.16,32.23,32.35,32.47,32.56,32.64,32.72,32.82,32.95,33.03,33.06,33.11,33.18,33.24,33.32,33.36,33.39,33.47,33.55,33.63,33.69,33.76,33.84,33.86,33.86,33.89,33.97,34.03,34.07,34.10,34.17,34.25,34.33,34.37,34.39,34.47,34.55,34.67,34.80,34.95,35.46,36.21,37.14,38.13,38.85,39.54,40.11,40.53,40.77,40.90,40.92,40.88,40.82,40.70,40.56,40.45,40.39,40.31,40.16,40.04,39.85,39.48,39.22,38.99,38.76,38.52,38.29,38.06,37.83,37.61,37.44,37.22,36.99,36.76,36.52,36.29,36.08,35.98,36.00,36.08,36.16,36.23,36.31,36.39,36.47,36.55,36.63,36.71,36.79,36.86,36.88,36.86,36.80,36.78,36.73,36.69,36.69,36.68,36.63,36.59,36.57,36.57,36.57,36.57,36.58,36.59,36.59,36.64,36.68,36.69,36.69,36.69,36.69,36.66,36.60,36.58,36.53,36.47,36.40,36.38,36.33,36.28,36.27,36.27,36.28,36.33,36.38,36.39,36.39,36.44,36.48,36.50,36.56,36.57,36.58,36.61,36.66,36.61,36.49,36.36,36.27
34.27,34.00,33.77,33.50,33.20,32.97,32.70,32.44,32.17,31.95,31.71,31.65,31.75,31.98,32.21,32.42,32.61,32.80,32.99,33.19,33.41,33.61,33.77,33.92,34.05,34.16,34.26,34.30,34.31,34.31,34.31,34.31,34.31,34.33,34.36,34.36,34.36,34.41,34.45,34.47,34.55,34.55,34.61,34.69,34.75,34.80,34.81,34.84,34.91,34.91,34.87,34.83,34.81,34.81,34.81,34.75,34.71,34.71,34.70,34.64,34.61,34.60,34.56,34.52,34.51,34.51,34.51,34.51,34.51,34.47,34.40,34.36,34.33,34.29,34.25,34.21,34.21,34.21,34.19,34.16,34.16,34.09,34.02,33.96,33.95,33.88,33.83,33.79,33.76,33.72,33.62,33.59,33.64,33.58,33.49,33.41,33.34,33.27,33.27,33.32,33.42,33.53,33.61,33.59,33.43,33.15,32.85,32.54,32.37,32.27,32.16,32.07,32.11,32.18,32.25,32.34,32.44,32.56,32.66,32.75,32.82,32.92,33.04,33.15,33.23,33.27,33.33,33.40,33.44,33.52,33.57,33.62,33.69,33.73,33.80,33.88,33.95,34.03,34.08,34.09,34.10,34.15,34.22,34.24,34.28,34.36,34.42,34.48,34.52,34.56,34.64,34.72,34.93,35.29,35.82,36.55,37.44,38.45,39.44,39.95,40.39,40.75,41.02,41.13,41.18,41.14,41.05,40.93,40.74,40.55,40.39,40.28,40.16,40.05,39.98,39.88,39.66,39.48,39.27,39.05,38.81,38.58,38.35,38.12,37.90,37.70,37.47,37.24,37.01,36.78,36.55,36.31,36.14,36.06,36.10,36.17,36.25,36.34,36.44,36.53,36.61,36.68,36.75,36.84,36.92,36.95,36.94,36.90,36.86,36.82,36.80,36.79,36.76,36.72,36.68,36.65,36.64,36.64,36.64,36.64,36.65,36.69,36.73,36.77,36.80,36.80,36.80,36.78,36.74,36.70,36.66,36.59,36.53,36.49,36.46,36.42,36.38,36.35,36.35,36.38,36.42,36.46,36.49,36.50,36.53,36.56,36.60,36.64,36.64,36.67,36.71,36.73,36.67,36.55,36.42,36.34
34.51,34.19,33.95,33.68,33.39,33.15,32.92,32.65,32.36,32.13,31.89,31.67,31.62,31.80,32.02,32.20,32.40,32.60,32.78,32.99,33.22,33.42,33.56,33.66,33.79,33.94,34.06,34.08,34.08,34.08,34.08,34.08,34.08,34.13,34.17,34.17,34.17,34.23,34.27,34.29,34.35,34.37,34.42,34.50,34.56,34.58,34.58,34.61,34.66,34.67,34.66,34.63,34.58,34.57,34.57,34.52,34.48,34.47,34.47,34.41,34.37,34.37,34.36,34.29,34.27,34.27,34.27,34.27,34.27,34.23,34.15,34.08,34.07,34.02,33.97,33.97,33.96,33.95,33.92,33.86,33.86,33.80,33.72,33.66,33.65,33.59,33.55,33.53,33.45,33.38,33.31,33.27,33.25,33.17,33.09,33.00,32.93,32.86,32.78,32.71,32.65,32.61,32.72,32.79,32.71,32.50,32.25,31.99,31.97,32.08,32.14,32.22,32.29,32.37,32.45,32.53,32.66,32.77,32.84,32.92,33.01,33.13,33.25,33.34,33.41,33.48,33.56,33.63,33.64,33.71,33.78,33.86,33.92,33.94,33.99,34.07,34.15,34.22,34.29,34.33,34.33,34.34,34.41,34.42,34.45,34.53,34.60,34.63,34.68,34.79,34.94,35.11,35.47,36.09,36.96,37.84,38.74,39.70,40.57,40.84,41.03,41.19,41.31,41.31,41.31,41.24,41.12,40.95,40.73,40.50,40.30,40.15,40.02,39.93,39.89,39.85,39.78,39.70,39.52,39.32,39.10,38.87,38.64,38.41,38.18,37.95,37.72,37.48,37.25,37.02,36.79,36.55,36.33,36.15,36.13,36.19,36.26,36.35,36.49,36.58,36.65,36.73,36.80,36.88,36.96,37.00,37.01,37.01,36.95,36.91,36.91,36.89,36.84,36.81,36.78,36.72,36.72,36.71,36.70,36.71,36.73,36.78,36.81,36.85,36.90,36.91,36.91,36.87,36.82,36.80,36.73,36.66,36.62,36.60,36.53,36.51,36.47,36.41,36.41,36.47,36.51,36.53,36.60,36.62,36.62,36.65,36.70,36.72,36.72,36.75,36.80,36.80,36.73,36.62,36.49,36.41
34.75,34.38,34.13,33.88,33.62,33.34,33.10,32.85,32.59,32.31,32.08,31.84,31.67,31.63,31.79,32.00,32.19,32.37,32.58,32.81,33.01,33.18,33.33,33.46,33.57,33.70,33.83,33.88,33.89,33.89,33.89,33.89,33.89,33.94,34.00,34.00,34.00,34.02,34.05,34.10,34.13,34.17,34.25,34.32,34.38,34.39,34.39,34.41,34.42,34.42,34.42,34.41,34.38,34.33,34.32,34.31,34.27,34.22,34.22,34.20,34.17,34.13,34.11,34.05,34.02,34.02,34.02,34.02,34.02,33.99,33.91,33.83,33.82,33.78,33.72,33.72,33.67,33.66,33.63,33.56,33.55,33.49,33.41,33.36,33.35,33.28,33.26,33.23,33.16,33.08,33.04,33.00,32.94,32.86,32.74,32.64,32.57,32.49,32.41,32.33,32.26,32.19,32.18,32.16,32.13,32.12,32.13,32.09,32.14,32.23,32.32,32.44,32.53,32.61,32.69,32.77,32.86,32.95,33.03,33.11,33.23,33.34,33.44,33.52,33.59,33.66,33.75,33.82,33.87,33.95,34.02,34.09,34.11,34.16,34.23,34.31,34.38,34.41,34.48,34.53,34.58,34.58,34.60,34.61,34.64,34.70,34.73,34.78,34.90,35.16,35.72,36.31,36.97,37.67,38.43,39.15,39.94,40.59,40.95,41.09,41.23,41.39,41.49,41.44,41.39,41.25,41.05,40.84,40.62,40.38,40.16,39.99,39.93,39.86,39.80,39.75,39.72,39.66,39.58,39.48,39.34,39.12,38.88,38.65,38.42,38.19,37.96,37.73,37.49,37.26,37.03,36.80,36.56,36.36,36.26,36.26,36.31,36.40,36.50,36.58,36.66,36.73,36.81,36.89,36.96,37.03,37.08,37.12,37.06,37.00,36.96,36.96,36.94,36.90,36.86,36.84,36.83,36.79,36.77,36.79,36.84,36.86,36.91,36.95,36.96,36.96,36.96,36.95,36.93,36.87,36.80,36.75,36.72,36.66,36.58,36.56,36.53,36.47,36.47,36.53,36.56,36.59,36.66,36.72,36.74,36.75,36.78,36.83,36.84,36.85,36.87,36.86,36.80,36.70,36.59,36.47
35.65,34.72,34.32,34.08,33.83,33.55,33.29,33.05,32.80,32.50,32.26,32.04,31.82,31.64,31.67,31.82,31.99,32.17,32.40,32.61,32.80,32.96,33.09,33.25,33.36,33.48,33.62,33.67,33.68,33.68,33.68,33.69,33.71,33.77,33.82,33.82,33.82,33.82,33.86,33.91,33.92,33.98,34.06,34.13,34.17,34.18,34.18,34.18,34.18,34.18,34.18,34.18,34.16,34.09,34.08,34.08,34.06,34.01,33.99,33.98,33.94,33.88,33.88,33.83,33.80,33.78,33.78,33.78,33.78,33.75,33.67,33.59,33.58,33.54,33.48,33.45,33.40,33.37,33.33,33.26,33.25,33.20,33.12,33.05,33.05,32.98,32.95,32.92,32.86,32.80,32.77,32.72,32.64,32.56,32.44,32.34,32.26,32.19,32.11,32.06,32.03,32.00,31.96,31.93,31.96,32.04,32.17,32.25,32.35,32.44,32.53,32.65,32.75,32.83,32.90,32.98,33.05,33.14,33.21,33.32,33.44,33.54,33.62,33.70,33.80,33.88,33.95,34.03,34.09,34.16,34.23,34.30,34.32,34.37,34.45,34.53,34.58,34.59,34.66,34.76,34.86,34.93,34.98,34.99,35.01,35.06,35.11,35.23,35.50,35.99,36.83,37.75,38.56,39.23,39.75,40.23,40.76,41.13,41.22,41.29,41.41,41.50,41.48,41.36,41.24,41.04,40.81,40.58,40.37,40.20,40.02,39.87,39.84,39.79,39.72,39.67,39.66,39.59,39.55,39.52,39.44,39.26,39.08,38.88,38.66,38.43,38.22,37.99,37.76,37.53,37.30,37.06,36.84,36.62,36.44,36.36,36.38,36.45,36.53,36.61,36.69,36.77,36.84,36.92,37.00,37.07,37.14,37.21,37.18,37.11,37.06,37.06,37.03,36.99,36.95,36.93,36.92,36.88,36.86,36.87,36.92,36.95,37.00,37.02,37.03,37.05,37.06,37.05,37.01,36.94,36.88,36.84,36.81,36.73,36.67,36.64,36.61,36.56,36.56,36.61,36.64,36.67,36.73,36.81,36.83,36.84,36.87,36.92,36.95,36.96,36.95,36.93,36.86,36.78,36.67,36.53
37.25,35.28,34.55,34.26,34.02,33.78,33.49,33.23,32.98,32.68,32.44,32.26,32.06,31.84,31.66,31.70,31.82,31.99,32.21,32.39,32.59,32.76,32.86,33.00,33.15,33.30,33.43,33.45,33.45,33.45,33.45,33.45,33.51,33.59,33.64,33.64,33.64,33.64,33.67,33.73,33.74,33.80,33.89,33.94,33.94,33.94,33.94,33.94,33.94,33.94,33.94,33.94,33.92,33.85,33.84,33.84,33.84,33.82,33.76,33.74,33.70,33.64,33.64,33.63,33.59,33.55,33.55,33.54,33.54,33.51,33.43,33.36,33.34,33.30,33.22,33.16,33.14,33.10,33.02,32.96,32.95,32.89,32.81,32.76,32.74,32.69,32.66,32.63,32.56,32.54,32.49,32.41,32.34,32.27,32.18,32.10,32.03,31.96,31.88,31.90,31.96,32.01,32.07,32.13,32.20,32.27,32.36,32.44,32.56,32.68,32.76,32.84,32.92,33.00,33.08,33.16,33.23,33.31,33.41,33.55,33.64,33.72,33.80,33.89,34.02,34.12,34.20,34.26,34.28,34.34,34.42,34.49,34.55,34.57,34.63,34.70,34.77,34.78,34.84,34.99,35.20,35.40,35.54,35.59,35.60,35.64,35.77,36.02,36.51,37.27,38.23,39.32,40.14,40.64,40.85,41.01,41.17,41.33,41.45,41.47,41.59,41.51,41.27,41.06,40.85,40.62,40.40,40.18,40.01,39.95,39.89,39.80,39.73,39.71,39.66,39.61,39.60,39.53,39.46,39.42,39.39,39.30,39.20,39.07,38.89,38.67,38.50,38.29,38.06,37.83,37.60,37.37,37.14,36.91,36.68,36.48,36.44,36.51,36.59,36.67,36.74,36.82,36.89,36.97,37.05,37.13,37.20,37.28,37.28,37.23,37.18,37.17,37.11,37.08,37.05,36.99,36.99,36.98,36.98,36.98,37.00,37.06,37.08,37.09,37.11,37.16,37.17,37.14,37.08,37.00,36.98,36.94,36.86,36.80,36.78,36.73,36.69,36.67,36.67,36.69,36.73,36.78,36.80,36.86,36.89,36.92,36.98,36.99,37.05,37.07,37.06,36.99,36.92,36.84,36.74,36.60
38.92,36.80,35.25,34.44,34.20,33.97,33.67,33.41,33.17,32.91,32.70,32.51,32.30,32.07,31.85,31.74,31.72,31.80,31.99,32.19,32.38,32.54,32.66,32.77,32.92,33.08,33.20,33.25,33.26,33.26,33.26,33.27,33.33,33.41,33.45,33.45,33.45,33.45,33.50,33.56,33.60,33.64,33.70,33.74,33.70,33.70,33.70,33.70,33.70,33.70,33.70,33.70,33.69,33.65,33.61,33.60,33.60,33.58,33.52,33.50,33.48,33.44,33.41,33.40,33.38,33.36,33.35,33.31,33.30,33.27,33.19,33.11,33.10,33.06,32.98,32.91,32.90,32.85,32.77,32.70,32.66,32.62,32.56,32.49,32.45,32.42,32.38,32.33,32.26,32.26,32.20,32.12,32.05,32.01,32.00,32.00,32.00,32.00,32.00,32.05,32.13,32.21,32.28,32.36,32.44,32.52,32.59,32.67,32.77,32.88,32.95,33.03,33.11,33.20,33.31,33.39,33.46,33.52,33.59,33.73,33.83,33.91,33.99,34.11,34.23,34.31,34.39,34.46,34.50,34.57,34.65,34.71,34.75,34.79,34.86,34.95,35.05,35.14,35.24,35.38,35.55,35.74,35.93,36.13,36.30,36.47,36.66,37.09,37.65,38.30,39.08,39.98,40.63,40.98,41.10,41.22,41.34,41.47,41.60,41.63,41.49,41.21,40.91,40.70,40.48,40.27,40.09,39.95,39.86,39.82,39.78,39.73,39.66,39.61,39.58,39.54,39.50,39.46,39.39,39.34,39.30,39.26,39.19,39.08,38.97,38.85,38.74,38.55,38.31,38.08,37.85,37.62,37.39,37.16,36.93,36.69,36.55,36.52,36.60,36.68,36.76,36.83,36.91,36.99,37.06,37.14,37.23,37.33,37.34,37.32,37.28,37.25,37.21,37.17,37.13,37.10,37.10,37.06,37.05,37.06,37.10,37.14,37.14,37.16,37.20,37.24,37.24,37.20,37.14,37.10,37.06,37.00,36.94,36.90,36.86,36.82,36.78,36.75,36.75,36.78,36.82,36.86,36.90,36.94,36.98,37.02,37.05,37.09,37.13,37.14,37.14,37.10,36.99,36.90,36.81,36.70
40.44,38.54,36.27,34.83,34.39,34.15,33.86,33.60,33.37,33.16,32.98,32.77,32.54,32.31,32.08,31.85,31.70,31.66,31.78,31.99,32.17,32.31,32.46,32.55,32.69,32.84,32.97,33.05,33.06,33.06,33.06,33.08,33.14,33.22,33.26,33.27,33.27,33.27,33.31,33.39,33.45,33.47,33.52,33.54,33.48,33.47,33.47,33.46,33.47,33.46,33.46,33.46,33.46,33.45,33.38,33.36,33.36,33.35,33.28,33.26,33.26,33.24,33.17,33.16,33.16,33.16,33.15,33.08,33.05,33.02,32.95,32.88,32.85,32.81,32.74,32.67,32.65,32.60,32.53,32.45,32.38,32.36,32.32,32.24,32.17,32.16,32.12,32.05,32.01,32.01,31.97,31.91,31.86,31.86,31.92,32.00,32.07,32.15,32.22,32.29,32.37,32.45,32.52,32.60,32.68,32.76,32.82,32.90,32.98,33.07,33.15,33.22,33.31,33.42,33.55,33.63,33.70,33.73,33.78,33.92,34.00,34.09,34.18,34.32,34.41,34.50,34.57,34.66,34.72,34.79,34.86,34.91,34.92,34.99,35.09,35.21,35.36,35.52,35.67,35.80,35.91,36.08,36.29,36.59,36.93,37.22,37.48,38.03,38.58,39.05,39.59,40.26,40.73,40.98,41.09,41.24,41.40,41.56,41.66,41.67,41.26,40.82,40.51,40.35,40.15,39.99,39.87,39.80,39.79,39.73,39.69,39.66,39.59,39.53,39.49,39.46,39.40,39.38,39.33,39.26,39.20,39.18,39.12,39.05,38.98,38.97,38.90,38.74,38.53,38.32,38.09,37.86,37.63,37.40,37.16,36.94,36.72,36.57,36.62,36.69,36.77,36.84,36.92,37.00,37.08,37.16,37.24,37.38,37.40,37.41,37.39,37.33,37.31,37.26,37.22,37.22,37.20,37.15,37.12,37.14,37.20,37.21,37.21,37.25,37.30,37.31,37.31,37.27,37.22,37.20,37.14,37.06,37.02,37.00,36.94,36.91,36.87,36.81,36.82,36.88,36.91,36.94,37.00,37.02,37.07,37.11,37.13,37.20,37.22,37.22,37.22,37.19,37.06,36.97,36.89,36.80
41.28,40.14,38.01,35.95,34.61,34.34,34.08,33.84,33.63,33.45,33.24,33.02,32.78,32.55,32.32,32.09,31.88,31.71,31.63,31.81,31.95,32.08,32.22,32.36,32.50,32.64,32.73,32.80,32.82,32.82,32.83,32.89,32.97,33.01,33.04,33.09,33.09,33.09,33.13,33.20,33.27,33.29,33.30,33.31,33.29,33.29,33.25,33.24,33.28,33.23,33.22,33.22,33.22,33.21,33.14,33.12,33.12,33.11,33.09,33.05,33.02,33.00,32.93,32.92,32.92,32.92,32.91,32.84,32.78,32.74,32.70,32.63,32.57,32.54,32.50,32.42,32.37,32.33,32.29,32.21,32.14,32.12,32.08,32.00,31.93,31.92,31.91,31.90,31.93,31.99,32.02,32.05,32.08,32.09,32.15,32.22,32.30,32.38,32.46,32.53,32.61,32.69,32.77,32.84,32.92,32.99,33.01,33.09,33.19,33.31,33.38,33.46,33.58,33.70,33.79,33.86,33.90,33.94,34.01,34.10,34.19,34.27,34.35,34.46,34.58,34.67,34.78,34.89,34.91,34.93,34.95,34.98,34.99,35.11,35.28,35.45,35.61,35.82,35.98,36.16,36.33,36.49,36.66,36.87,37.15,37.50,37.79,38.23,38.65,39.02,39.46,40.07,40.51,40.80,41.03,41.19,41.38,41.52,41.51,41.27,40.83,40.43,40.15,40.05,39.93,39.86,39.80,39.73,39.73,39.67,39.60,39.55,39.53,39.46,39.40,39.35,39.33,39.27,39.24,39.19,39.12,39.07,39.04,38.98,38.92,38.86,38.84,38.75,38.64,38.55,38.34,38.10,37.87,37.64,37.41,37.23,37.02,36.81,36.70,36.75,36.83,36.91,36.98,37.06,37.14,37.22,37.29,37.39,37.45,37.48,37.46,37.44,37.39,37.35,37.34,37.33,37.28,37.25,37.24,37.25,37.27,37.27,37.31,37.35,37.37,37.38,37.38,37.36,37.33,37.27,37.20,37.16,37.12,37.07,37.05,37.00,36.94,36.88,36.93,36.96,37.00,37.05,37.08,37.13,37.16,37.19,37.24,37.27,37.31,37.34,37.33,37.27,37.13,37.03,36.95,36.86
41.98,41.22,39.50,37.28,35.25,34.61,34.31,34.10,33.90,33.71,33.49,33.25,33.03,32.79,32.56,32.33,32.10,31.87,31.66,31.71,31.78,31.86,31.99,32.14,32.30,32.43,32.52,32.57,32.60,32.61,32.64,32.70,32.78,32.80,32.83,32.88,32.90,32.91,32.95,33.02,33.07,33.08,33.08,33.08,33.08,33.08,33.04,33.03,33.06,33.02,32.99,32.98,32.98,32.97,32.93,32.89,32.88,32.88,32.88,32.82,32.78,32.77,32.72,32.69,32.68,32.68,32.67,32.60,32.52,32.48,32.47,32.39,32.31,32.28,32.26,32.18,32.10,32.08,32.06,32.00,31.95,31.96,31.95,31.93,31.90,31.91,31.94,31.98,32.05,32.13,32.21,32.28,32.33,32.35,32.42,32.50,32.58,32.65,32.73,32.79,32.85,32.93,33.01,33.08,33.16,33.23,33.26,33.33,33.43,33.55,33.63,33.73,33.85,33.97,34.06,34.11,34.12,34.15,34.22,34.31,34.37,34.45,34.53,34.61,34.73,34.82,34.91,35.01,35.03,35.03,35.03,35.05,35.11,35.27,35.48,35.67,35.85,36.06,36.24,36.44,36.64,36.81,36.97,37.13,37.35,37.68,37.97,38.31,38.66,38.98,39.38,39.87,40.28,40.61,40.91,41.05,41.13,41.12,40.99,40.71,40.39,40.13,39.95,39.88,39.80,39.75,39.72,39.67,39.64,39.60,39.53,39.47,39.44,39.39,39.33,39.26,39.23,39.19,39.15,39.12,39.06,38.98,38.95,38.91,38.85,38.78,38.77,38.72,38.66,38.62,38.47,38.29,38.10,37.91,37.68,37.49,37.28,37.05,36.85,36.80,36.86,36.93,37.01,37.09,37.16,37.25,37.34,37.42,37.50,37.55,37.55,37.53,37.47,37.44,37.44,37.42,37.37,37.34,37.34,37.34,37.34,37.35,37.40,37.44,37.44,37.44,37.45,37.45,37.42,37.34,37.28,37.25,37.21,37.16,37.13,37.08,37.01,36.98,37.02,37.05,37.09,37.14,37.17,37.21,37.25,37.28,37.33,37.36,37.41,37.44,37.42,37.33,37.21,37.10,37.00,36.92
42.58,41.78,40.70,38.78,36.36,35.05,34.58,34.37,34.19,33.96,33.73,33.50,33.27,33.03,32.80,32.57,32.34,32.10,31.88,31.70,31.64,31.67,31.76,31.91,32.06,32.21,32.32,32.34,32.40,32.42,32.45,32.52,32.61,32.63,32.63,32.65,32.71,32.73,32.77,32.83,32.84,32.84,32.84,32.84,32.84,32.84,32.83,32.83,32.84,32.83,32.77,32.74,32.74,32.74,32.73,32.68,32.64,32.64,32.63,32.57,32.54,32.54,32.52,32.46,32.44,32.44,32.42,32.36,32.28,32.24,32.22,32.15,32.07,32.05,32.02,31.95,31.88,31.86,31.85,31.85,31.84,31.89,31.95,32.02,32.07,32.14,32.21,32.28,32.36,32.44,32.52,32.56,32.58,32.65,32.72,32.80,32.87,32.95,33.02,33.06,33.09,33.17,33.25,33.33,33.40,33.48,33.55,33.63,33.70,33.78,33.88,34.01,34.11,34.23,34.35,34.36,34.36,34.37,34.41,34.54,34.57,34.63,34.70,34.78,34.86,34.94,34.99,35.02,35.08,35.09,35.09,35.14,35.29,35.50,35.68,35.87,36.08,36.25,36.46,36.65,36.83,37.04,37.20,37.36,37.55,37.80,38.04,38.34,38.66,38.98,39.36,39.71,40.07,40.45,40.76,40.82,40.65,40.41,40.17,40.05,39.98,39.94,39.89,39.81,39.74,39.67,39.62,39.60,39.54,39.52,39.47,39.40,39.33,39.31,39.27,39.19,39.13,39.11,39.06,39.02,38.99,38.92,38.85,38.81,38.79,38.72,38.70,38.66,38.59,38.52,38.49,38.41,38.31,38.19,37.97,37.75,37.53,37.30,37.07,36.87,36.86,36.94,37.01,37.09,37.16,37.28,37.41,37.48,37.56,37.63,37.66,37.60,37.58,37.53,37.49,37.49,37.48,37.42,37.39,37.39,37.40,37.46,37.49,37.49,37.49,37.50,37.55,37.55,37.47,37.40,37.38,37.34,37.29,37.27,37.21,37.14,37.09,37.08,37.09,37.15,37.19,37.21,37.27,37.29,37.34,37.38,37.41,37.46,37.49,37.49,37.47,37.39,37.31,37.19,37.06,36.98
43.17,42.34,41.41,40.03,38.18,36.34,35.20,34.67,34.44,34.20,33.97,33.74,33.51,33.28,33.05,32.81,32.56,32.30,32.07,31.87,31.75,31.69,31.67,31.73,31.84,31.97,32.10,32.14,32.18,32.22,32.27,32.34,32.42,32.45,32.45,32.46,32.53,32.55,32.59,32.64,32.64,32.64,32.62,32.60,32.60,32.60,32.60,32.60,32.60,32.59,32.56,32.52,32.50,32.50,32.50,32.44,32.40,32.40,32.39,32.37,32.32,32.30,32.30,32.26,32.22,32.20,32.19,32.11,32.04,32.00,31.98,31.91,31.89,31.92,31.95,31.95,31.95,31.98,32.00,32.01,32.05,32.12,32.20,32.27,32.35,32.42,32.51,32.59,32.66,32.73,32.81,32.86,32.87,32.95,33.02,33.08,33.13,33.20,33.28,33.33,33.38,33.47,33.54,33.58,33.64,33.73,33.84,33.92,33.95,33.99,34.12,34.27,34.39,34.51,34.59,34.60,34.60,34.60,34.64,34.74,34.79,34.83,34.87,34.91,34.98,35.03,35.05,35.06,35.09,35.13,35.20,35.30,35.47,35.69,35.86,36.05,36.27,36.44,36.65,36.84,36.99,37.15,37.30,37.45,37.65,37.92,38.15,38.41,38.70,39.01,39.32,39.59,39.94,40.23,40.33,40.34,40.23,40.08,39.95,39.91,39.90,39.90,39.88,39.80,39.73,39.65,39.60,39.59,39.52,39.47,39.41,39.33,39.26,39.24,39.20,39.13,39.05,39.01,38.97,38.94,38.89,38.85,38.78,38.73,38.69,38.65,38.61,38.57,38.53,38.45,38.41,38.37,38.31,38.22,38.07,37.95,37.77,37.53,37.30,37.07,36.98,36.98,37.06,37.14,37.22,37.32,37.42,37.49,37.57,37.65,37.70,37.70,37.66,37.62,37.60,37.59,37.55,37.52,37.50,37.50,37.50,37.54,37.55,37.56,37.60,37.60,37.63,37.61,37.54,37.51,37.47,37.43,37.39,37.34,37.27,37.22,37.19,37.16,37.20,37.23,37.27,37.31,37.35,37.39,37.43,37.47,37.51,37.54,37.58,37.58,37.53,37.45,37.38,37.28,37.16,37.05
43.79,42.92,42.02,41.13,39.97,37.93,36.19,35.24,34.80,34.46,34.21,33.98,33.75,33.52,33.28,33.04,32.77,32.49,32.27,32.10,31.94,31.78,31.65,31.63,31.67,31.76,31.88,31.95,31.96,32.02,32.09,32.16,32.25,32.27,32.27,32.28,32.34,32.36,32.40,32.45,32.45,32.45,32.41,32.37,32.37,32.36,32.35,32.35,32.35,32.35,32.35,32.31,32.25,32.25,32.25,32.21,32.17,32.16,32.15,32.15,32.11,32.06,32.05,32.05,32.01,31.97,31.97,31.92,31.86,31.84,31.84,31.79,31.84,31.91,31.99,32.06,32.14,32.21,32.25,32.27,32.34,32.41,32.50,32.58,32.65,32.73,32.80,32.88,32.96,33.03,33.11,33.15,33.17,33.25,33.32,33.35,33.38,33.45,33.52,33.60,33.67,33.75,33.83,33.84,33.88,33.97,34.12,34.22,34.21,34.20,34.34,34.49,34.64,34.76,34.81,34.81,34.83,34.83,34.86,34.93,35.00,35.02,35.02,35.02,35.09,35.11,35.12,35.12,35.12,35.20,35.33,35.49,35.66,35.88,36.05,36.24,36.45,36.61,36.81,36.99,37.13,37.22,37.36,37.52,37.73,38.02,38.27,38.51,38.77,39.06,39.31,39.54,39.84,40.04,39.93,39.91,39.91,39.91,39.90,39.89,39.88,39.88,39.87,39.80,39.73,39.65,39.60,39.58,39.52,39.44,39.37,39.29,39.22,39.20,39.16,39.08,39.00,38.92,38.90,38.87,38.81,38.79,38.72,38.65,38.59,38.58,38.52,38.48,38.45,38.38,38.31,38.28,38.24,38.17,38.10,38.08,37.95,37.74,37.53,37.32,37.14,37.06,37.11,37.19,37.27,37.36,37.43,37.51,37.59,37.67,37.74,37.79,37.74,37.71,37.71,37.69,37.63,37.61,37.61,37.61,37.61,37.61,37.62,37.65,37.70,37.71,37.71,37.68,37.62,37.61,37.55,37.52,37.48,37.41,37.34,37.31,37.28,37.24,37.30,37.32,37.36,37.41,37.43,37.49,37.52,37.55,37.60,37.62,37.68,37.68,37.61,37.52,37.44,37.36,37.26,37.13
44.50,43.59,42.76,41.92,40.98,39.70,38.12,36.75,35.63,34.77,34.45,34.22,33.99,33.76,33.52,33.25,32.98,32.73,32.51,32.34,32.15,31.96,31.82,31.75,31.68,31.65,31.70,31.77,31.78,31.84,31.90,31.98,32.06,32.09,32.09,32.09,32.11,32.16,32.20,32.21,32.21,32.21,32.20,32.19,32.18,32.13,32.11,32.11,32.11,32.11,32.11,32.07,32.01,32.01,32.01,32.00,31.96,31.91,31.91,31.91,31.87,31.82,31.81,31.81,31.80,31.80,31.86,31.89,31.93,31.97,32.02,32.05,32.13,32.20,32.28,32.36,32.44,32.52,32.55,32.57,32.65,32.72,32.80,32.88,32.95,33.03,33.11,33.19,33.26,33.34,33.38,33.41,33.47,33.54,33.58,33.62,33.67,33.75,33.78,33.84,33.92,33.99,34.07,34.09,34.09,34.16,34.36,34.51,34.51,34.47,34.53,34.67,34.83,34.93,34.94,34.95,34.99,35.02,35.03,35.11,35.14,35.14,35.12,35.09,35.16,35.17,35.17,35.17,35.19,35.34,35.51,35.68,35.89,36.07,36.27,36.46,36.64,36.79,36.92,37.05,37.20,37.27,37.42,37.61,37.84,38.10,38.38,38.63,38.87,39.13,39.41,39.65,39.84,39.95,39.91,39.90,39.90,39.90,39.89,39.84,39.83,39.83,39.82,39.79,39.73,39.65,39.58,39.53,39.51,39.44,39.36,39.28,39.22,39.20,39.15,39.08,39.00,38.92,38.90,38.87,38.79,38.74,38.66,38.58,38.52,38.52,38.45,38.39,38.35,38.32,38.25,38.19,38.15,38.11,38.04,38.02,37.95,37.83,37.71,37.59,37.41,37.23,37.12,37.19,37.31,37.42,37.49,37.56,37.64,37.72,37.80,37.86,37.85,37.80,37.77,37.77,37.74,37.69,37.67,37.67,37.67,37.67,37.71,37.75,37.77,37.77,37.77,37.76,37.73,37.68,37.65,37.61,37.55,37.48,37.45,37.40,37.36,37.35,37.37,37.42,37.45,37.49,37.54,37.56,37.61,37.65,37.68,37.73,37.76,37.76,37.71,37.59,37.50,37.42,37.34,37.24
