36.86,37.06,37.26,37.42,37.58,37.78,37.97,38.16,38.37,38.55,38.71,38.89,39.11,39.27,39.48,39.68,39.83,39.98,40.00,40.05,40.10,40.10,40.12,40.17,40.20,40.22,40.28,40.30,40.30,40.30,40.31,40.36,40.39,40.40,40.40,40.40,40.45,40.48,40.48,40.50,40.50,40.54,40.58,40.58,40.59,40.60,40.63,40.67,40.67,40.69,40.70,40.70,40.71,40.76,40.77,40.77,40.78,40.80,40.85,40.88,40.91,40.97,40.99,41.00,41.02,41.09,41.10,41.14,41.19,41.21,41.26,41.29,41.33,41.38,41.40,41.46,41.49,41.50,41.50,41.50,41.55,41.58,41.58,41.58,41.64,41.71,41.76,41.78,41.86,41.88,41.90,41.96,42.04,42.07,42.11,42.16,42.18,42.23,42.25,42.25,42.25,42.27,42.32,42.35,42.37,42.45,42.59,42.72,42.87,43.03,43.06,43.06,43.08,43.13,43.13,43.15,43.16,43.22,43.45,43.69,43.98,44.29,44.55,44.70,44.80,44.87,44.94,45.02,45.10,45.18,45.25,45.34,45.41,45.41,45.22,44.77,44.26,43.77,43.27,42.83,42.70,42.51,42.52,42.76,43.16,43.21,43.50,43.86,44.23,44.74,45.50,46.21,46.79,47.19,47.21,47.68,48.65,49.94,50.82,51.66,52.50,53.36,54.24,54.86,54.93,54.68,54.36,54.19,54.02,54.10,54.73,56.16,56.54,56.80,57.35,58.25,58.46,58.49,58.58,58.92,59.95,61.90,64.09,66.22,68.29,70.70,72.94,75.04,77.17,79.17,81.12,83.05,85.00,86.99,88.84,90.32,91.24,91.28,90.98,91.87,93.37,94.96,96.82,98.53,102.50,108.36,113.00,116.89,119.45,120.99,121.91,122.94,124.11,124.72,124.37,123.29,122.39,122.25,123.17,125.45,127.36,129.25,130.84,131.89,132.71,133.93,135.00,136.04,137.83,139.33,140.38,140.89,140.84,141.25,142.01,143.13,144.30,144.53,145.29,146.31,147.29,147.98,148.67,147.78,145.73,143.52,143.52,145.12,146.55,147.34,148.02,148.56,147.67,144.53,138.30,131.19
36.84,37.03,37.21,37.42,37.58,37.74,37.94,38.15,38.32,38.53,38.71,38.89,39.11,39.27,39.48,39.68,39.83,39.98,40.00,40.05,40.10,40.11,40.17,40.19,40.20,40.22,40.28,40.30,40.30,40.30,40.30,40.31,40.36,40.40,40.40,40.40,40.41,40.41,40.43,40.49,40.50,40.51,40.52,40.52,40.58,40.60,40.60,40.62,40.62,40.67,40.70,40.70,40.70,40.71,40.72,40.72,40.73,40.78,40.81,40.85,40.90,40.92,40.98,41.00,41.02,41.09,41.10,41.11,41.14,41.20,41.22,41.27,41.31,41.33,41.39,41.41,41.46,41.50,41.50,41.50,41.51,41.52,41.52,41.52,41.58,41.62,41.65,41.72,41.80,41.81,41.82,41.84,41.92,41.99,42.02,42.05,42.11,42.13,42.13,42.13,42.14,42.20,42.23,42.23,42.25,42.33,42.47,42.55,42.59,42.68,42.70,42.70,42.70,42.71,42.72,42.77,42.80,42.85,43.09,43.38,43.68,43.97,44.19,44.29,44.37,44.44,44.52,44.60,44.68,44.75,44.84,44.91,44.99,44.79,44.39,43.88,43.40,42.89,42.38,41.96,41.68,41.40,41.32,41.37,41.45,41.46,41.75,42.14,42.52,42.95,43.61,44.30,44.98,45.55,45.68,46.70,48.26,49.85,50.75,51.56,52.38,53.23,54.00,54.03,53.76,53.38,52.98,52.80,52.60,52.38,52.42,53.37,53.68,54.18,55.00,55.95,56.52,56.72,57.02,57.80,59.15,61.10,63.14,64.92,66.22,69.19,71.74,73.83,75.90,77.86,79.80,81.72,83.67,85.67,87.60,89.33,90.80,91.86,92.59,93.00,93.24,93.53,94.51,96.86,100.69,105.72,110.98,114.72,117.89,120.25,121.33,122.62,123.83,125.04,125.93,125.47,124.88,125.18,126.50,128.62,130.14,131.70,132.93,133.50,133.91,134.22,134.69,135.62,137.36,138.27,138.65,138.54,138.01,138.41,138.77,139.71,141.40,142.77,143.78,144.49,144.95,145.14,144.78,142.66,139.83,137.57,137.37,138.92,140.89,142.60,143.50,144.29,143.88,142.10,138.85,134.72
36.81,37.00,37.19,37.38,37.57,37.73,37.93,38.14,38.30,38.53,38.71,38.88,39.07,39.26,39.46,39.65,39.83,39.98,40.00,40.05,40.10,40.11,40.18,40.20,40.20,40.21,40.25,40.26,40.28,40.30,40.30,40.30,40.33,40.36,40.36,40.39,40.40,40.40,40.41,40.45,40.45,40.48,40.50,40.51,40.54,40.55,40.57,40.60,40.60,40.63,40.66,40.66,40.66,40.66,40.68,40.70,40.71,40.75,40.78,40.82,40.86,40.90,40.94,40.98,41.01,41.05,41.09,41.10,41.13,41.20,41.20,41.27,41.30,41.31,41.35,41.39,41.43,41.45,41.45,41.45,41.45,41.45,41.45,41.46,41.49,41.53,41.58,41.65,41.70,41.73,41.76,41.76,41.81,41.88,41.93,41.97,42.00,42.01,42.03,42.05,42.06,42.10,42.11,42.13,42.16,42.17,42.21,42.23,42.25,42.28,42.29,42.32,42.33,42.33,42.34,42.37,42.43,42.54,42.77,43.07,43.36,43.61,43.79,43.88,43.94,44.01,44.06,44.14,44.21,44.29,44.37,44.44,44.42,44.09,43.60,43.07,42.56,42.04,41.54,41.10,40.77,40.57,40.49,40.47,40.47,40.47,40.63,40.86,41.10,41.35,41.84,42.49,43.23,43.95,44.39,45.76,47.59,49.33,50.47,51.28,52.04,52.78,53.30,53.02,52.59,52.15,51.71,51.37,51.07,50.77,50.67,51.23,51.50,52.09,52.98,53.86,54.64,55.23,55.94,56.97,58.26,59.79,61.26,62.55,63.84,67.07,70.10,72.56,74.59,76.54,78.47,80.40,82.35,84.34,86.23,88.03,89.70,91.15,92.10,92.06,91.63,91.39,91.92,94.54,98.62,103.62,108.76,112.33,115.59,118.37,120.10,121.63,122.75,123.97,125.26,125.66,125.74,126.45,127.87,129.57,130.54,131.19,131.50,131.47,131.53,131.38,131.30,131.53,132.40,132.89,133.13,133.18,133.22,134.18,134.94,135.81,137.01,138.31,138.97,139.65,140.28,140.28,139.72,137.48,134.69,132.54,131.69,132.88,134.96,137.15,138.54,139.57,139.60,138.60,136.58,134.31
36.77,36.97,37.16,37.34,37.55,37.73,37.92,38.13,38.30,38.52,38.70,38.85,39.03,39.24,39.42,39.62,39.82,39.97,40.00,40.05,40.10,40.11,40.17,40.20,40.20,40.20,40.20,40.20,40.24,40.29,40.29,40.30,40.30,40.30,40.31,40.38,40.39,40.39,40.39,40.40,40.41,40.45,40.49,40.49,40.50,40.50,40.53,40.58,40.59,40.59,40.60,40.60,40.60,40.60,40.65,40.69,40.69,40.70,40.75,40.80,40.82,40.88,40.90,40.95,40.99,41.02,41.07,41.10,41.13,41.19,41.20,41.26,41.29,41.30,41.31,41.37,41.39,41.39,41.39,41.39,41.39,41.39,41.39,41.39,41.40,41.45,41.52,41.58,41.60,41.65,41.69,41.70,41.70,41.76,41.83,41.88,41.89,41.90,41.95,41.98,41.98,41.99,41.99,42.03,42.07,42.00,41.93,41.89,41.88,41.88,41.88,41.92,41.96,41.97,41.97,41.98,42.05,42.23,42.47,42.76,43.02,43.22,43.36,43.44,43.52,43.56,43.59,43.66,43.73,43.81,43.89,43.92,43.78,43.35,42.81,42.27,41.74,41.21,40.74,40.34,40.02,39.95,39.89,39.84,39.84,39.84,39.87,39.92,39.99,40.04,40.35,40.91,41.64,42.44,43.16,44.73,46.65,48.48,49.90,50.82,51.57,52.19,52.44,52.02,51.52,51.03,50.50,49.94,49.51,49.23,49.18,49.46,49.74,50.38,51.25,52.03,52.91,53.88,54.95,56.11,57.16,58.20,59.07,59.93,61.45,64.72,68.21,71.17,73.25,75.20,77.12,79.05,81.00,83.05,84.91,86.69,88.41,89.94,90.81,90.44,89.65,89.19,89.60,92.34,96.65,101.75,106.49,109.88,112.97,115.87,118.25,119.97,121.09,122.25,123.64,124.79,125.47,126.41,127.60,128.59,128.73,128.33,127.77,127.31,127.21,126.92,126.45,125.97,125.86,126.00,126.32,126.81,127.66,129.31,130.60,131.31,131.59,132.25,132.36,133.19,134.38,134.56,134.14,132.29,129.96,127.95,126.34,127.08,129.16,131.70,133.59,134.83,135.23,134.69,133.15,132.04
36.75,36.94,37.10,37.28,37.50,37.67,37.87,38.08,38.24,38.47,38.64,38.81,39.02,39.20,39.40,39.59,39.78,39.97,40.00,40.05,40.10,40.10,40.13,40.17,40.20,40.20,40.20,40.20,40.21,40.23,40.24,40.28,40.30,40.30,40.30,40.33,40.34,40.34,40.35,40.39,40.40,40.41,40.44,40.44,40.49,40.50,40.51,40.54,40.54,40.54,40.56,40.60,40.60,40.60,40.62,40.63,40.64,40.69,40.72,40.76,40.81,40.84,40.88,40.91,40.95,41.00,41.03,41.07,41.11,41.14,41.19,41.22,41.26,41.30,41.30,41.33,41.34,41.34,41.34,41.34,41.34,41.34,41.34,41.34,41.34,41.39,41.44,41.48,41.52,41.56,41.59,41.63,41.63,41.66,41.71,41.77,41.77,41.82,41.85,41.87,41.87,41.87,41.87,41.91,41.95,41.88,41.76,41.65,41.56,41.52,41.51,41.53,41.57,41.61,41.61,41.61,41.69,41.88,42.16,42.42,42.63,42.78,42.88,42.96,43.04,43.10,43.15,43.18,43.25,43.33,43.39,43.37,43.06,42.57,42.03,41.49,40.96,40.49,40.20,40.03,39.86,39.79,39.72,39.67,39.67,39.67,39.71,39.75,39.78,39.84,40.00,40.23,40.62,41.26,41.88,43.16,44.89,46.80,48.41,49.81,50.82,51.41,51.63,51.44,50.98,50.32,49.45,48.56,48.05,47.84,47.92,48.29,48.84,49.57,50.35,51.03,51.80,52.68,53.65,54.63,55.33,56.15,56.98,57.97,59.60,62.30,65.85,69.30,71.77,73.81,75.68,77.56,79.58,81.94,83.92,85.71,87.33,88.60,89.31,89.10,88.37,87.83,88.95,91.73,95.62,100.11,104.34,107.55,110.07,112.36,114.64,116.43,118.16,119.84,121.35,122.30,122.69,123.01,123.12,122.32,120.66,119.63,119.20,119.25,119.94,120.14,119.97,119.60,119.33,119.23,119.76,120.66,121.72,123.75,124.94,124.92,123.91,123.24,122.96,124.30,126.65,128.20,128.04,127.17,125.81,123.87,121.79,122.15,124.39,127.43,129.32,130.67,131.21,130.71,129.00,127.73
36.72,36.89,37.05,37.23,37.44,37.61,37.80,38.02,38.18,38.41,38.58,38.77,38.98,39.14,39.35,39.54,39.72,39.92,39.99,40.04,40.08,40.10,40.10,40.14,40.17,40.17,40.17,40.19,40.20,40.20,40.21,40.26,40.27,40.28,40.30,40.30,40.30,40.30,40.31,40.36,40.38,40.39,40.40,40.41,40.46,40.48,40.48,40.50,40.50,40.50,40.53,40.58,40.58,40.58,40.59,40.60,40.61,40.66,40.69,40.73,40.78,40.80,40.85,40.89,40.92,40.97,40.99,41.04,41.08,41.11,41.16,41.19,41.23,41.28,41.30,41.30,41.30,41.30,41.30,41.30,41.30,41.30,41.30,41.30,41.30,41.34,41.38,41.38,41.45,41.48,41.50,41.55,41.57,41.58,41.61,41.66,41.68,41.73,41.75,41.75,41.75,41.75,41.75,41.79,41.83,41.73,41.59,41.45,41.32,41.23,41.18,41.16,41.17,41.22,41.23,41.24,41.34,41.54,41.80,42.05,42.24,42.37,42.41,42.46,42.55,42.64,42.69,42.71,42.77,42.84,42.87,42.73,42.31,41.79,41.25,40.76,40.35,40.02,39.87,39.83,39.76,39.70,39.63,39.57,39.55,39.57,39.62,39.66,39.69,39.74,39.82,39.86,39.99,40.40,40.82,41.65,43.02,44.89,46.59,48.27,49.53,50.30,50.73,50.80,50.33,49.46,48.33,47.12,46.81,46.94,47.31,47.91,48.54,49.20,49.88,50.54,51.31,52.10,52.88,53.60,54.07,54.57,55.23,56.22,57.91,60.17,63.52,67.08,69.79,71.85,73.56,75.60,78.22,81.03,83.04,84.69,86.08,87.06,87.58,87.43,87.02,87.02,88.70,91.37,94.84,98.78,102.37,105.27,107.37,109.18,111.12,112.83,114.85,116.83,118.39,119.08,119.08,118.63,117.31,114.34,111.85,110.66,110.32,110.58,111.48,111.90,111.94,111.90,112.21,112.66,113.67,115.00,116.43,118.51,119.37,119.00,117.63,116.16,115.36,116.93,120.16,122.79,122.65,122.33,121.75,120.30,118.22,118.55,120.76,123.77,125.62,127.13,127.80,127.32,125.46,123.75
36.66,36.83,37.02,37.22,37.39,37.55,37.75,37.95,38.12,38.34,38.52,38.70,38.92,39.09,39.25,39.44,39.65,39.81,39.95,40.01,40.03,40.09,40.10,40.11,40.12,40.12,40.12,40.17,40.20,40.20,40.20,40.21,40.22,40.24,40.30,40.30,40.30,40.30,40.30,40.31,40.31,40.36,40.40,40.40,40.41,40.41,40.44,40.50,40.50,40.50,40.51,40.52,40.52,40.52,40.56,40.60,40.60,40.61,40.67,40.71,40.73,40.79,40.81,40.86,40.90,40.92,40.98,41.01,41.04,41.10,41.11,41.17,41.21,41.23,41.29,41.30,41.30,41.30,41.30,41.30,41.30,41.30,41.30,41.30,41.30,41.31,41.31,41.33,41.39,41.41,41.42,41.44,41.50,41.52,41.52,41.55,41.61,41.63,41.63,41.63,41.63,41.63,41.63,41.67,41.69,41.56,41.41,41.29,41.19,41.05,40.91,40.82,40.79,40.80,40.80,40.86,41.01,41.22,41.40,41.62,41.85,41.97,41.92,41.93,42.04,42.15,42.22,42.22,42.29,42.36,42.32,41.97,41.52,41.01,40.50,40.10,39.99,39.87,39.78,39.71,39.64,39.62,39.56,39.49,39.44,39.50,39.52,39.56,39.62,39.63,39.70,39.77,39.84,39.93,40.06,40.29,41.13,42.79,44.43,46.06,47.51,48.73,49.68,50.00,49.42,48.34,47.08,45.58,45.86,46.72,47.60,48.49,48.92,49.34,49.91,50.63,51.61,52.38,52.93,53.33,53.71,53.73,53.93,54.68,56.38,58.45,61.33,64.47,67.13,69.10,70.51,73.03,76.94,80.34,82.25,83.55,84.56,85.26,85.55,85.25,85.45,86.84,88.72,91.09,94.26,97.86,100.66,103.03,104.99,106.63,108.02,109.46,111.25,113.10,114.60,115.06,114.72,113.39,110.36,104.86,103.03,102.23,101.79,101.69,101.85,101.99,102.06,102.50,104.28,106.36,108.19,109.99,112.10,113.83,114.14,114.01,113.66,112.25,110.72,112.05,115.68,118.80,118.35,117.88,117.73,117.35,115.92,116.67,118.56,120.77,122.57,124.35,125.17,124.76,122.88,120.57
36.59,36.77,36.95,37.14,37.33,37.48,37.69,37.89,38.06,38.28,38.46,38.63,38.83,39.02,39.18,39.38,39.59,39.74,39.89,39.98,40.01,40.05,40.09,40.10,40.10,40.10,40.10,40.13,40.16,40.16,40.16,40.19,40.20,40.22,40.25,40.26,40.26,40.27,40.30,40.30,40.30,40.33,40.36,40.36,40.39,40.40,40.42,40.45,40.45,40.45,40.45,40.46,40.50,40.50,40.53,40.55,40.56,40.59,40.63,40.67,40.71,40.75,40.78,40.83,40.87,40.90,40.94,40.98,41.02,41.06,41.09,41.13,41.18,41.21,41.25,41.26,41.26,41.26,41.26,41.26,41.26,41.26,41.26,41.26,41.26,41.26,41.26,41.26,41.30,41.33,41.36,41.36,41.40,41.41,41.43,41.47,41.50,41.51,41.51,41.51,41.51,41.51,41.51,41.55,41.56,41.39,41.22,41.11,41.02,40.86,40.74,40.63,40.53,40.47,40.44,40.49,40.63,40.81,40.98,41.20,41.46,41.59,41.48,41.41,41.48,41.60,41.70,41.77,41.82,41.80,41.63,41.20,40.74,40.40,40.11,39.86,39.81,39.77,39.72,39.64,39.56,39.52,39.48,39.42,39.37,39.40,39.44,39.48,39.52,39.55,39.59,39.65,39.72,39.75,39.80,39.86,40.28,41.19,42.10,43.47,44.95,46.36,47.60,47.74,47.13,46.20,45.35,45.23,46.27,47.55,48.73,50.01,50.82,51.50,52.25,53.17,53.99,54.55,54.91,55.14,55.38,55.19,54.94,54.85,55.34,56.97,59.23,61.76,64.21,66.08,67.66,70.11,73.81,77.81,80.47,81.94,82.72,83.31,83.47,83.35,83.85,85.53,87.47,90.28,93.21,95.88,98.16,100.69,102.65,104.15,105.44,106.81,108.21,109.52,110.55,110.77,109.54,107.03,103.38,98.87,96.88,95.98,95.59,95.67,96.19,96.70,97.25,98.15,100.01,102.35,104.17,105.76,107.71,109.56,109.86,109.97,110.27,109.57,108.20,109.31,112.43,114.84,114.42,114.20,114.41,114.48,113.47,114.17,115.78,117.74,119.59,121.44,122.41,122.22,120.57,118.12
36.53,36.71,36.87,37.04,37.26,37.42,37.63,37.84,38.00,38.22,38.40,38.55,38.73,38.95,39.12,39.31,39.52,39.69,39.84,39.94,39.99,40.02,40.07,40.09,40.09,40.10,40.10,40.10,40.10,40.10,40.11,40.17,40.19,40.19,40.20,40.20,40.20,40.24,40.29,40.29,40.29,40.30,40.30,40.31,40.37,40.39,40.39,40.41,40.41,40.41,40.41,40.42,40.48,40.49,40.50,40.50,40.52,40.58,40.60,40.64,40.69,40.71,40.77,40.80,40.82,40.88,40.90,40.95,40.99,41.02,41.08,41.10,41.14,41.19,41.20,41.20,41.20,41.20,41.20,41.20,41.20,41.20,41.20,41.20,41.20,41.20,41.20,41.20,41.20,41.25,41.29,41.30,41.30,41.30,41.34,41.38,41.39,41.39,41.39,41.39,41.39,41.39,41.39,41.42,41.43,41.22,41.05,40.94,40.84,40.69,40.60,40.47,40.32,40.20,40.12,40.15,40.26,40.40,40.56,40.78,41.06,41.20,41.04,40.89,40.91,41.02,41.17,41.31,41.33,41.19,40.91,40.49,40.07,39.92,39.87,39.78,39.72,39.69,39.65,39.58,39.50,39.43,39.39,39.36,39.30,39.30,39.35,39.38,39.41,39.47,39.49,39.54,39.61,39.67,39.70,39.75,39.85,39.98,40.11,41.12,42.41,43.78,45.18,45.05,44.61,44.18,44.07,45.60,47.37,49.00,50.50,52.17,53.47,54.50,55.46,56.50,57.06,57.38,57.60,57.74,57.77,57.43,56.75,55.81,54.95,55.93,57.38,59.14,61.31,63.07,64.92,67.17,70.19,74.34,77.74,79.57,80.36,80.98,81.13,81.21,81.83,83.38,85.30,88.54,91.25,93.10,95.15,97.96,100.03,101.49,102.86,104.22,105.19,105.89,106.34,106.34,104.30,100.77,96.90,94.14,91.81,90.68,90.41,90.84,91.98,93.06,94.19,95.47,97.02,99.20,100.73,101.93,103.53,105.56,106.02,106.35,107.11,107.20,106.31,107.22,109.49,110.77,110.46,110.59,111.11,111.41,110.72,111.33,112.77,114.64,116.54,118.38,119.44,119.45,118.08,115.80
36.48,36.65,36.80,36.97,37.20,37.37,37.56,37.77,37.94,38.11,38.31,38.49,38.67,38.89,39.05,39.25,39.47,39.63,39.77,39.89,39.95,40.00,40.03,40.04,40.06,40.10,40.10,40.10,40.10,40.10,40.10,40.13,40.13,40.15,40.20,40.20,40.20,40.21,40.23,40.23,40.23,40.26,40.30,40.30,40.33,40.34,40.36,40.40,40.40,40.40,40.40,40.41,40.43,40.44,40.47,40.50,40.50,40.53,40.57,40.61,40.65,40.70,40.72,40.76,40.81,40.84,40.89,40.92,40.96,41.00,41.03,41.08,41.11,41.13,41.13,41.13,41.13,41.13,41.13,41.13,41.13,41.13,41.13,41.13,41.13,41.13,41.13,41.13,41.13,41.16,41.19,41.23,41.23,41.23,41.25,41.27,41.27,41.27,41.27,41.27,41.27,41.27,41.27,41.30,41.30,41.04,40.91,40.79,40.66,40.51,40.42,40.29,40.16,40.05,39.93,39.92,39.97,40.03,40.14,40.36,40.67,40.81,40.57,40.41,40.39,40.48,40.63,40.77,40.76,40.54,40.26,40.09,39.89,39.80,39.76,39.72,39.65,39.59,39.55,39.52,39.44,39.36,39.30,39.26,39.24,39.23,39.25,39.27,39.29,39.36,39.41,39.45,39.49,39.56,39.62,39.65,39.70,39.77,39.84,40.26,40.77,41.51,42.83,42.59,43.09,44.18,45.43,47.43,49.52,51.68,53.86,55.78,57.24,58.31,59.13,59.75,60.11,60.41,60.64,60.71,60.45,59.77,58.80,57.68,56.69,56.46,56.44,57.04,58.79,60.49,62.41,64.59,67.01,69.45,72.26,74.57,76.20,77.20,77.65,77.69,78.02,79.15,80.94,83.51,86.02,88.36,91.05,93.73,96.02,97.95,99.56,100.84,101.53,101.83,101.89,101.73,99.98,96.53,92.56,89.89,87.56,86.45,86.33,87.07,88.49,90.00,91.48,92.90,94.34,96.51,97.81,98.75,100.32,102.13,102.70,103.23,104.16,104.47,104.20,104.96,106.20,106.08,105.76,106.22,106.99,107.38,106.88,107.87,109.52,111.33,113.15,114.86,115.78,115.67,114.39,113.05
36.41,36.58,36.74,36.91,37.14,37.30,37.50,37.72,37.87,38.02,38.23,38.44,38.61,38.83,38.99,39.20,39.40,39.54,39.69,39.80,39.88,39.97,39.99,40.00,40.02,40.07,40.08,40.08,40.08,40.08,40.10,40.10,40.10,40.12,40.17,40.17,40.17,40.19,40.20,40.20,40.20,40.24,40.27,40.28,40.30,40.30,40.33,40.37,40.38,40.38,40.38,40.38,40.40,40.40,40.44,40.48,40.50,40.50,40.55,40.58,40.61,40.66,40.69,40.73,40.78,40.80,40.86,40.89,40.92,40.97,41.00,41.05,41.08,41.09,41.08,41.08,41.08,41.08,41.08,41.08,41.08,41.08,41.08,41.08,41.08,41.08,41.08,41.08,41.08,41.08,41.10,41.14,41.15,41.15,41.15,41.14,41.13,41.14,41.15,41.15,41.15,41.15,41.15,41.19,41.17,40.89,40.76,40.63,40.48,40.35,40.25,40.13,40.01,39.90,39.78,39.75,39.76,39.79,39.86,40.03,40.30,40.40,40.17,40.05,40.02,40.08,40.21,40.32,40.29,40.09,39.88,39.86,39.80,39.72,39.67,39.66,39.58,39.51,39.48,39.45,39.38,39.30,39.22,39.17,39.17,39.15,39.15,39.16,39.19,39.24,39.31,39.36,39.39,39.45,39.52,39.56,39.61,39.69,39.76,39.82,39.86,40.14,41.13,41.35,42.75,44.89,47.06,49.46,51.98,54.64,57.33,59.51,61.14,62.29,63.02,63.33,63.55,63.80,64.02,64.04,63.59,62.67,61.50,60.25,59.08,57.94,56.97,56.70,57.66,58.72,60.11,61.81,63.58,64.70,66.58,68.70,70.61,71.84,72.66,73.08,73.50,74.29,75.75,77.62,79.91,82.64,85.79,88.54,91.16,93.53,95.30,96.33,96.73,96.79,96.70,96.66,95.26,91.91,87.89,85.53,83.67,82.81,82.83,83.70,85.27,87.04,88.72,90.25,91.77,93.83,95.02,95.81,97.02,98.32,99.05,99.94,101.08,101.25,101.40,101.91,102.21,101.25,101.00,101.68,102.59,103.12,103.13,104.33,105.94,107.61,109.38,111.15,112.06,112.00,111.13,111.03
36.32,36.49,36.69,36.85,37.08,37.24,37.45,37.66,37.81,37.97,38.17,38.38,38.55,38.77,38.94,39.13,39.33,39.42,39.57,39.67,39.77,39.91,39.98,40.00,40.01,40.02,40.02,40.02,40.02,40.03,40.09,40.10,40.10,40.10,40.11,40.12,40.12,40.15,40.20,40.20,40.20,40.21,40.22,40.22,40.28,40.30,40.30,40.31,40.31,40.31,40.31,40.33,40.39,40.40,40.41,40.44,40.50,40.50,40.51,40.55,40.60,40.62,40.67,40.71,40.73,40.80,40.81,40.86,40.91,40.93,40.99,41.01,41.05,41.08,41.02,41.02,41.02,41.02,41.02,41.02,41.02,41.02,41.02,41.02,41.02,41.02,41.02,41.02,41.02,41.02,41.02,41.03,41.03,41.03,41.03,41.01,40.96,41.00,41.03,41.03,41.03,41.03,41.03,41.06,41.05,40.77,40.60,40.45,40.31,40.22,40.08,39.98,39.86,39.73,39.65,39.63,39.66,39.72,39.73,39.82,39.93,39.97,39.88,39.85,39.84,39.88,39.96,39.98,39.98,39.90,39.81,39.80,39.73,39.66,39.62,39.60,39.53,39.45,39.41,39.39,39.31,39.24,39.16,39.12,39.10,39.05,39.03,39.06,39.11,39.13,39.20,39.27,39.32,39.34,39.41,39.47,39.55,39.63,39.70,39.72,39.76,39.88,40.27,41.64,43.79,46.25,48.72,51.52,54.66,57.80,60.72,63.19,65.06,66.36,67.13,67.32,67.50,67.67,67.82,67.80,67.30,66.29,65.03,63.61,62.07,60.49,59.29,58.55,58.28,57.99,58.12,58.80,59.84,60.38,61.05,62.16,63.52,64.75,65.95,67.30,68.36,68.93,69.83,71.10,73.14,75.95,79.20,82.31,85.36,88.08,89.88,90.42,90.55,90.53,90.58,91.00,89.90,86.52,82.53,81.00,80.16,79.84,79.97,80.73,82.33,84.13,85.85,87.50,89.27,91.12,92.35,93.07,93.49,93.93,94.90,96.37,97.76,97.41,97.72,97.84,97.38,96.36,96.36,97.11,98.03,98.81,99.73,100.86,102.11,103.51,105.28,107.29,108.40,108.64,108.59,109.99
36.27,36.42,36.63,36.79,37.02,37.19,37.37,37.56,37.74,37.91,38.11,38.31,38.48,38.71,38.88,39.06,39.23,39.34,39.46,39.55,39.64,39.76,39.84,39.91,39.97,40.00,40.00,40.00,40.00,40.01,40.05,40.05,40.08,40.10,40.10,40.10,40.10,40.12,40.16,40.16,40.16,40.18,40.20,40.20,40.24,40.26,40.26,40.26,40.29,40.30,40.30,40.31,40.35,40.36,40.38,40.42,40.45,40.49,40.50,40.54,40.60,40.61,40.67,40.70,40.71,40.75,40.79,40.83,40.87,40.91,40.95,40.98,41.02,41.03,40.97,40.95,40.95,40.95,40.95,40.95,40.95,40.95,40.95,40.95,40.95,40.95,40.95,40.95,40.95,40.93,40.92,40.95,40.95,40.95,40.93,40.89,40.82,40.84,40.88,40.91,40.91,40.91,40.91,40.94,40.93,40.61,40.42,40.29,40.17,40.06,39.94,39.83,39.71,39.60,39.52,39.53,39.58,39.62,39.65,39.72,39.78,39.78,39.72,39.71,39.73,39.77,39.80,39.81,39.81,39.78,39.74,39.70,39.67,39.59,39.55,39.54,39.47,39.39,39.36,39.33,39.25,39.18,39.13,39.09,39.04,38.97,38.95,38.97,39.01,39.05,39.13,39.19,39.26,39.30,39.38,39.45,39.53,39.61,39.69,39.70,39.74,39.82,40.09,41.91,44.45,47.18,49.90,52.97,56.25,59.62,62.94,65.89,68.13,69.77,70.89,71.49,72.14,72.65,73.01,73.09,72.59,71.45,69.70,67.65,65.90,64.37,63.08,62.02,61.23,60.47,59.79,59.39,59.34,59.40,59.52,59.99,60.74,61.58,62.66,63.86,64.83,65.44,66.25,67.30,68.99,71.27,73.77,76.70,79.47,81.76,83.16,83.48,83.58,83.63,83.74,84.10,83.56,81.62,79.34,78.60,78.15,78.05,78.32,79.07,80.25,81.57,82.95,84.44,86.22,88.16,89.32,89.83,90.04,90.30,91.34,92.52,93.27,92.95,93.21,93.67,94.21,94.98,96.12,97.66,99.12,100.25,101.70,103.29,104.44,105.16,106.07,106.83,107.37,107.63,107.75,109.19
36.25,36.37,36.56,36.73,36.96,37.13,37.28,37.46,37.68,37.84,38.05,38.25,38.42,38.65,38.81,38.97,39.12,39.26,39.36,39.43,39.51,39.59,39.67,39.79,39.91,39.97,39.98,39.98,39.99,40.00,40.00,40.00,40.05,40.09,40.09,40.09,40.10,40.10,40.10,40.10,40.10,40.14,40.19,40.19,40.20,40.20,40.20,40.22,40.27,40.29,40.29,40.29,40.30,40.30,40.35,40.39,40.42,40.48,40.50,40.53,40.59,40.60,40.66,40.69,40.70,40.72,40.78,40.80,40.84,40.89,40.91,40.96,40.99,40.97,40.91,40.89,40.89,40.88,40.88,40.88,40.88,40.88,40.88,40.88,40.88,40.88,40.88,40.88,40.88,40.84,40.82,40.88,40.88,40.88,40.85,40.78,40.71,40.69,40.73,40.78,40.79,40.79,40.79,40.82,40.79,40.44,40.24,40.13,40.03,39.90,39.81,39.68,39.55,39.48,39.41,39.45,39.49,39.52,39.59,39.66,39.68,39.65,39.59,39.60,39.66,39.70,39.70,39.70,39.70,39.69,39.66,39.60,39.59,39.53,39.49,39.47,39.40,39.33,39.30,39.28,39.19,39.12,39.09,39.06,38.98,38.91,38.89,38.89,38.91,38.98,39.06,39.14,39.22,39.29,39.37,39.44,39.52,39.60,39.67,39.70,39.74,39.82,40.11,42.09,44.85,47.80,50.73,53.99,57.25,60.73,64.44,67.87,70.52,72.62,74.31,75.57,76.82,77.89,78.64,78.86,78.34,77.07,74.90,72.27,70.35,68.86,67.48,66.22,65.18,64.25,63.09,61.88,60.85,60.34,59.95,59.83,59.99,60.44,61.33,62.15,62.84,63.48,64.26,65.14,66.34,67.80,69.25,71.75,73.97,75.61,76.51,76.70,76.83,76.99,77.18,77.48,77.57,77.27,76.84,76.77,76.56,76.60,77.03,77.81,78.58,79.38,80.36,81.58,83.17,85.11,86.14,86.53,86.86,87.30,88.36,89.13,89.20,89.21,89.52,90.62,92.55,95.19,97.51,99.89,101.99,103.55,105.31,107.26,108.30,108.37,108.46,107.94,107.83,107.95,107.97,108.88
36.25,36.34,36.50,36.67,36.90,37.06,37.22,37.39,37.62,37.78,38.00,38.20,38.36,38.58,38.75,38.89,39.00,39.14,39.24,39.31,39.38,39.41,39.53,39.64,39.73,39.81,39.86,39.91,39.96,40.00,40.00,40.00,40.02,40.04,40.04,40.04,40.07,40.10,40.10,40.10,40.10,40.12,40.13,40.14,40.19,40.20,40.20,40.20,40.23,40.23,40.23,40.23,40.24,40.28,40.32,40.35,40.40,40.43,40.47,40.51,40.55,40.59,40.62,40.66,40.70,40.71,40.78,40.80,40.83,40.89,40.90,40.92,40.94,40.91,40.84,40.84,40.80,40.77,40.77,40.77,40.77,40.77,40.77,40.77,40.77,40.77,40.77,40.77,40.77,40.75,40.74,40.77,40.77,40.77,40.75,40.72,40.64,40.58,40.58,40.62,40.66,40.67,40.67,40.67,40.61,40.25,40.06,39.95,39.87,39.77,39.69,39.55,39.43,39.36,39.34,39.35,39.39,39.45,39.52,39.55,39.53,39.49,39.48,39.52,39.59,39.63,39.63,39.63,39.63,39.60,39.56,39.53,39.48,39.45,39.41,39.36,39.33,39.27,39.23,39.22,39.14,39.06,39.04,39.00,38.92,38.86,38.84,38.84,38.85,38.92,39.00,39.08,39.16,39.23,39.31,39.39,39.47,39.55,39.61,39.67,39.74,39.82,40.09,41.94,44.66,47.67,50.72,53.97,57.22,60.71,64.50,68.23,71.27,74.09,76.78,79.11,80.78,82.80,84.33,84.61,83.98,82.68,80.74,78.41,76.27,74.14,72.52,71.27,70.21,69.27,68.42,67.52,66.41,64.87,63.31,62.28,61.97,62.56,63.56,64.45,65.02,65.29,65.76,66.16,66.44,66.63,66.95,68.67,70.19,71.22,71.75,71.89,72.02,72.22,72.64,73.61,74.28,74.53,74.55,74.61,74.71,75.03,75.66,76.61,77.43,78.24,79.08,79.92,80.78,82.06,82.89,83.58,84.68,85.82,86.97,87.86,88.44,89.19,90.27,92.31,94.95,97.33,99.84,102.43,104.95,107.14,108.74,109.94,110.49,110.61,111.07,111.13,111.02,110.76,110.37,110.22
36.28,36.31,36.45,36.61,36.84,37.00,37.16,37.33,37.56,37.73,37.94,38.13,38.30,38.50,38.67,38.78,38.88,39.02,39.09,39.16,39.22,39.26,39.38,39.47,39.55,39.63,39.70,39.78,39.86,39.92,39.94,39.97,39.99,40.00,40.00,40.00,40.05,40.08,40.08,40.08,40.09,40.10,40.10,40.11,40.16,40.17,40.17,40.17,40.17,40.19,40.20,40.20,40.20,40.25,40.29,40.32,40.37,40.40,40.45,40.48,40.51,40.56,40.59,40.64,40.68,40.70,40.76,40.79,40.83,40.87,40.90,40.88,40.88,40.86,40.80,40.78,40.74,40.69,40.67,40.67,40.67,40.67,40.67,40.67,40.67,40.67,40.67,40.67,40.67,40.66,40.64,40.65,40.67,40.67,40.66,40.63,40.55,40.47,40.44,40.47,40.53,40.54,40.54,40.54,40.44,40.10,39.91,39.80,39.72,39.64,39.57,39.45,39.33,39.25,39.25,39.26,39.31,39.39,39.43,39.44,39.41,39.38,39.38,39.45,39.52,39.54,39.54,39.54,39.54,39.51,39.47,39.44,39.39,39.36,39.32,39.27,39.25,39.20,39.16,39.13,39.07,39.00,38.98,38.94,38.86,38.79,38.77,38.77,38.79,38.86,38.94,39.02,39.09,39.17,39.25,39.34,39.43,39.51,39.59,39.66,39.74,39.82,40.06,41.57,43.97,46.78,49.70,52.69,55.87,59.30,62.98,66.54,69.84,73.25,76.84,80.42,83.20,86.22,88.44,88.95,88.39,87.30,85.63,83.47,81.14,78.94,77.45,76.37,75.35,74.39,73.62,72.83,71.75,69.97,67.57,65.95,65.38,65.83,66.80,67.71,68.22,68.26,68.44,68.52,68.21,67.53,66.83,67.50,68.21,68.68,68.94,69.15,69.40,69.70,70.30,71.80,72.91,73.50,73.81,74.16,74.43,74.84,75.45,76.24,76.85,77.51,78.17,78.77,79.32,80.19,81.38,82.92,84.86,86.53,87.76,88.74,89.66,90.87,92.56,95.05,97.79,99.77,102.08,104.64,107.26,109.64,111.09,111.89,112.26,112.57,113.51,114.30,114.35,113.83,113.05,112.05
36.34,36.30,36.38,36.55,36.78,36.95,37.10,37.27,37.50,37.66,37.87,38.08,38.23,38.39,38.55,38.66,38.76,38.90,38.93,38.98,39.06,39.13,39.21,39.30,39.38,39.44,39.52,39.61,39.68,39.75,39.82,39.89,39.95,40.00,40.00,40.00,40.01,40.02,40.02,40.02,40.07,40.10,40.10,40.10,40.11,40.12,40.12,40.12,40.12,40.17,40.20,40.20,40.20,40.21,40.26,40.30,40.33,40.38,40.41,40.45,40.50,40.52,40.57,40.61,40.63,40.70,40.71,40.76,40.80,40.83,40.88,40.84,40.81,40.81,40.80,40.73,40.71,40.67,40.62,40.62,40.61,40.61,40.61,40.61,40.61,40.61,40.61,40.61,40.62,40.56,40.52,40.54,40.59,40.61,40.57,40.51,40.43,40.35,40.32,40.35,40.42,40.42,40.42,40.39,40.27,39.97,39.79,39.68,39.60,39.52,39.45,39.36,39.25,39.13,39.13,39.18,39.25,39.31,39.32,39.32,39.32,39.31,39.33,39.39,39.42,39.42,39.42,39.43,39.43,39.42,39.39,39.33,39.31,39.26,39.22,39.20,39.14,39.12,39.07,39.02,39.00,38.94,38.91,38.89,38.80,38.73,38.72,38.72,38.73,38.80,38.88,38.96,39.03,39.11,39.19,39.31,39.43,39.51,39.59,39.66,39.74,39.82,39.99,40.96,42.79,45.09,47.58,50.08,53.08,56.40,59.75,62.63,66.03,69.82,74.09,79.06,83.78,87.82,90.58,91.54,91.30,90.73,89.32,87.07,84.61,83.08,82.18,81.44,80.48,79.47,78.41,77.39,76.44,75.37,72.66,70.86,70.25,70.25,70.93,71.76,72.27,72.27,72.23,72.17,71.72,70.70,69.11,68.48,68.25,68.17,68.27,68.69,69.16,69.64,70.38,72.16,73.54,74.33,74.90,75.75,76.03,76.31,76.63,76.87,76.95,77.19,77.59,78.14,78.92,79.71,81.88,84.85,87.64,89.57,90.84,91.83,92.78,94.12,96.16,98.48,100.65,102.30,104.10,106.38,108.76,110.79,112.18,113.11,113.70,114.30,115.71,117.23,117.54,116.88,115.78,114.30
36.41,36.29,36.33,36.48,36.68,36.87,37.04,37.22,37.44,37.60,37.81,38.02,38.16,38.32,38.45,38.54,38.63,38.74,38.76,38.80,38.89,38.95,39.03,39.11,39.19,39.27,39.34,39.42,39.50,39.58,39.66,39.73,39.80,39.87,39.91,39.95,39.98,40.00,40.00,40.00,40.04,40.05,40.05,40.06,40.09,40.10,40.10,40.10,40.10,40.13,40.16,40.16,40.16,40.19,40.23,40.27,40.30,40.34,40.38,40.42,40.46,40.49,40.54,40.58,40.61,40.65,40.69,40.73,40.77,40.80,40.84,40.82,40.78,40.76,40.75,40.67,40.66,40.63,40.56,40.55,40.52,40.50,40.50,40.50,40.50,40.50,40.50,40.51,40.54,40.50,40.45,40.46,40.49,40.50,40.48,40.44,40.36,40.28,40.23,40.22,40.26,40.29,40.21,40.13,40.02,39.83,39.70,39.58,39.48,39.40,39.33,39.25,39.16,39.06,39.05,39.11,39.17,39.20,39.20,39.20,39.20,39.22,39.25,39.29,39.30,39.30,39.31,39.35,39.36,39.36,39.33,39.26,39.21,39.17,39.13,39.10,39.06,39.02,38.98,38.94,38.91,38.87,38.83,38.79,38.74,38.67,38.66,38.66,38.67,38.75,38.85,38.95,39.02,39.10,39.18,39.28,39.39,39.46,39.53,39.61,39.69,39.77,39.90,40.48,42.01,44.08,46.29,48.46,50.94,53.73,56.68,59.21,62.08,65.59,69.73,74.64,80.63,85.82,89.61,91.67,92.45,93.07,92.25,90.06,87.90,86.80,86.31,85.78,84.66,82.89,81.66,81.09,80.97,80.44,78.93,77.99,77.67,77.43,77.64,78.09,78.37,78.25,77.96,77.46,76.70,75.58,74.01,72.52,70.91,69.52,68.89,69.06,69.40,70.05,71.30,73.34,75.17,76.22,76.80,77.54,77.72,77.86,78.00,78.09,78.03,77.98,78.09,78.40,78.91,79.55,81.67,84.70,87.54,89.42,90.60,91.78,93.31,95.22,97.55,99.70,101.59,103.34,105.17,107.36,109.51,111.24,112.72,113.94,115.01,116.09,117.58,119.66,119.69,118.35,117.09,116.03
36.49,36.29,36.27,36.41,36.58,36.80,36.98,37.16,37.38,37.55,37.75,37.94,38.09,38.25,38.34,38.42,38.49,38.56,38.58,38.63,38.70,38.77,38.86,38.94,39.01,39.09,39.16,39.25,39.31,39.39,39.47,39.55,39.63,39.70,39.78,39.85,39.93,39.97,39.98,39.99,40.00,40.00,40.00,40.02,40.07,40.09,40.09,40.09,40.09,40.10,40.10,40.10,40.11,40.16,40.19,40.23,40.29,40.30,40.36,40.39,40.42,40.48,40.50,40.54,40.59,40.62,40.67,40.70,40.73,40.79,40.79,40.79,40.75,40.70,40.69,40.61,40.59,40.56,40.50,40.49,40.44,40.39,40.39,40.39,40.39,40.39,40.39,40.40,40.46,40.43,40.38,40.38,40.38,40.39,40.39,40.36,40.29,40.20,40.13,40.07,40.08,40.14,40.00,39.86,39.78,39.69,39.61,39.49,39.37,39.28,39.20,39.13,39.05,38.99,38.99,39.05,39.08,39.08,39.08,39.08,39.09,39.12,39.17,39.19,39.20,39.20,39.21,39.27,39.28,39.28,39.26,39.19,39.12,39.09,39.06,39.00,38.98,38.93,38.89,38.86,38.80,38.78,38.74,38.69,38.67,38.61,38.59,38.60,38.62,38.70,38.83,38.93,39.01,39.09,39.17,39.25,39.34,39.41,39.49,39.56,39.65,39.72,39.82,40.09,41.39,43.32,45.33,47.27,49.25,51.53,54.08,56.44,58.72,61.72,65.43,69.89,76.23,82.25,87.14,90.47,92.55,94.47,94.62,93.02,91.28,90.50,90.22,89.72,88.23,85.70,84.43,84.43,85.21,85.30,85.29,85.39,85.47,85.28,85.12,85.18,85.22,85.01,84.50,83.61,82.59,81.48,80.07,77.91,75.07,72.36,70.75,70.36,70.31,71.04,72.79,75.01,77.29,78.71,79.41,79.98,80.09,80.06,79.99,79.89,79.69,79.31,79.04,79.00,79.22,79.79,81.52,83.96,86.31,88.00,89.15,90.59,92.70,95.19,97.69,99.73,101.49,103.42,105.40,107.58,109.58,111.14,112.68,114.12,115.66,117.25,118.76,121.27,121.04,119.10,117.76,117.37
36.60,36.34,36.24,36.36,36.52,36.73,36.92,37.09,37.31,37.48,37.66,37.82,37.98,38.13,38.23,38.28,38.31,38.39,38.44,38.48,38.52,38.59,38.67,38.75,38.83,38.91,38.98,39.06,39.14,39.22,39.30,39.37,39.44,39.52,39.61,39.67,39.75,39.82,39.87,39.92,39.98,40.00,40.00,40.00,40.03,40.04,40.04,40.04,40.04,40.08,40.10,40.10,40.10,40.13,40.16,40.21,40.24,40.29,40.32,40.36,40.41,40.43,40.48,40.51,40.55,40.60,40.63,40.67,40.71,40.73,40.73,40.73,40.69,40.63,40.63,40.55,40.54,40.50,40.44,40.43,40.37,40.34,40.34,40.34,40.34,40.34,40.34,40.34,40.35,40.31,40.26,40.26,40.27,40.31,40.30,40.24,40.17,40.09,39.97,39.89,39.90,39.92,39.83,39.73,39.65,39.57,39.49,39.40,39.29,39.17,39.09,39.01,38.93,38.88,38.92,38.95,38.96,38.96,38.96,38.96,39.00,39.04,39.07,39.12,39.13,39.13,39.14,39.16,39.16,39.16,39.16,39.13,39.05,39.04,39.00,38.93,38.87,38.84,38.80,38.76,38.73,38.68,38.65,38.61,38.56,38.54,38.54,38.56,38.62,38.69,38.79,38.88,38.95,39.03,39.11,39.22,39.33,39.41,39.49,39.56,39.64,39.72,39.80,39.94,40.99,42.71,44.69,46.59,48.58,50.77,53.15,55.55,57.74,60.17,63.26,67.42,71.35,76.84,82.44,86.95,90.66,93.53,95.66,96.60,95.31,94.54,94.03,92.96,90.59,88.13,87.12,87.35,88.52,89.68,90.61,91.29,91.87,92.51,92.59,92.62,92.61,92.43,91.91,91.16,90.32,89.26,87.53,85.01,82.01,78.79,75.80,74.22,73.30,73.71,75.58,77.61,80.19,82.33,83.84,84.72,84.99,84.75,84.15,83.28,82.45,81.37,80.45,79.96,80.22,81.19,82.36,83.37,84.11,85.38,86.95,88.69,90.71,93.26,95.56,97.63,99.58,101.56,103.53,105.74,107.94,109.75,110.96,112.23,113.88,115.83,117.70,120.31,120.43,118.90,117.70,117.83
36.69,36.41,36.26,36.30,36.45,36.67,36.86,37.03,37.25,37.42,37.58,37.72,37.85,37.98,38.08,38.13,38.15,38.21,38.28,38.33,38.36,38.42,38.50,38.59,38.67,38.72,38.80,38.88,38.95,39.03,39.11,39.19,39.27,39.34,39.42,39.50,39.58,39.66,39.73,39.80,39.87,39.90,39.92,39.94,39.97,39.99,40.00,40.00,40.00,40.05,40.08,40.08,40.08,40.09,40.14,40.18,40.20,40.26,40.29,40.33,40.37,40.40,40.45,40.49,40.52,40.57,40.59,40.64,40.68,40.70,40.68,40.67,40.64,40.59,40.57,40.52,40.49,40.45,40.40,40.37,40.31,40.27,40.27,40.27,40.25,40.24,40.25,40.27,40.27,40.22,40.16,40.15,40.17,40.22,40.21,40.15,40.05,39.97,39.84,39.73,39.72,39.72,39.67,39.61,39.53,39.45,39.37,39.30,39.20,39.07,38.97,38.89,38.82,38.78,38.83,38.84,38.84,38.85,38.87,38.88,38.91,38.95,38.98,39.03,39.04,39.04,39.04,39.04,39.04,39.04,39.04,39.03,38.99,38.95,38.92,38.86,38.79,38.77,38.73,38.67,38.66,38.59,38.56,38.52,38.47,38.45,38.46,38.50,38.58,38.67,38.73,38.83,38.92,39.00,39.08,39.19,39.30,39.38,39.45,39.53,39.62,39.72,39.80,39.87,40.64,42.10,44.10,46.00,48.11,50.31,52.64,55.35,57.79,59.94,62.37,65.71,68.16,72.90,78.36,83.18,87.47,90.94,94.42,97.39,98.00,97.96,97.51,96.25,93.76,91.47,90.68,91.07,92.41,94.04,95.44,96.52,97.51,98.61,98.99,99.03,98.94,98.74,98.19,97.57,96.90,96.00,94.38,92.10,89.16,85.79,82.30,79.50,77.32,77.10,79.17,81.49,84.37,86.76,88.49,89.59,89.69,89.17,88.28,87.14,85.94,84.50,83.07,82.02,82.14,83.84,84.84,84.86,84.34,84.65,85.78,87.38,89.38,91.76,93.88,95.93,97.95,99.87,101.72,103.94,106.28,108.28,109.34,110.42,111.89,113.77,115.83,118.26,118.69,117.84,117.34,118.00
36.75,36.51,36.32,36.25,36.39,36.61,36.80,36.98,37.19,37.37,37.52,37.64,37.73,37.82,37.89,37.97,38.02,38.04,38.11,38.18,38.22,38.24,38.31,38.44,38.53,38.55,38.63,38.69,38.77,38.86,38.93,39.00,39.09,39.16,39.24,39.31,39.39,39.47,39.55,39.62,39.64,39.68,39.75,39.82,39.89,39.95,39.99,40.00,40.00,40.01,40.02,40.02,40.02,40.08,40.11,40.14,40.20,40.21,40.27,40.30,40.33,40.39,40.41,40.46,40.50,40.52,40.58,40.61,40.64,40.68,40.63,40.62,40.61,40.58,40.52,40.50,40.45,40.41,40.39,40.32,40.25,40.22,40.22,40.21,40.15,40.13,40.14,40.20,40.21,40.16,40.08,40.04,40.09,40.12,40.12,40.07,39.94,39.85,39.72,39.60,39.54,39.54,39.53,39.48,39.41,39.33,39.25,39.17,39.10,39.00,38.86,38.77,38.72,38.71,38.72,38.73,38.73,38.74,38.80,38.81,38.81,38.85,38.91,38.92,38.92,38.92,38.93,38.93,38.93,38.93,38.93,38.92,38.91,38.86,38.82,38.79,38.73,38.71,38.67,38.61,38.60,38.53,38.47,38.42,38.40,38.34,38.38,38.45,38.53,38.61,38.68,38.80,38.92,39.00,39.08,39.16,39.25,39.32,39.40,39.47,39.59,39.71,39.79,39.87,40.35,41.50,43.51,45.50,47.77,50.05,52.48,55.75,58.73,60.93,62.71,64.73,66.94,70.77,75.20,79.38,83.09,86.81,90.81,95.04,98.94,100.47,100.51,99.59,97.87,95.82,95.16,95.65,96.97,98.39,99.79,101.14,102.41,103.51,104.19,104.25,104.05,103.75,103.12,102.58,102.04,101.38,100.36,98.94,96.25,93.05,90.07,86.14,82.34,81.23,83.56,86.70,89.92,92.02,93.28,94.42,93.98,93.09,92.18,91.30,90.04,88.65,86.89,85.17,84.95,87.64,88.93,88.52,87.25,86.05,85.82,86.80,88.88,90.90,92.86,94.84,96.78,98.51,100.19,102.37,104.75,106.83,107.94,108.86,109.89,111.25,113.28,115.26,115.90,115.97,116.70,117.92
36.80,36.58,36.36,36.23,36.34,36.55,36.74,36.90,37.10,37.29,37.43,37.53,37.61,37.69,37.73,37.80,37.85,37.86,37.92,38.00,38.05,38.07,38.17,38.29,38.36,38.37,38.44,38.52,38.59,38.67,38.75,38.83,38.91,38.98,39.05,39.14,39.22,39.29,39.36,39.40,39.44,39.48,39.53,39.61,39.68,39.76,39.82,39.86,39.89,39.94,39.97,40.00,40.00,40.04,40.08,40.12,40.15,40.19,40.23,40.27,40.31,40.35,40.39,40.42,40.46,40.50,40.54,40.58,40.62,40.64,40.57,40.55,40.55,40.53,40.47,40.45,40.39,40.36,40.34,40.27,40.22,40.18,40.16,40.14,40.08,40.05,40.06,40.10,40.14,40.07,39.97,39.92,39.98,40.00,39.98,39.92,39.81,39.77,39.62,39.47,39.40,39.36,39.36,39.31,39.24,39.20,39.13,39.05,38.98,38.89,38.75,38.65,38.60,38.61,38.64,38.66,38.66,38.66,38.69,38.70,38.73,38.77,38.80,38.80,38.80,38.82,38.85,38.86,38.86,38.86,38.86,38.85,38.81,38.77,38.73,38.70,38.66,38.62,38.58,38.54,38.51,38.47,38.40,38.36,38.35,38.31,38.36,38.44,38.51,38.59,38.67,38.77,38.88,38.95,39.03,39.11,39.19,39.27,39.38,39.46,39.56,39.67,39.75,39.83,40.08,40.98,42.98,45.09,47.36,49.76,52.49,55.96,59.08,61.44,63.40,65.50,67.53,70.14,73.27,76.73,79.90,83.33,87.01,90.85,94.71,98.42,100.56,101.43,101.27,99.82,99.39,99.78,100.78,102.03,103.67,105.34,106.77,107.66,108.32,108.44,108.29,108.00,107.35,106.66,106.06,105.49,104.66,103.62,101.52,98.92,96.35,92.68,88.71,87.27,89.31,92.51,96.13,98.13,98.76,99.00,97.90,96.50,95.15,93.90,92.55,90.96,88.89,86.94,87.00,89.89,91.35,90.86,88.98,87.40,86.48,86.91,88.78,90.67,92.50,94.29,96.04,97.71,99.40,101.26,103.27,105.25,106.55,107.42,108.39,109.67,111.39,113.00,114.04,114.88,116.11,117.51
36.86,36.64,36.41,36.23,36.29,36.49,36.68,36.84,37.00,37.21,37.33,37.41,37.48,37.55,37.57,37.61,37.67,37.69,37.75,37.82,37.88,37.91,38.03,38.12,38.16,38.19,38.26,38.34,38.41,38.50,38.57,38.64,38.72,38.80,38.88,38.95,39.03,39.10,39.16,39.16,39.23,39.27,39.30,39.36,39.44,39.52,39.59,39.67,39.74,39.82,39.89,39.95,39.96,39.97,40.03,40.09,40.11,40.18,40.20,40.23,40.29,40.30,40.36,40.39,40.42,40.48,40.50,40.55,40.59,40.58,40.52,40.50,40.49,40.47,40.41,40.39,40.33,40.30,40.28,40.21,40.19,40.15,40.09,40.09,40.02,39.98,39.97,39.99,40.04,39.95,39.84,39.79,39.85,39.87,39.83,39.77,39.70,39.68,39.53,39.36,39.29,39.21,39.19,39.15,39.08,39.06,39.00,38.93,38.86,38.77,38.64,38.53,38.48,38.50,38.56,38.58,38.58,38.58,38.59,38.59,38.64,38.70,38.70,38.70,38.70,38.72,38.78,38.78,38.78,38.78,38.78,38.77,38.71,38.69,38.65,38.59,38.58,38.53,38.49,38.46,38.40,38.38,38.34,38.29,38.28,38.29,38.34,38.42,38.50,38.58,38.66,38.73,38.82,38.90,38.98,39.05,39.13,39.22,39.36,39.45,39.53,39.61,39.69,39.77,39.86,40.55,42.41,44.58,46.80,49.33,52.37,55.97,59.15,61.77,64.19,66.77,68.63,70.19,72.21,74.96,77.42,80.44,83.67,86.80,89.78,94.92,99.18,102.12,103.60,103.12,103.11,103.53,104.25,105.35,107.09,108.83,110.17,110.78,111.36,111.64,111.75,111.69,111.09,110.30,109.64,109.10,108.35,107.56,106.14,104.30,102.17,99.21,95.48,93.89,95.58,98.76,102.44,104.25,104.23,103.26,101.48,99.55,97.66,95.91,94.39,92.56,90.30,88.33,88.72,91.65,93.40,93.08,90.71,88.89,87.50,87.38,88.79,90.55,92.26,93.89,95.50,97.16,98.92,100.46,102.04,103.84,105.35,106.31,107.36,108.70,110.09,111.40,112.76,114.19,115.61,116.96
36.92,36.70,36.47,36.27,36.25,36.43,36.62,36.77,36.93,37.10,37.21,37.27,37.30,37.38,37.39,37.43,37.50,37.55,37.58,37.64,37.71,37.77,37.86,37.91,37.95,38.00,38.08,38.16,38.23,38.31,38.39,38.47,38.55,38.62,38.69,38.77,38.86,38.90,38.92,38.92,38.99,39.05,39.10,39.13,39.20,39.28,39.35,39.43,39.51,39.59,39.66,39.73,39.79,39.84,39.95,40.05,40.10,40.13,40.17,40.21,40.24,40.30,40.32,40.36,40.41,40.44,40.49,40.52,40.54,40.53,40.50,40.45,40.44,40.41,40.34,40.34,40.28,40.23,40.22,40.15,40.13,40.09,40.04,40.02,39.96,39.86,39.81,39.85,39.83,39.75,39.66,39.61,39.67,39.70,39.68,39.65,39.63,39.58,39.44,39.30,39.22,39.14,39.09,39.02,38.95,38.89,38.83,38.78,38.74,38.66,38.56,38.44,38.38,38.43,38.46,38.46,38.46,38.47,38.52,38.54,38.58,38.63,38.63,38.63,38.63,38.64,38.66,38.66,38.66,38.66,38.66,38.66,38.64,38.59,38.55,38.52,38.47,38.44,38.40,38.35,38.33,38.28,38.25,38.21,38.17,38.22,38.28,38.36,38.44,38.53,38.59,38.67,38.77,38.89,38.98,39.05,39.13,39.21,39.31,39.39,39.47,39.55,39.63,39.75,39.85,40.31,41.63,43.66,45.79,48.36,51.59,55.38,58.81,61.97,65.04,68.00,69.73,71.19,73.05,75.24,76.30,79.00,82.21,85.21,87.69,90.92,95.64,100.22,102.80,104.23,105.33,106.33,107.25,108.23,109.37,110.19,110.63,110.86,111.53,112.36,113.29,114.08,113.76,113.32,112.81,112.24,111.63,111.09,110.36,109.36,107.91,105.83,102.35,100.66,102.33,106.05,108.53,109.47,108.90,106.64,104.22,101.81,99.51,97.40,95.50,93.50,91.39,89.73,90.01,93.24,95.85,96.24,93.64,90.98,89.16,88.38,88.78,90.20,91.81,93.49,95.20,96.94,98.76,100.30,101.71,103.20,104.90,106.25,107.56,108.92,110.24,111.37,112.66,114.06,115.34,116.17
36.98,36.75,36.52,36.32,36.21,36.35,36.54,36.72,36.86,36.98,37.06,37.11,37.12,37.19,37.23,37.27,37.33,37.40,37.43,37.48,37.53,37.61,37.69,37.70,37.75,37.83,37.89,37.95,38.02,38.11,38.20,38.28,38.36,38.44,38.51,38.57,38.64,38.68,38.68,38.69,38.75,38.83,38.89,38.92,38.99,39.05,39.11,39.19,39.27,39.34,39.42,39.50,39.58,39.65,39.78,39.91,39.98,40.01,40.07,40.12,40.16,40.23,40.26,40.31,40.37,40.38,40.44,40.47,40.47,40.46,40.44,40.39,40.37,40.35,40.28,40.27,40.23,40.19,40.16,40.11,40.08,40.03,39.96,39.91,39.84,39.71,39.63,39.66,39.63,39.54,39.46,39.42,39.50,39.53,39.54,39.54,39.53,39.47,39.35,39.23,39.14,39.06,38.98,38.90,38.83,38.75,38.67,38.63,38.59,38.51,38.45,38.34,38.29,38.33,38.34,38.36,38.37,38.38,38.44,38.46,38.50,38.54,38.54,38.54,38.54,38.54,38.54,38.54,38.56,38.56,38.56,38.56,38.55,38.50,38.46,38.43,38.38,38.35,38.31,38.27,38.24,38.19,38.15,38.12,38.09,38.16,38.22,38.32,38.41,38.49,38.57,38.64,38.74,38.86,38.94,39.03,39.11,39.17,39.25,39.35,39.44,39.52,39.60,39.72,39.81,40.08,40.90,42.69,44.86,47.51,50.77,54.55,58.07,61.56,65.09,68.46,70.64,72.47,74.48,76.44,76.73,78.79,81.50,84.17,86.38,88.56,92.85,97.67,100.97,103.49,105.17,106.44,107.44,108.27,108.42,107.99,107.50,107.84,109.07,110.93,112.81,114.16,114.55,114.91,115.14,115.15,114.86,114.54,114.48,114.34,113.64,112.53,110.16,108.84,109.84,112.56,113.80,113.99,112.72,108.90,106.04,103.40,100.86,98.53,96.47,94.47,92.54,91.21,91.91,95.29,98.34,99.14,96.36,93.41,91.34,90.08,89.69,90.30,91.53,93.15,94.94,96.73,98.55,100.07,101.38,102.74,104.79,106.58,108.11,109.46,110.64,111.66,112.81,113.87,114.47,114.77
37.05,36.81,36.59,36.36,36.16,36.26,36.45,36.65,36.78,36.82,36.89,36.93,36.94,37.02,37.09,37.12,37.14,37.22,37.29,37.32,37.36,37.44,37.50,37.52,37.56,37.64,37.71,37.74,37.79,37.88,38.02,38.10,38.18,38.25,38.32,38.34,38.40,38.44,38.44,38.45,38.51,38.59,38.66,38.73,38.80,38.83,38.87,38.95,39.03,39.10,39.18,39.26,39.34,39.41,39.54,39.67,39.75,39.81,39.89,39.96,40.03,40.11,40.18,40.25,40.30,40.32,40.39,40.41,40.41,40.39,40.33,40.31,40.30,40.29,40.22,40.20,40.20,40.17,40.11,40.10,40.04,39.97,39.88,39.75,39.66,39.53,39.43,39.44,39.43,39.32,39.24,39.25,39.31,39.39,39.41,39.42,39.41,39.34,39.26,39.15,39.02,38.94,38.86,38.78,38.71,38.63,38.55,38.48,38.41,38.34,38.32,38.26,38.21,38.22,38.22,38.28,38.30,38.31,38.33,38.38,38.41,38.42,38.42,38.42,38.42,38.42,38.42,38.42,38.48,38.51,38.51,38.50,38.44,38.41,38.38,38.32,38.30,38.25,38.21,38.19,38.13,38.11,38.06,38.02,38.02,38.09,38.17,38.28,38.41,38.49,38.56,38.64,38.72,38.80,38.89,38.97,39.05,39.12,39.20,39.33,39.44,39.52,39.59,39.68,39.75,39.87,40.26,41.69,44.01,46.79,49.95,53.51,56.96,60.54,64.29,68.05,71.25,73.85,76.27,78.33,78.63,79.74,81.52,83.66,85.77,87.97,91.08,94.77,98.41,101.05,102.71,103.89,104.76,105.36,104.28,102.43,101.12,102.05,104.22,107.47,110.34,111.98,113.47,114.99,116.50,117.68,117.88,117.81,118.42,119.15,119.20,119.10,118.62,118.11,117.89,118.19,118.28,117.87,115.74,110.21,107.06,104.42,101.83,99.39,97.38,95.53,93.78,92.80,94.41,97.78,100.86,101.69,98.78,96.12,94.00,92.46,91.52,90.92,91.52,92.92,94.70,96.48,98.26,99.73,101.00,102.43,104.97,107.20,108.95,110.24,111.22,112.16,113.10,113.56,113.03,112.82
37.11,36.88,36.64,36.42,36.20,36.22,36.36,36.53,36.63,36.64,36.70,36.77,36.80,36.84,36.91,36.95,36.97,37.05,37.12,37.14,37.17,37.25,37.33,37.34,37.39,37.45,37.49,37.53,37.59,37.68,37.79,37.87,37.98,38.06,38.09,38.10,38.16,38.20,38.21,38.24,38.28,38.34,38.42,38.50,38.58,38.63,38.66,38.71,38.79,38.86,38.94,39.02,39.09,39.17,39.30,39.43,39.50,39.58,39.66,39.76,39.86,39.94,40.02,40.09,40.16,40.20,40.28,40.30,40.30,40.29,40.25,40.24,40.23,40.19,40.15,40.14,40.14,40.12,40.05,40.01,39.94,39.84,39.71,39.57,39.47,39.36,39.25,39.25,39.25,39.14,39.06,39.11,39.14,39.22,39.25,39.26,39.28,39.23,39.15,39.04,38.90,38.82,38.74,38.68,38.64,38.55,38.48,38.41,38.33,38.25,38.21,38.14,38.12,38.14,38.15,38.18,38.20,38.21,38.25,38.29,38.30,38.30,38.30,38.30,38.33,38.34,38.34,38.35,38.38,38.40,38.40,38.39,38.36,38.32,38.28,38.25,38.21,38.17,38.13,38.09,38.05,38.01,37.97,37.96,38.01,38.08,38.16,38.25,38.36,38.44,38.52,38.59,38.67,38.75,38.86,38.95,39.03,39.11,39.19,39.30,39.39,39.47,39.55,39.63,39.69,39.78,39.98,40.82,42.93,45.79,49.09,52.63,56.09,59.41,62.75,66.33,69.89,73.10,76.15,78.91,80.55,81.34,82.69,84.75,86.69,88.78,91.29,94.31,97.56,99.02,100.01,100.74,101.01,100.41,99.02,97.66,97.08,98.21,100.37,103.44,106.60,109.27,111.41,113.28,115.08,116.81,118.32,119.33,120.49,121.52,121.97,122.34,122.46,122.61,122.86,122.98,123.00,122.02,119.17,113.55,109.27,106.35,103.74,100.92,98.63,96.81,95.37,94.88,96.82,100.28,103.23,103.93,101.05,98.49,96.58,95.09,93.89,92.89,92.87,93.38,94.41,96.17,97.81,99.28,100.67,102.31,105.04,107.67,109.61,110.83,111.77,112.70,113.17,113.01,112.17,111.59
37.16,36.92,36.69,36.46,36.25,36.20,36.27,36.39,36.46,36.48,36.52,36.59,36.66,36.67,36.73,36.77,36.78,36.86,36.93,36.96,37.00,37.07,37.14,37.16,37.20,37.26,37.27,37.34,37.41,37.48,37.56,37.64,37.77,37.85,37.86,37.87,37.92,37.96,37.98,38.04,38.06,38.10,38.18,38.26,38.34,38.41,38.46,38.48,38.55,38.62,38.70,38.78,38.85,38.93,39.06,39.19,39.26,39.34,39.42,39.53,39.67,39.75,39.82,39.90,39.98,40.06,40.14,40.17,40.18,40.18,40.18,40.18,40.14,40.08,40.07,40.07,40.08,40.05,39.97,39.88,39.80,39.69,39.53,39.39,39.30,39.17,39.06,39.05,39.06,38.95,38.90,38.96,38.98,39.04,39.07,39.10,39.15,39.10,39.03,38.93,38.79,38.71,38.63,38.59,38.56,38.48,38.41,38.33,38.25,38.18,38.10,38.03,38.02,38.07,38.08,38.09,38.09,38.10,38.16,38.19,38.19,38.19,38.19,38.19,38.24,38.27,38.27,38.27,38.28,38.28,38.28,38.28,38.28,38.23,38.19,38.16,38.10,38.08,38.04,37.99,37.97,37.91,37.89,37.92,37.99,38.07,38.14,38.22,38.31,38.39,38.47,38.55,38.63,38.71,38.84,38.94,39.02,39.09,39.17,39.25,39.33,39.41,39.49,39.58,39.65,39.73,39.84,40.11,41.88,44.70,48.22,51.75,55.15,58.13,60.97,64.24,67.95,71.62,75.23,78.76,81.85,82.82,84.13,86.23,88.01,89.96,92.11,94.52,96.81,96.89,97.09,97.28,96.91,95.13,93.63,93.29,93.96,95.29,97.28,99.81,102.93,106.42,108.94,110.99,112.87,114.92,117.63,119.76,121.43,122.69,123.54,124.36,124.90,125.67,126.75,127.44,127.71,126.21,122.64,117.03,111.84,108.68,106.04,102.89,100.22,98.23,97.00,97.00,99.32,103.04,105.69,106.01,103.23,100.75,99.09,97.72,96.40,95.25,94.70,94.33,94.47,95.93,97.37,98.82,100.37,102.26,105.11,108.03,110.11,111.28,112.23,113.14,113.14,112.45,111.53,110.65
37.16,36.92,36.70,36.47,36.30,36.17,36.16,36.20,36.28,36.34,36.37,36.41,36.48,36.49,36.55,36.59,36.61,36.68,36.71,36.75,36.81,36.88,36.91,36.96,37.02,37.08,37.09,37.16,37.23,37.30,37.39,37.47,37.55,37.61,37.63,37.67,37.71,37.72,37.73,37.80,37.81,37.86,37.94,38.02,38.09,38.17,38.24,38.29,38.31,38.38,38.46,38.54,38.61,38.69,38.82,38.95,39.02,39.10,39.18,39.29,39.43,39.51,39.58,39.66,39.76,39.88,39.97,40.02,40.06,40.06,40.06,40.06,40.05,40.00,39.91,39.94,39.96,39.93,39.84,39.72,39.63,39.51,39.36,39.21,39.11,38.99,38.87,38.83,38.87,38.77,38.72,38.79,38.85,38.88,38.91,38.96,38.98,38.97,38.91,38.82,38.72,38.64,38.56,38.50,38.44,38.37,38.29,38.21,38.13,38.06,37.98,37.94,37.94,37.96,37.96,38.00,38.02,38.03,38.06,38.11,38.13,38.13,38.13,38.13,38.15,38.16,38.16,38.16,38.16,38.16,38.16,38.16,38.16,38.14,38.11,38.06,38.03,37.98,37.95,37.91,37.86,37.84,37.83,37.86,37.94,38.01,38.08,38.17,38.26,38.38,38.47,38.55,38.62,38.70,38.80,38.89,38.96,39.03,39.11,39.19,39.27,39.36,39.48,39.57,39.65,39.73,39.80,39.90,41.06,43.58,47.25,50.76,53.72,56.41,59.09,62.11,65.83,69.57,73.38,77.32,80.98,83.25,85.38,87.58,89.23,91.08,93.13,94.65,94.81,94.06,93.61,93.28,92.58,90.68,88.84,89.49,91.82,93.76,95.86,98.14,100.74,103.64,106.05,108.36,110.50,112.69,115.51,118.10,120.19,121.96,123.60,125.31,126.82,128.28,129.83,131.52,132.08,130.27,125.86,119.11,114.61,111.57,108.81,105.70,102.62,99.94,98.46,98.88,102.20,106.69,108.65,107.92,105.24,102.93,101.44,100.19,98.90,97.67,96.93,96.28,95.78,95.99,97.06,98.43,100.08,102.30,105.21,108.16,110.23,111.38,112.40,113.25,113.00,112.08,111.13,110.08
37.19,36.98,36.76,36.54,36.38,36.21,36.11,36.09,36.14,36.19,36.20,36.23,36.30,36.31,36.36,36.42,36.45,36.50,36.51,36.55,36.64,36.69,36.70,36.77,36.84,36.90,36.91,36.97,37.05,37.13,37.20,37.26,37.33,37.37,37.39,37.45,37.47,37.47,37.49,37.56,37.57,37.62,37.70,37.78,37.85,37.93,38.01,38.07,38.08,38.14,38.22,38.30,38.37,38.45,38.58,38.70,38.78,38.86,38.94,39.05,39.19,39.27,39.34,39.42,39.52,39.67,39.75,39.81,39.85,39.87,39.87,39.87,39.87,39.84,39.73,39.76,39.77,39.75,39.66,39.54,39.43,39.31,39.17,39.02,38.91,38.79,38.69,38.63,38.69,38.61,38.56,38.62,38.69,38.70,38.75,38.80,38.81,38.83,38.79,38.72,38.66,38.56,38.48,38.40,38.32,38.25,38.17,38.09,38.01,37.94,37.86,37.84,37.85,37.87,37.87,37.91,37.94,37.94,37.97,38.02,38.04,38.04,38.04,38.04,38.04,38.04,38.04,38.06,38.06,38.06,38.06,38.06,38.06,38.06,38.03,37.97,37.94,37.89,37.86,37.83,37.77,37.77,37.78,37.83,37.91,37.98,38.06,38.14,38.22,38.35,38.44,38.52,38.59,38.67,38.75,38.84,38.93,39.01,39.09,39.16,39.24,39.33,39.46,39.54,39.61,39.69,39.73,39.77,40.39,42.48,46.09,49.70,52.53,54.99,57.39,60.04,63.30,67.09,71.19,75.49,79.90,83.01,85.66,88.05,89.82,91.69,93.18,93.68,92.67,91.38,90.13,89.08,87.92,85.65,84.66,86.69,90.31,92.69,94.79,96.85,98.93,101.08,103.34,105.83,108.21,110.59,113.46,116.32,118.75,120.91,123.07,125.39,127.60,129.71,131.95,134.81,135.85,133.78,128.84,121.97,117.41,114.37,111.59,108.40,105.06,102.27,101.22,102.49,106.26,110.36,111.75,110.48,107.35,105.14,103.72,102.50,101.22,100.03,99.15,98.30,97.46,96.94,97.38,98.37,99.96,102.34,105.27,108.27,110.34,111.45,112.50,113.33,112.99,111.96,110.94,109.70
37.25,37.07,36.88,36.66,36.50,36.29,36.12,36.02,36.02,36.03,36.03,36.06,36.13,36.13,36.19,36.27,36.31,36.32,36.33,36.38,36.45,36.52,36.52,36.59,36.66,36.72,36.73,36.80,36.86,36.94,37.01,37.03,37.09,37.13,37.14,37.22,37.23,37.23,37.25,37.32,37.33,37.38,37.46,37.54,37.61,37.69,37.77,37.83,37.84,37.90,37.98,38.05,38.13,38.21,38.34,38.46,38.54,38.62,38.69,38.81,38.95,39.03,39.10,39.18,39.28,39.42,39.51,39.54,39.58,39.63,39.63,39.63,39.63,39.61,39.54,39.53,39.53,39.50,39.43,39.34,39.21,39.09,38.99,38.84,38.69,38.58,38.50,38.45,38.50,38.46,38.42,38.44,38.51,38.52,38.56,38.63,38.63,38.69,38.66,38.62,38.59,38.45,38.36,38.28,38.20,38.13,38.05,37.98,37.90,37.82,37.74,37.72,37.75,37.80,37.80,37.81,37.82,37.84,37.90,37.92,37.92,37.92,37.92,37.92,37.92,37.92,37.93,37.99,38.01,38.01,38.01,38.01,38.01,38.01,37.97,37.90,37.84,37.81,37.77,37.72,37.71,37.70,37.75,37.83,37.90,37.98,38.05,38.13,38.21,38.30,38.38,38.46,38.53,38.61,38.69,38.81,38.93,39.01,39.09,39.16,39.23,39.32,39.40,39.48,39.55,39.61,39.63,39.69,39.87,41.46,44.81,48.61,51.58,53.91,55.94,58.08,60.53,64.36,68.78,73.39,78.69,82.18,85.05,87.70,89.80,91.78,92.30,91.70,90.48,88.90,86.75,84.84,83.07,80.30,81.21,84.91,89.34,92.00,93.94,95.83,97.48,98.91,101.06,103.65,106.23,108.80,111.67,114.62,117.28,119.71,122.11,124.72,127.34,130.04,133.15,137.25,138.95,136.76,131.67,125.62,120.32,117.12,114.42,111.02,107.61,105.29,105.29,107.69,111.34,114.02,115.04,113.74,109.74,107.45,105.98,104.68,103.38,102.33,101.35,100.38,99.44,98.72,98.31,98.70,100.03,102.45,105.34,108.42,110.51,111.56,112.62,113.44,113.13,112.09,110.95,109.49
37.40,37.21,37.02,36.84,36.67,36.42,36.22,36.08,36.01,36.00,36.00,36.02,36.05,36.05,36.08,36.12,36.14,36.14,36.14,36.19,36.27,36.33,36.34,36.41,36.46,36.50,36.54,36.61,36.69,36.75,36.79,36.83,36.87,36.89,36.91,36.98,36.99,37.01,37.05,37.09,37.09,37.14,37.22,37.30,37.37,37.45,37.53,37.59,37.64,37.68,37.73,37.81,37.89,37.97,38.07,38.18,38.30,38.38,38.45,38.57,38.71,38.79,38.86,38.94,39.04,39.18,39.23,39.27,39.31,39.35,39.38,39.39,39.39,39.38,39.34,39.30,39.29,39.26,39.19,39.11,39.01,38.91,38.81,38.66,38.50,38.39,38.32,38.26,38.28,38.27,38.25,38.26,38.33,38.34,38.39,38.45,38.45,38.52,38.52,38.50,38.47,38.33,38.24,38.16,38.09,38.05,37.97,37.91,37.83,37.75,37.67,37.64,37.66,37.69,37.70,37.73,37.74,37.76,37.79,37.80,37.80,37.80,37.80,37.84,37.84,37.84,37.85,37.89,37.90,37.90,37.90,37.90,37.90,37.90,37.88,37.83,37.77,37.74,37.70,37.64,37.61,37.63,37.69,37.78,37.86,37.93,38.00,38.08,38.17,38.24,38.35,38.45,38.52,38.60,38.68,38.78,38.88,38.95,39.03,39.11,39.19,39.27,39.34,39.42,39.50,39.55,39.56,39.67,39.76,41.08,44.09,47.95,51.00,53.30,55.22,57.18,59.58,63.03,67.04,71.53,77.22,81.20,84.33,87.06,89.42,91.03,91.02,89.95,88.43,86.72,84.46,82.07,79.81,78.18,80.49,84.52,88.54,91.01,92.83,94.88,97.05,99.22,101.76,104.68,107.28,109.46,111.68,114.25,116.74,119.14,121.62,124.33,127.08,130.03,133.49,137.74,140.28,139.31,135.25,129.34,124.23,120.76,117.86,114.71,111.46,109.96,110.38,112.49,115.56,117.87,118.95,118.14,114.65,110.66,108.27,106.72,105.56,104.65,103.67,102.67,101.67,100.72,99.94,99.88,100.91,103.32,106.13,108.98,111.09,112.38,113.41,114.23,113.92,112.82,111.47,109.75
37.56,37.36,37.16,37.01,36.84,36.57,36.35,36.20,36.06,36.05,36.05,36.06,36.07,36.07,36.08,36.08,36.07,36.06,36.06,36.09,36.15,36.18,36.17,36.22,36.27,36.28,36.36,36.43,36.50,36.55,36.56,36.63,36.65,36.65,36.67,36.74,36.75,36.79,36.85,36.85,36.85,36.90,36.98,37.05,37.13,37.21,37.29,37.36,37.44,37.46,37.51,37.58,37.65,37.73,37.80,37.91,38.05,38.14,38.21,38.33,38.47,38.54,38.62,38.70,38.80,38.92,38.95,39.00,39.04,39.07,39.14,39.15,39.15,39.15,39.14,39.09,39.06,39.02,38.95,38.87,38.79,38.71,38.62,38.48,38.33,38.22,38.14,38.08,38.07,38.07,38.07,38.09,38.15,38.17,38.21,38.27,38.28,38.34,38.37,38.38,38.36,38.22,38.13,38.05,37.99,37.97,37.91,37.83,37.75,37.67,37.60,37.58,37.58,37.59,37.59,37.65,37.68,37.68,37.69,37.69,37.69,37.69,37.70,37.76,37.77,37.77,37.77,37.78,37.78,37.78,37.78,37.79,37.79,37.79,37.78,37.76,37.70,37.68,37.64,37.57,37.52,37.58,37.65,37.73,37.81,37.88,37.96,38.04,38.12,38.20,38.32,38.43,38.51,38.58,38.67,38.75,38.82,38.91,38.99,39.06,39.14,39.22,39.29,39.36,39.44,39.49,39.52,39.66,39.76,40.86,43.52,47.39,50.53,52.94,54.90,56.84,59.34,62.38,65.86,70.06,75.81,80.22,83.56,86.24,88.59,89.62,89.27,88.06,86.38,84.62,82.40,79.64,77.05,77.02,80.42,84.37,87.73,90.07,91.98,94.34,97.13,100.17,103.15,106.39,108.98,110.77,112.36,114.49,116.69,118.96,121.47,124.23,127.03,130.09,133.65,137.67,140.87,141.35,138.79,133.31,128.51,124.69,121.53,118.73,115.77,115.02,115.62,117.17,119.64,121.87,123.07,122.70,119.86,114.45,110.95,108.96,107.89,107.00,106.02,105.02,103.97,102.82,101.85,101.54,102.37,104.66,107.33,109.83,111.85,113.33,114.38,115.24,115.01,113.93,112.31,110.20
37.68,37.51,37.34,37.18,36.97,36.73,36.53,36.38,36.24,36.27,36.29,36.31,36.36,36.36,36.41,36.41,36.35,36.30,36.29,36.27,36.21,36.12,36.01,36.04,36.09,36.10,36.17,36.25,36.30,36.31,36.32,36.39,36.41,36.43,36.48,36.51,36.51,36.55,36.61,36.61,36.61,36.66,36.73,36.81,36.89,36.97,37.04,37.12,37.20,37.26,37.33,37.39,37.42,37.48,37.56,37.67,37.81,37.89,37.97,38.09,38.22,38.30,38.38,38.46,38.54,38.63,38.70,38.73,38.76,38.82,38.89,38.91,38.91,38.91,38.91,38.89,38.85,38.78,38.70,38.63,38.55,38.47,38.39,38.29,38.14,38.03,37.95,37.89,37.89,37.89,37.91,37.96,37.98,38.03,38.06,38.10,38.15,38.17,38.22,38.25,38.24,38.15,38.06,37.99,37.92,37.86,37.79,37.71,37.63,37.55,37.48,37.45,37.48,37.52,37.53,37.55,37.56,37.57,37.62,37.63,37.63,37.63,37.63,37.65,37.66,37.66,37.66,37.66,37.66,37.66,37.67,37.72,37.73,37.73,37.70,37.65,37.63,37.58,37.55,37.52,37.51,37.57,37.65,37.73,37.80,37.88,37.96,38.04,38.11,38.19,38.28,38.38,38.45,38.53,38.61,38.69,38.78,38.91,38.99,39.06,39.14,39.20,39.23,39.30,39.38,39.45,39.52,39.66,39.76,40.65,42.92,46.76,50.19,52.96,55.26,57.42,59.89,62.83,66.02,69.66,74.84,79.31,82.68,85.03,86.58,86.74,86.32,85.53,84.23,82.51,80.12,77.09,74.61,76.28,80.14,83.77,86.75,89.46,92.19,95.03,98.02,101.16,104.27,107.59,110.22,112.07,113.73,115.61,117.49,119.52,122.01,124.85,127.70,130.70,133.95,137.38,140.48,142.10,141.60,138.05,133.17,128.85,125.45,122.89,120.41,119.89,120.43,121.72,124.00,126.24,127.40,126.86,123.83,119.35,114.92,111.95,110.69,109.43,108.37,107.37,106.29,105.05,104.03,104.06,105.04,106.91,109.30,111.30,112.84,114.07,115.38,116.38,116.55,115.75,113.78,110.90
37.84,37.69,37.52,37.33,37.13,36.89,36.73,36.61,36.55,36.58,36.60,36.63,36.69,36.70,36.76,36.76,36.68,36.61,36.60,36.56,36.47,36.33,36.19,36.16,36.14,36.11,36.13,36.16,36.15,36.13,36.11,36.16,36.17,36.20,36.27,36.27,36.27,36.31,36.37,36.37,36.39,36.45,36.52,36.58,36.65,36.73,36.80,36.88,36.96,37.04,37.11,37.18,37.20,37.27,37.34,37.43,37.57,37.65,37.73,37.84,37.98,38.06,38.14,38.22,38.29,38.37,38.42,38.46,38.49,38.55,38.62,38.66,38.67,38.67,38.67,38.67,38.62,38.54,38.46,38.39,38.31,38.23,38.15,38.08,37.95,37.86,37.77,37.71,37.70,37.70,37.73,37.80,37.80,37.86,37.91,37.92,37.99,38.01,38.05,38.11,38.09,38.04,37.98,37.90,37.82,37.74,37.66,37.59,37.51,37.44,37.38,37.37,37.39,37.43,37.44,37.45,37.47,37.48,37.52,37.53,37.53,37.53,37.53,37.53,37.53,37.55,37.56,37.56,37.56,37.56,37.58,37.63,37.63,37.63,37.61,37.57,37.54,37.49,37.45,37.44,37.47,37.54,37.61,37.69,37.78,37.84,37.92,38.00,38.08,38.16,38.23,38.33,38.42,38.50,38.58,38.65,38.75,38.87,38.95,39.03,39.09,39.14,39.17,39.26,39.35,39.44,39.54,39.67,39.76,40.38,42.17,45.96,49.60,52.64,55.24,57.72,60.25,63.16,66.22,69.57,74.27,78.53,81.60,83.39,84.01,83.40,82.75,82.15,81.24,79.68,77.03,74.08,72.47,75.69,80.00,83.63,86.71,90.02,93.36,96.46,99.44,102.42,105.56,108.63,111.03,112.79,114.50,116.22,117.92,119.83,122.23,125.06,127.83,130.73,133.87,137.06,139.70,141.68,142.54,141.14,137.91,134.38,130.87,127.51,124.83,124.30,124.82,126.11,128.59,131.29,132.76,132.22,128.79,123.81,118.74,115.18,113.50,111.89,110.78,109.71,108.53,107.26,106.28,106.44,107.43,109.01,111.03,112.78,114.19,115.39,116.69,117.67,118.10,117.75,115.97,111.77
38.02,37.86,37.67,37.46,37.29,37.08,36.94,36.90,36.94,36.96,36.96,36.99,37.05,37.06,37.12,37.12,37.04,36.97,36.96,36.95,36.90,36.76,36.66,36.54,36.42,36.29,36.23,36.17,36.10,36.03,35.97,35.97,35.97,35.99,36.05,36.06,36.05,36.09,36.14,36.14,36.20,36.27,36.32,36.34,36.41,36.48,36.56,36.64,36.72,36.79,36.87,36.95,37.02,37.09,37.12,37.19,37.32,37.41,37.49,37.61,37.74,37.82,37.90,37.98,38.05,38.12,38.13,38.19,38.23,38.26,38.33,38.40,38.42,38.43,38.43,38.43,38.38,38.30,38.22,38.14,38.07,37.99,37.91,37.83,37.75,37.67,37.59,37.53,37.52,37.52,37.55,37.62,37.63,37.69,37.73,37.74,37.81,37.83,37.88,37.92,37.92,37.91,37.85,37.78,37.70,37.62,37.55,37.47,37.39,37.32,37.30,37.30,37.31,37.31,37.32,37.37,37.40,37.40,37.41,37.41,37.41,37.41,37.41,37.41,37.41,37.45,37.50,37.50,37.50,37.50,37.50,37.51,37.51,37.52,37.51,37.49,37.43,37.41,37.37,37.33,37.41,37.48,37.56,37.64,37.72,37.79,37.87,37.95,38.02,38.10,38.18,38.30,38.42,38.49,38.58,38.65,38.73,38.81,38.89,38.97,39.02,39.04,39.12,39.25,39.35,39.45,39.59,39.68,39.76,40.06,41.32,45.02,48.79,52.01,54.85,57.69,60.40,63.32,66.36,69.67,73.91,77.72,80.23,81.26,80.90,79.64,78.65,78.04,77.51,76.22,73.33,70.83,70.71,75.31,80.06,84.01,87.58,91.60,95.27,98.43,101.23,103.91,107.00,109.56,111.51,113.07,114.77,116.41,118.08,119.94,122.24,124.97,127.55,130.33,133.45,136.57,138.41,140.02,141.50,142.23,141.98,140.33,137.02,132.31,129.07,128.28,128.75,130.20,133.14,136.61,138.64,138.28,134.40,127.84,122.41,118.63,116.31,114.37,113.20,112.01,110.67,109.42,108.56,108.69,109.54,110.93,112.59,114.28,115.83,117.19,118.27,119.07,119.63,119.82,118.59,112.73
38.16,37.99,37.82,37.63,37.44,37.31,37.24,37.24,37.31,37.32,37.35,37.38,37.42,37.46,37.50,37.48,37.41,37.38,37.33,37.32,37.30,37.22,37.10,36.96,36.80,36.66,36.59,36.51,36.42,36.35,36.28,36.23,36.19,36.16,36.15,36.11,36.08,36.05,36.04,36.00,35.99,36.04,36.09,36.10,36.17,36.24,36.32,36.40,36.48,36.55,36.63,36.71,36.79,36.86,36.91,36.98,37.09,37.17,37.25,37.37,37.50,37.58,37.66,37.73,37.80,37.84,37.88,37.91,37.95,37.99,38.03,38.10,38.15,38.19,38.19,38.19,38.14,38.06,37.98,37.90,37.83,37.75,37.67,37.59,37.52,37.47,37.41,37.35,37.34,37.34,37.38,37.44,37.45,37.50,37.55,37.56,37.63,37.68,37.72,37.76,37.79,37.79,37.73,37.66,37.58,37.50,37.42,37.35,37.27,37.20,37.19,37.19,37.21,37.24,37.25,37.28,37.29,37.29,37.29,37.29,37.32,37.34,37.34,37.34,37.34,37.37,37.39,37.39,37.39,37.39,37.39,37.39,37.39,37.42,37.43,37.39,37.35,37.31,37.27,37.27,37.34,37.42,37.52,37.63,37.70,37.78,37.86,37.94,38.01,38.09,38.17,38.26,38.36,38.44,38.53,38.61,38.67,38.75,38.83,38.91,38.97,39.02,39.11,39.25,39.35,39.45,39.59,39.68,39.76,39.92,40.84,44.18,47.90,51.23,54.20,57.11,59.91,62.91,65.97,69.10,72.66,75.67,77.30,77.51,76.73,75.25,74.14,73.56,73.29,72.39,70.14,69.06,70.83,75.92,81.08,85.59,89.59,93.36,96.74,99.84,102.80,105.69,108.53,110.53,112.15,113.72,115.47,117.02,118.57,120.45,122.97,125.65,128.18,130.63,132.81,134.06,134.72,135.16,135.65,136.53,137.81,138.17,137.28,135.18,133.29,131.75,131.29,132.38,135.40,138.65,140.59,140.68,137.92,131.45,126.26,122.25,119.13,116.86,115.34,113.89,112.42,111.30,110.65,110.77,111.53,112.85,114.33,115.92,117.48,118.86,119.77,120.47,120.95,120.98,119.42,113.24
38.30,38.13,37.97,37.80,37.61,37.58,37.58,37.60,37.67,37.68,37.73,37.78,37.80,37.86,37.88,37.84,37.78,37.78,37.72,37.69,37.68,37.66,37.53,37.39,37.24,37.10,37.02,36.94,36.86,36.78,36.70,36.63,36.56,36.48,36.41,36.33,36.26,36.18,36.10,36.02,35.93,35.92,35.94,35.94,35.99,36.03,36.09,36.16,36.23,36.31,36.39,36.47,36.54,36.62,36.70,36.77,36.85,36.93,37.01,37.11,37.24,37.33,37.41,37.48,37.54,37.55,37.62,37.64,37.67,37.73,37.75,37.81,37.88,37.94,37.95,37.95,37.89,37.82,37.74,37.66,37.60,37.52,37.45,37.36,37.29,37.26,37.22,37.17,37.16,37.17,37.20,37.26,37.27,37.33,37.36,37.39,37.46,37.53,37.55,37.59,37.65,37.66,37.61,37.55,37.47,37.39,37.31,37.24,37.16,37.09,37.09,37.09,37.11,37.17,37.17,37.18,37.19,37.19,37.19,37.19,37.23,37.27,37.27,37.27,37.27,37.27,37.27,37.27,37.28,37.29,37.29,37.29,37.29,37.34,37.34,37.29,37.27,37.22,37.19,37.22,37.30,37.37,37.49,37.61,37.69,37.77,37.84,37.92,38.00,38.08,38.16,38.23,38.31,38.40,38.48,38.55,38.63,38.69,38.78,38.86,38.94,39.02,39.11,39.25,39.35,39.45,39.58,39.67,39.75,39.83,40.51,43.38,47.00,50.41,53.47,56.39,59.24,62.26,65.28,68.19,71.03,72.92,73.55,73.09,72.06,70.56,69.48,69.03,69.10,68.84,67.77,68.31,71.57,76.63,82.06,87.16,91.56,94.90,97.85,100.86,104.00,107.14,109.77,111.42,112.91,114.58,116.38,117.86,119.40,121.38,124.02,126.37,128.43,130.14,131.06,130.30,129.95,129.42,128.93,129.47,131.34,133.14,134.52,135.22,134.81,132.92,131.71,132.28,135.09,138.10,140.13,140.92,139.69,134.64,130.07,125.96,122.19,119.39,117.35,115.59,114.09,113.10,112.62,112.77,113.49,114.76,116.13,117.61,119.12,120.44,121.25,121.87,122.08,121.68,119.73,113.90
38.47,38.30,38.15,38.00,37.89,37.92,37.94,37.96,38.03,38.04,38.10,38.14,38.15,38.22,38.24,38.20,38.14,38.14,38.12,38.08,38.04,38.03,37.94,37.84,37.72,37.58,37.50,37.42,37.31,37.20,37.12,37.10,37.04,36.96,36.88,36.80,36.73,36.65,36.57,36.48,36.31,36.18,36.10,36.05,36.01,35.93,35.89,35.92,35.99,36.07,36.15,36.23,36.30,36.38,36.46,36.54,36.61,36.69,36.77,36.86,36.94,37.02,37.11,37.17,37.25,37.30,37.33,37.37,37.41,37.44,37.50,37.57,37.62,37.65,37.70,37.70,37.65,37.58,37.50,37.42,37.39,37.34,37.27,37.19,37.11,37.05,37.00,36.98,36.98,37.02,37.06,37.09,37.14,37.17,37.21,37.26,37.28,37.36,37.38,37.41,37.47,37.48,37.51,37.48,37.41,37.33,37.25,37.18,37.11,37.03,37.02,37.02,37.04,37.05,37.05,37.10,37.13,37.13,37.13,37.13,37.14,37.15,37.15,37.15,37.15,37.15,37.15,37.16,37.20,37.23,37.23,37.23,37.23,37.24,37.24,37.22,37.16,37.14,37.16,37.22,37.30,37.37,37.46,37.55,37.64,37.70,37.78,37.86,37.94,38.02,38.09,38.17,38.27,38.39,38.48,38.55,38.61,38.64,38.72,38.84,38.94,39.02,39.11,39.25,39.35,39.43,39.53,39.61,39.69,39.79,40.36,42.60,46.10,49.58,52.75,55.66,58.43,61.23,64.05,66.77,68.94,68.85,68.33,67.81,66.61,65.36,64.66,64.65,65.43,66.44,67.63,69.64,72.78,76.91,82.22,87.75,92.56,95.54,98.24,101.11,104.22,107.39,110.00,112.02,113.89,115.76,117.53,119.08,121.03,123.31,125.53,126.61,126.83,126.64,125.94,124.16,123.64,123.36,123.14,123.35,123.94,125.30,126.81,127.80,127.80,127.19,126.50,126.45,128.44,131.89,135.05,137.15,137.57,136.79,133.66,129.82,126.00,122.03,119.13,117.12,115.74,114.84,114.42,114.61,115.37,116.67,118.00,119.37,120.69,121.86,122.72,123.25,122.76,121.62,119.84,115.38
38.61,38.45,38.31,38.20,38.18,38.23,38.29,38.33,38.39,38.40,38.46,38.52,38.55,38.59,38.60,38.56,38.51,38.50,38.50,38.45,38.40,38.39,38.35,38.28,38.17,38.03,37.95,37.88,37.77,37.65,37.58,37.55,37.48,37.41,37.33,37.26,37.17,37.09,37.03,36.93,36.75,36.57,36.45,36.37,36.29,36.18,36.07,36.01,36.00,36.00,35.99,35.98,36.06,36.14,36.22,36.29,36.37,36.45,36.52,36.60,36.68,36.76,36.83,36.90,36.95,37.03,37.05,37.10,37.14,37.17,37.25,37.31,37.35,37.38,37.45,37.49,37.45,37.37,37.30,37.22,37.20,37.16,37.09,37.00,36.92,36.86,36.80,36.80,36.80,36.86,36.89,36.91,36.98,37.00,37.04,37.09,37.10,37.17,37.20,37.22,37.30,37.33,37.37,37.37,37.32,37.24,37.16,37.09,37.01,36.94,36.93,36.93,36.94,36.97,36.97,37.01,37.03,37.03,37.03,37.03,37.03,37.03,37.03,37.06,37.06,37.06,37.06,37.07,37.11,37.13,37.13,37.13,37.13,37.13,37.13,37.12,37.08,37.06,37.11,37.19,37.27,37.33,37.42,37.50,37.57,37.64,37.72,37.81,37.91,37.99,38.07,38.14,38.24,38.36,38.44,38.52,38.58,38.61,38.69,38.83,38.94,39.02,39.10,39.22,39.31,39.39,39.48,39.57,39.66,39.76,40.16,41.69,45.05,48.70,52.04,54.86,57.44,60.10,62.86,65.37,66.26,65.06,63.81,63.04,62.33,62.26,62.94,64.22,65.97,67.65,69.59,71.79,74.38,77.72,83.00,88.61,93.43,96.50,99.19,101.94,104.78,107.61,110.12,112.66,114.97,116.98,118.74,120.52,122.20,123.73,124.84,124.81,123.61,121.78,119.74,118.20,117.64,117.23,116.73,116.27,116.09,116.95,118.23,119.31,119.97,120.08,119.77,119.78,121.91,126.06,129.96,132.88,134.58,136.08,135.08,132.65,129.41,125.69,122.19,119.39,117.44,116.56,116.23,116.47,117.25,118.56,119.85,121.12,122.30,123.34,124.04,123.80,122.73,121.27,119.47,115.68
38.75,38.58,38.46,38.41,38.46,38.53,38.61,38.68,38.75,38.76,38.82,38.89,38.95,38.97,38.97,38.93,38.87,38.87,38.87,38.82,38.77,38.77,38.76,38.70,38.59,38.45,38.37,38.30,38.21,38.13,38.05,37.99,37.91,37.83,37.76,37.68,37.60,37.52,37.45,37.36,37.21,37.06,36.93,36.85,36.77,36.69,36.55,36.36,36.23,36.10,35.92,35.80,35.87,35.93,35.99,36.06,36.13,36.21,36.28,36.36,36.44,36.52,36.59,36.63,36.66,36.73,36.80,36.83,36.87,36.93,37.01,37.03,37.08,37.14,37.23,37.29,37.26,37.19,37.11,37.03,37.01,36.98,36.91,36.83,36.75,36.67,36.61,36.61,36.62,36.67,36.72,36.73,36.80,36.82,36.86,36.92,36.93,37.00,37.02,37.05,37.13,37.19,37.22,37.22,37.20,37.13,37.05,36.97,36.89,36.82,36.81,36.81,36.84,36.89,36.90,36.91,36.91,36.91,36.91,36.91,36.91,36.91,36.92,36.98,37.00,37.00,37.00,37.00,37.01,37.01,37.01,37.02,37.02,37.02,37.02,37.02,37.01,37.01,37.05,37.13,37.21,37.28,37.36,37.44,37.52,37.59,37.67,37.78,37.91,37.98,38.06,38.14,38.22,38.30,38.39,38.46,38.53,38.61,38.69,38.82,38.94,39.02,39.09,39.18,39.26,39.34,39.42,39.56,39.66,39.74,39.93,40.71,43.92,47.77,51.31,54.00,56.37,58.95,61.72,63.90,63.15,61.54,59.99,59.03,59.38,61.14,63.85,66.89,69.69,71.60,73.16,74.66,76.42,79.21,84.40,89.66,94.15,97.61,100.46,103.08,105.54,107.81,110.13,113.24,116.04,118.18,119.91,121.89,122.76,122.73,122.22,121.17,118.96,115.87,112.87,112.42,111.92,111.10,109.97,108.67,108.18,108.55,109.40,110.53,112.01,112.37,112.34,112.94,115.91,120.83,125.06,128.30,130.91,133.11,134.56,134.28,132.13,129.81,126.14,122.35,119.37,118.32,118.06,118.35,119.14,120.42,121.67,122.85,123.95,124.83,125.12,123.68,122.14,120.67,118.67,115.02
38.91,38.78,38.70,38.68,38.72,38.78,38.86,38.95,39.06,39.11,39.18,39.26,39.32,39.33,39.33,39.31,39.27,39.23,39.23,39.21,39.17,39.13,39.13,39.10,39.03,38.92,38.80,38.72,38.63,38.57,38.53,38.46,38.38,38.31,38.23,38.15,38.07,38.00,37.91,37.79,37.68,37.57,37.45,37.34,37.26,37.18,37.05,36.87,36.71,36.52,36.33,36.17,36.13,36.04,35.98,35.93,35.90,35.97,36.04,36.12,36.20,36.27,36.31,36.35,36.41,36.48,36.56,36.58,36.62,36.69,36.77,36.82,36.88,36.95,37.03,37.07,37.06,37.00,36.93,36.86,36.80,36.77,36.72,36.64,36.56,36.49,36.44,36.44,36.48,36.52,36.55,36.59,36.63,36.67,36.71,36.75,36.79,36.83,36.86,36.92,37.00,37.07,37.09,37.11,37.13,37.05,36.97,36.87,36.77,36.70,36.73,36.74,36.76,36.79,36.79,36.79,36.81,36.84,36.84,36.84,36.84,36.84,36.85,36.88,36.89,36.89,36.89,36.89,36.89,36.89,36.90,36.94,36.95,36.95,36.95,36.95,36.95,36.98,37.04,37.12,37.20,37.27,37.35,37.43,37.51,37.58,37.66,37.75,37.86,37.94,38.02,38.09,38.17,38.25,38.33,38.40,38.49,38.61,38.69,38.79,38.89,38.97,39.05,39.16,39.25,39.33,39.41,39.52,39.61,39.70,39.85,40.29,43.13,46.81,50.38,53.17,55.75,58.40,60.63,61.61,60.18,58.37,57.63,58.28,60.17,63.45,66.86,69.99,72.68,74.90,76.90,78.48,80.03,83.16,86.88,90.53,94.10,97.64,100.36,102.80,105.30,107.84,109.84,112.96,116.21,118.88,120.30,121.22,120.76,119.38,117.54,115.09,112.33,109.43,106.98,106.59,106.21,105.52,104.54,103.42,102.89,103.03,104.00,105.88,107.86,108.48,108.73,109.74,113.20,117.87,121.37,124.06,126.88,129.45,131.34,131.94,131.21,130.50,128.97,126.42,123.28,120.57,120.03,120.39,121.19,122.34,123.49,124.65,125.67,126.13,125.11,123.18,121.40,119.63,117.29,114.22
39.09,39.00,38.96,38.96,38.98,39.04,39.12,39.21,39.35,39.43,39.51,39.60,39.68,39.70,39.70,39.69,39.67,39.60,39.59,39.59,39.56,39.51,39.49,39.49,39.46,39.38,39.24,39.15,39.07,39.02,39.00,38.92,38.85,38.78,38.70,38.63,38.56,38.47,38.37,38.23,38.15,38.07,37.97,37.84,37.76,37.68,37.56,37.41,37.25,37.03,36.84,36.69,36.53,36.32,36.13,35.97,35.84,35.87,35.90,35.93,35.97,36.03,36.04,36.09,36.17,36.24,36.32,36.35,36.39,36.47,36.55,36.61,36.68,36.76,36.83,36.84,36.84,36.82,36.75,36.67,36.59,36.55,36.54,36.47,36.38,36.30,36.26,36.27,36.34,36.36,36.39,36.45,36.46,36.52,36.56,36.59,36.65,36.67,36.72,36.80,36.88,36.94,36.96,37.01,37.05,36.98,36.90,36.78,36.66,36.60,36.65,36.67,36.67,36.69,36.69,36.69,36.72,36.77,36.77,36.77,36.77,36.77,36.77,36.77,36.77,36.78,36.79,36.79,36.79,36.79,36.80,36.86,36.87,36.87,36.87,36.87,36.89,36.94,37.03,37.11,37.18,37.25,37.33,37.42,37.49,37.56,37.64,37.72,37.80,37.89,37.97,38.04,38.11,38.20,38.28,38.35,38.46,38.59,38.69,38.76,38.84,38.92,39.00,39.13,39.23,39.31,39.39,39.47,39.55,39.66,39.80,40.06,42.41,45.76,49.23,52.11,54.81,57.34,58.93,58.83,57.22,55.92,56.42,58.72,61.94,66.27,69.88,72.71,75.11,77.53,80.17,82.28,84.13,87.50,89.76,91.90,94.47,97.65,99.99,102.32,105.02,107.97,109.91,113.00,116.25,118.78,119.44,118.98,117.27,114.94,112.35,108.81,105.63,103.04,101.28,100.68,100.45,100.06,99.51,98.98,98.69,98.92,100.16,102.60,104.76,105.60,106.29,107.84,111.47,115.47,118.12,120.18,122.82,125.51,127.40,128.42,128.72,129.09,129.50,128.53,125.93,122.31,121.67,122.25,123.23,124.33,125.42,126.50,127.30,127.21,125.04,122.70,120.67,118.60,116.02,113.47
39.32,39.24,39.20,39.21,39.27,39.34,39.42,39.50,39.60,39.68,39.75,39.88,40.05,40.11,40.08,40.05,40.03,39.96,39.95,39.95,39.95,39.92,39.86,39.85,39.84,39.81,39.71,39.63,39.56,39.48,39.42,39.35,39.28,39.20,39.13,39.10,39.04,38.93,38.80,38.71,38.63,38.55,38.47,38.38,38.30,38.22,38.11,37.95,37.80,37.58,37.39,37.23,37.08,36.91,36.70,36.49,36.30,36.19,36.05,35.90,35.78,35.80,35.80,35.85,35.92,36.00,36.08,36.14,36.20,36.28,36.36,36.39,36.44,36.52,36.59,36.60,36.60,36.59,36.56,36.50,36.41,36.38,36.36,36.28,36.20,36.13,36.08,36.08,36.16,36.17,36.20,36.27,36.28,36.34,36.41,36.45,36.48,36.53,36.60,36.68,36.75,36.77,36.82,36.89,36.94,36.86,36.78,36.69,36.61,36.54,36.55,36.55,36.58,36.62,36.63,36.63,36.63,36.65,36.65,36.65,36.65,36.65,36.65,36.65,36.65,36.68,36.73,36.73,36.73,36.73,36.73,36.75,36.75,36.75,36.75,36.76,36.82,36.89,36.97,37.05,37.12,37.19,37.28,37.36,37.43,37.50,37.58,37.67,37.75,37.88,37.97,38.01,38.07,38.19,38.28,38.35,38.44,38.54,38.68,38.76,38.84,38.92,39.00,39.09,39.17,39.25,39.33,39.41,39.52,39.64,39.75,40.00,41.64,44.43,47.63,50.33,52.60,54.35,55.31,55.16,54.17,55.43,57.70,60.48,64.02,68.23,71.46,73.98,76.35,78.61,81.89,85.40,88.61,91.21,93.11,94.89,96.66,98.31,99.76,102.22,105.31,108.56,111.37,114.60,116.52,116.62,115.34,113.46,111.09,108.85,107.03,103.66,100.05,97.17,95.42,94.56,94.48,94.56,94.76,95.36,95.94,97.07,98.69,100.61,102.19,103.11,104.70,107.32,110.42,113.21,115.35,117.10,118.90,121.20,123.18,124.14,123.98,123.75,123.92,123.95,123.44,122.16,122.17,123.42,125.08,126.53,127.64,128.47,128.63,127.78,125.52,122.52,120.07,117.93,115.47,112.98
39.56,39.50,39.47,39.49,39.54,39.63,39.92,40.19,40.06,40.17,40.31,40.43,40.51,40.51,40.45,40.40,40.36,40.32,40.31,40.30,40.27,40.27,40.22,40.19,40.17,40.16,40.09,40.01,39.94,39.86,39.81,39.74,39.68,39.62,39.55,39.55,39.48,39.38,39.27,39.19,39.11,39.03,38.96,38.88,38.80,38.72,38.63,38.49,38.31,38.11,37.93,37.77,37.62,37.47,37.26,37.03,36.81,36.65,36.43,36.20,35.99,35.86,35.79,35.77,35.77,35.80,35.85,35.92,35.99,36.07,36.14,36.18,36.23,36.31,36.35,36.39,36.39,36.39,36.38,36.31,36.23,36.18,36.15,36.10,36.02,35.95,35.90,35.94,35.98,36.02,36.05,36.09,36.13,36.19,36.26,36.30,36.34,36.40,36.48,36.55,36.59,36.62,36.69,36.75,36.78,36.73,36.66,36.58,36.51,36.44,36.46,36.47,36.49,36.52,36.53,36.53,36.53,36.53,36.53,36.56,36.56,36.56,36.56,36.56,36.56,36.59,36.63,36.63,36.63,36.63,36.63,36.63,36.66,36.66,36.68,36.71,36.79,36.86,36.94,37.02,37.09,37.17,37.25,37.33,37.41,37.48,37.56,37.64,37.72,37.85,37.94,37.98,38.04,38.16,38.27,38.35,38.43,38.52,38.64,38.72,38.80,38.89,38.96,39.03,39.13,39.23,39.30,39.38,39.50,39.60,39.69,39.88,40.79,42.89,45.61,48.05,50.05,51.32,52.09,52.66,53.62,56.31,59.46,62.69,66.29,69.71,72.38,74.64,76.86,78.86,82.07,86.16,90.41,93.19,95.47,97.48,99.22,100.56,101.70,104.11,107.17,110.14,112.34,114.07,114.30,113.02,111.02,108.48,105.90,103.79,102.13,98.26,94.68,91.92,90.11,89.09,89.10,89.91,91.20,92.63,93.79,95.36,97.09,98.69,99.95,101.12,103.24,106.26,108.96,110.96,112.55,113.92,115.17,116.67,118.06,118.62,118.28,118.30,118.85,119.55,120.10,120.31,121.03,122.58,124.41,126.17,128.11,130.02,130.17,128.19,125.07,121.72,119.25,117.32,115.17,112.74
39.85,39.83,39.83,39.85,39.92,40.11,40.71,41.18,40.72,40.86,41.08,41.14,41.03,40.90,40.81,40.74,40.68,40.67,40.67,40.63,40.58,40.58,40.57,40.52,40.48,40.46,40.38,40.30,40.23,40.17,40.16,40.09,40.06,40.02,39.96,39.95,39.89,39.81,39.73,39.66,39.58,39.50,39.43,39.36,39.27,39.21,39.13,39.02,38.80,38.63,38.48,38.32,38.16,38.01,37.81,37.57,37.35,37.19,36.98,36.75,36.49,36.16,35.97,35.83,35.72,35.66,35.66,35.70,35.77,35.84,35.91,35.98,36.05,36.11,36.13,36.19,36.21,36.21,36.20,36.13,36.05,35.98,35.92,35.91,35.84,35.77,35.73,35.80,35.82,35.87,35.91,35.93,36.00,36.07,36.11,36.14,36.21,36.28,36.36,36.41,36.43,36.49,36.57,36.61,36.62,36.61,36.55,36.47,36.39,36.34,36.38,36.40,36.40,36.41,36.41,36.41,36.41,36.41,36.42,36.47,36.50,36.50,36.50,36.50,36.50,36.50,36.51,36.52,36.52,36.52,36.52,36.52,36.59,36.61,36.63,36.70,36.78,36.85,36.94,37.02,37.09,37.16,37.24,37.33,37.40,37.48,37.55,37.63,37.71,37.80,37.88,37.95,38.02,38.12,38.25,38.34,38.42,38.51,38.59,38.67,38.75,38.83,38.90,38.97,39.10,39.23,39.30,39.38,39.46,39.54,39.62,39.72,39.98,41.31,43.43,45.58,47.44,48.53,49.54,51.35,54.95,58.22,61.58,65.17,68.59,70.84,72.84,74.86,76.82,78.52,81.15,85.20,90.20,93.81,97.00,99.65,101.86,103.72,105.03,107.25,109.87,112.01,112.48,111.65,110.11,108.26,106.49,103.94,101.47,99.45,97.48,92.77,89.54,87.18,85.30,84.27,84.39,86.09,88.60,90.56,92.06,93.72,95.37,96.79,97.98,99.55,101.92,104.81,107.16,108.67,109.75,110.70,111.61,112.10,112.48,112.43,112.13,112.91,114.23,115.34,116.19,117.17,118.53,120.05,121.71,123.78,126.97,130.79,131.42,128.25,123.87,120.47,118.30,116.73,115.00,112.67
40.53,40.56,40.67,40.85,41.38,42.26,42.66,42.41,41.75,41.62,41.63,41.57,41.42,41.27,41.17,41.09,41.04,41.03,41.00,40.96,40.93,40.92,40.89,40.85,40.81,40.76,40.64,40.56,40.50,40.47,40.42,40.39,40.35,40.31,40.28,40.23,40.16,40.08,40.02,39.98,39.91,39.86,39.82,39.78,39.71,39.66,39.61,39.51,39.33,39.17,39.02,38.86,38.70,38.55,38.37,38.15,37.90,37.73,37.55,37.34,37.07,36.65,36.30,36.09,35.94,35.83,35.78,35.76,35.75,35.74,35.73,35.76,35.82,35.89,35.93,35.97,35.98,35.98,35.97,35.94,35.88,35.80,35.72,35.68,35.65,35.59,35.55,35.63,35.68,35.71,35.75,35.80,35.88,35.92,35.96,36.01,36.09,36.16,36.21,36.25,36.30,36.37,36.41,36.46,36.50,36.53,36.47,36.39,36.32,36.26,36.28,36.29,36.31,36.34,36.34,36.34,36.34,36.34,36.35,36.38,36.39,36.39,36.39,36.39,36.39,36.39,36.40,36.44,36.45,36.45,36.45,36.45,36.53,36.55,36.58,36.66,36.73,36.80,36.89,36.97,37.04,37.11,37.19,37.28,37.34,37.42,37.50,37.58,37.66,37.74,37.85,37.95,38.02,38.10,38.21,38.30,38.38,38.45,38.53,38.61,38.69,38.77,38.83,38.92,39.05,39.17,39.25,39.33,39.41,39.48,39.56,39.69,39.83,40.79,42.46,44.47,46.27,48.03,50.14,53.09,57.15,60.55,63.89,67.24,70.03,71.81,73.38,75.01,76.71,78.16,80.03,83.71,89.07,93.37,97.51,100.61,102.95,105.21,107.12,109.02,110.22,110.00,108.49,106.13,103.97,102.39,101.26,99.60,97.40,95.00,92.35,87.89,85.09,83.17,81.67,80.81,81.85,84.23,86.98,88.80,90.40,91.99,93.44,94.70,96.26,98.59,101.11,103.37,104.85,106.05,106.99,107.72,108.24,108.43,108.42,108.14,107.86,108.55,110.10,111.45,112.44,113.35,114.24,115.34,116.95,119.43,122.80,127.55,129.08,126.34,121.97,119.31,117.51,116.00,114.44,112.53
41.41,41.47,41.68,42.05,42.95,44.12,44.14,43.30,42.63,42.28,42.09,41.94,41.78,41.64,41.54,41.45,41.38,41.38,41.32,41.30,41.29,41.27,41.21,41.19,41.14,41.04,40.91,40.81,40.77,40.75,40.69,40.67,40.62,40.57,40.55,40.49,40.41,40.34,40.26,40.24,40.19,40.16,40.16,40.14,40.08,40.05,40.02,39.94,39.80,39.66,39.52,39.39,39.25,39.09,38.94,38.73,38.45,38.27,38.13,37.94,37.65,37.20,36.74,36.43,36.24,36.07,35.98,35.91,35.83,35.75,35.68,35.64,35.66,35.71,35.76,35.77,35.76,35.76,35.76,35.75,35.71,35.65,35.59,35.54,35.53,35.49,35.47,35.53,35.57,35.58,35.60,35.68,35.74,35.76,35.81,35.89,35.97,36.03,36.06,36.10,36.17,36.24,36.26,36.30,36.38,36.45,36.40,36.32,36.25,36.18,36.18,36.19,36.21,36.27,36.27,36.27,36.27,36.27,36.27,36.27,36.28,36.29,36.29,36.29,36.29,36.29,36.30,36.36,36.38,36.38,36.38,36.39,36.47,36.49,36.53,36.61,36.69,36.76,36.84,36.92,36.99,37.07,37.15,37.23,37.30,37.38,37.46,37.54,37.61,37.70,37.82,37.92,38.00,38.08,38.17,38.23,38.31,38.39,38.47,38.55,38.63,38.70,38.78,38.86,38.98,39.11,39.19,39.27,39.34,39.42,39.53,39.68,39.82,40.48,41.77,43.76,45.95,48.52,51.65,55.40,59.29,62.60,65.69,68.52,70.69,72.22,73.53,74.91,76.45,77.86,79.19,82.48,87.97,92.81,97.64,101.09,103.50,105.90,107.83,109.01,108.66,106.31,103.48,100.44,98.15,96.88,96.31,95.48,93.52,90.66,87.25,83.50,81.22,79.73,78.65,78.12,80.09,82.88,85.47,87.08,88.64,90.10,91.36,92.57,94.51,97.33,99.83,101.50,102.30,103.32,104.22,104.82,105.04,105.12,104.89,104.49,104.17,104.60,106.20,107.76,108.91,109.65,110.09,110.89,112.49,115.28,118.96,124.22,126.25,123.99,120.19,118.29,116.79,115.29,113.83,112.32
42.62,42.57,42.83,43.41,44.20,44.15,43.64,43.07,42.81,42.62,42.45,42.30,42.15,42.05,41.92,41.79,41.68,41.68,41.66,41.66,41.64,41.59,41.56,41.51,41.42,41.29,41.20,41.12,41.05,41.00,40.98,40.92,40.89,40.86,40.80,40.78,40.72,40.61,40.49,40.44,40.41,40.41,40.39,40.33,40.31,40.26,40.22,40.19,40.09,40.00,39.94,39.88,39.78,39.63,39.48,39.27,38.98,38.82,38.71,38.52,38.20,37.80,37.34,36.92,36.57,36.32,36.23,36.15,36.07,35.99,35.92,35.80,35.73,35.69,35.66,35.65,35.61,35.58,35.58,35.58,35.60,35.62,35.61,35.64,35.65,35.64,35.63,35.64,35.55,35.48,35.48,35.55,35.57,35.62,35.69,35.77,35.84,35.86,35.91,35.98,36.04,36.07,36.12,36.19,36.26,36.33,36.28,36.20,36.12,36.07,36.11,36.13,36.13,36.15,36.15,36.15,36.15,36.15,36.15,36.15,36.19,36.23,36.23,36.23,36.23,36.23,36.23,36.25,36.30,36.33,36.33,36.34,36.41,36.46,36.53,36.61,36.69,36.76,36.84,36.92,36.99,37.07,37.15,37.23,37.30,37.38,37.46,37.54,37.61,37.69,37.78,37.86,37.94,38.03,38.10,38.17,38.25,38.33,38.41,38.48,38.56,38.64,38.72,38.80,38.92,39.05,39.13,39.20,39.28,39.39,39.53,39.67,39.78,40.15,41.12,43.35,47.05,50.41,53.77,57.45,60.74,63.63,65.95,67.86,69.72,71.19,72.60,74.09,75.80,77.72,79.19,82.27,87.46,92.56,97.38,100.94,103.48,105.39,105.47,104.87,103.19,100.26,98.15,96.15,94.36,93.04,92.52,91.86,89.96,86.70,82.50,80.12,78.59,77.40,76.60,76.70,79.20,81.75,83.71,85.25,86.61,87.83,89.00,90.36,92.51,94.84,96.88,98.41,99.37,100.43,101.36,101.99,102.19,102.23,101.93,101.44,101.00,101.21,102.65,104.40,105.91,106.72,107.41,108.49,110.10,112.80,117.86,123.02,124.26,121.60,119.20,117.61,116.19,114.77,113.36,111.93
43.82,43.63,43.77,44.21,44.48,44.05,43.54,43.20,43.11,42.97,42.81,42.67,42.55,42.44,42.30,42.14,42.02,42.02,41.99,41.98,41.96,41.92,41.89,41.80,41.69,41.58,41.50,41.41,41.34,41.28,41.25,41.20,41.16,41.13,41.08,41.05,40.98,40.87,40.73,40.66,40.65,40.63,40.59,40.55,40.52,40.47,40.43,40.40,40.35,40.28,40.23,40.19,40.11,40.02,39.90,39.73,39.53,39.39,39.28,39.07,38.75,38.36,37.91,37.44,37.01,36.68,36.49,36.39,36.31,36.23,36.16,36.04,35.94,35.87,35.79,35.76,35.71,35.68,35.68,35.68,35.72,35.76,35.79,35.84,35.85,35.85,35.84,35.80,35.68,35.57,35.52,35.53,35.51,35.52,35.57,35.64,35.69,35.72,35.78,35.84,35.89,35.92,35.99,36.06,36.13,36.18,36.18,36.11,36.04,35.98,36.02,36.03,36.03,36.03,36.03,36.05,36.06,36.06,36.06,36.06,36.09,36.13,36.13,36.13,36.15,36.16,36.16,36.17,36.23,36.27,36.27,36.30,36.35,36.42,36.50,36.58,36.65,36.72,36.80,36.89,36.95,37.03,37.11,37.19,37.27,37.34,37.42,37.50,37.58,37.66,37.73,37.80,37.89,37.97,38.04,38.11,38.19,38.28,38.35,38.42,38.50,38.58,38.66,38.76,38.88,38.99,39.07,39.17,39.26,39.36,39.49,39.61,39.70,39.88,40.46,42.20,46.47,50.54,54.37,58.10,61.13,63.50,65.31,66.83,68.55,70.12,71.53,73.07,74.97,77.05,79.45,83.16,88.17,92.63,96.90,100.40,102.81,103.47,102.06,99.69,96.91,94.20,92.83,91.45,90.02,88.88,88.60,87.60,85.65,82.82,79.50,77.88,76.58,75.39,74.58,74.98,77.53,79.97,81.75,83.06,84.25,85.35,86.50,87.92,89.74,91.49,93.12,94.61,95.91,97.05,98.02,98.86,99.52,99.61,99.58,99.33,98.97,99.22,100.58,102.29,103.88,104.97,106.01,107.28,108.80,111.19,116.56,121.45,122.46,120.02,118.42,117.16,115.96,114.77,113.57,112.38
44.95,44.59,44.50,44.59,44.19,43.93,43.72,43.56,43.47,43.33,43.17,43.05,42.95,42.81,42.66,42.50,42.39,42.37,42.31,42.29,42.29,42.26,42.20,42.07,41.95,41.88,41.80,41.72,41.64,41.57,41.50,41.48,41.43,41.39,41.37,41.30,41.23,41.11,40.97,40.90,40.88,40.84,40.79,40.77,40.72,40.69,40.65,40.59,40.58,40.52,40.45,40.38,40.31,40.29,40.23,40.13,40.03,39.95,39.81,39.59,39.28,38.90,38.45,37.99,37.53,37.10,36.79,36.64,36.55,36.48,36.40,36.31,36.24,36.16,36.08,36.01,35.98,35.98,35.98,35.98,35.98,36.02,36.07,36.09,36.09,36.09,36.06,35.99,35.90,35.78,35.67,35.61,35.53,35.47,35.47,35.52,35.53,35.59,35.66,35.71,35.73,35.79,35.87,35.94,36.00,36.02,36.07,36.05,35.97,35.91,35.91,35.91,35.91,35.91,35.91,35.97,36.00,36.00,36.00,36.00,36.00,36.02,36.02,36.02,36.07,36.11,36.11,36.11,36.17,36.20,36.22,36.28,36.31,36.36,36.44,36.52,36.60,36.67,36.75,36.83,36.90,36.98,37.06,37.13,37.20,37.28,37.36,37.44,37.52,37.59,37.67,37.75,37.83,37.91,37.98,38.05,38.14,38.22,38.28,38.36,38.44,38.53,38.61,38.74,38.85,38.93,39.02,39.15,39.25,39.33,39.41,39.50,39.57,39.67,39.84,40.70,44.87,49.48,53.84,57.70,60.67,62.56,64.06,65.55,67.25,68.97,70.38,71.92,74.11,76.26,80.02,84.76,89.61,92.92,96.28,99.36,101.19,100.14,97.55,93.68,90.19,88.25,87.62,86.54,85.38,84.60,84.64,83.11,81.11,79.20,77.70,76.41,75.02,73.62,72.61,73.04,75.30,77.74,79.63,80.63,81.71,82.74,83.91,85.32,86.55,87.76,89.06,90.54,92.21,93.45,94.43,95.54,96.88,97.13,97.59,97.81,97.71,98.22,99.57,101.10,102.60,104.06,105.47,106.86,108.22,110.20,115.13,119.67,120.87,119.06,117.89,116.97,116.10,115.21,114.31,113.41
45.50,45.07,44.79,44.63,44.34,44.19,44.08,43.97,43.84,43.69,43.53,43.41,43.32,43.17,43.02,42.89,42.78,42.70,42.66,42.64,42.63,42.57,42.46,42.35,42.25,42.17,42.09,42.02,41.95,41.87,41.79,41.74,41.67,41.63,41.61,41.54,41.47,41.35,41.21,41.14,41.09,41.05,41.02,40.97,40.94,40.90,40.85,40.82,40.78,40.74,40.68,40.62,40.59,40.58,40.53,40.44,40.33,40.24,40.11,39.94,39.75,39.48,39.05,38.59,38.13,37.67,37.26,36.97,36.79,36.72,36.64,36.56,36.48,36.41,36.33,36.25,36.23,36.23,36.23,36.23,36.23,36.27,36.33,36.33,36.33,36.33,36.30,36.22,36.10,35.99,35.89,35.81,35.69,35.61,35.54,35.49,35.45,35.47,35.51,35.55,35.59,35.67,35.75,35.80,35.84,35.88,35.95,35.94,35.86,35.80,35.83,35.84,35.84,35.84,35.84,35.87,35.89,35.89,35.89,35.89,35.92,35.95,35.95,35.99,36.02,36.05,36.05,36.09,36.13,36.14,36.17,36.24,36.29,36.36,36.43,36.51,36.59,36.66,36.74,36.82,36.89,36.97,37.02,37.07,37.14,37.22,37.30,37.38,37.45,37.53,37.61,37.69,37.77,37.84,37.92,38.00,38.08,38.16,38.22,38.30,38.39,38.47,38.59,38.70,38.80,38.87,38.95,39.06,39.14,39.22,39.30,39.38,39.45,39.56,39.70,40.34,43.76,48.09,52.41,56.18,59.10,61.02,62.62,64.22,65.92,67.57,69.08,71.00,73.95,77.08,81.58,86.31,90.47,93.38,95.65,96.47,95.67,93.03,89.85,86.59,84.20,83.29,82.95,82.15,81.34,80.91,81.03,79.99,78.50,77.14,76.21,75.01,73.63,72.19,70.99,70.98,72.79,75.17,77.24,78.25,79.24,80.22,81.35,82.76,84.07,85.41,86.77,88.16,89.50,90.51,91.30,92.29,93.74,94.58,95.35,96.03,96.67,97.79,99.32,100.81,102.21,103.66,105.09,106.46,107.80,109.63,113.70,118.06,119.83,118.97,118.30,117.78,117.14,116.39,115.53,114.69
45.81,45.36,44.94,44.65,44.56,44.48,44.41,44.31,44.17,44.03,43.89,43.77,43.68,43.53,43.39,43.27,43.17,43.02,43.00,42.99,42.95,42.86,42.72,42.63,42.56,42.48,42.39,42.32,42.25,42.16,42.09,42.01,41.94,41.88,41.86,41.78,41.71,41.59,41.45,41.38,41.30,41.26,41.23,41.18,41.16,41.10,41.06,41.04,40.98,40.96,40.92,40.86,40.84,40.80,40.72,40.61,40.46,40.37,40.23,40.13,40.03,39.86,39.45,38.97,38.50,38.05,37.64,37.28,37.06,36.98,36.89,36.82,36.75,36.66,36.59,36.52,36.48,36.47,36.47,36.47,36.48,36.52,36.57,36.57,36.57,36.56,36.53,36.44,36.31,36.21,36.13,36.03,35.89,35.79,35.67,35.55,35.48,35.44,35.42,35.43,35.47,35.55,35.62,35.65,35.68,35.76,35.84,35.82,35.74,35.70,35.75,35.77,35.77,35.77,35.77,35.77,35.77,35.79,35.79,35.80,35.84,35.88,35.89,35.97,35.98,35.98,36.00,36.07,36.09,36.09,36.11,36.19,36.26,36.33,36.42,36.50,36.56,36.64,36.72,36.80,36.88,36.95,36.98,37.01,37.08,37.17,37.25,37.31,37.39,37.47,37.55,37.63,37.70,37.78,37.86,37.94,38.02,38.09,38.17,38.25,38.33,38.43,38.57,38.66,38.73,38.81,38.89,38.97,39.05,39.11,39.19,39.28,39.36,39.49,39.66,40.20,42.76,46.62,50.60,54.00,56.88,59.21,61.23,63.09,64.86,66.54,68.21,70.53,74.16,78.22,82.95,87.23,90.47,92.66,93.57,92.19,89.16,85.76,82.56,80.08,78.74,78.74,78.95,78.40,77.82,77.59,77.72,77.28,76.29,75.27,74.60,73.56,72.27,70.82,69.47,69.04,70.42,72.65,74.80,75.90,76.93,77.96,79.13,80.50,81.90,83.40,84.83,86.12,87.13,88.02,88.83,89.83,91.33,92.75,93.85,94.93,96.19,97.71,99.34,100.88,102.33,103.76,105.14,106.45,107.75,109.40,112.43,116.53,118.81,118.87,118.58,118.33,117.90,117.28,116.53,115.78
45.78,45.36,45.00,44.83,44.75,44.66,44.59,44.51,44.41,44.32,44.22,44.13,44.04,43.90,43.79,43.67,43.53,43.39,43.37,43.33,43.24,43.11,43.01,42.93,42.85,42.78,42.70,42.62,42.55,42.47,42.39,42.31,42.23,42.16,42.10,42.03,41.95,41.83,41.70,41.62,41.54,41.47,41.43,41.41,41.35,41.32,41.29,41.23,41.21,41.16,41.12,41.08,40.95,40.78,40.63,40.48,40.33,40.20,40.09,40.01,39.91,39.73,39.33,38.82,38.32,37.90,37.70,37.51,37.36,37.28,37.20,37.13,37.05,36.97,36.89,36.81,36.75,36.71,36.71,36.71,36.76,36.79,36.81,36.81,36.81,36.77,36.70,36.63,36.54,36.45,36.35,36.22,36.12,35.99,35.88,35.79,35.71,35.59,35.52,35.44,35.37,35.43,35.46,35.49,35.56,35.64,35.71,35.70,35.64,35.63,35.64,35.64,35.64,35.64,35.64,35.64,35.68,35.73,35.73,35.78,35.81,35.83,35.84,35.91,35.92,35.92,35.94,36.01,36.02,36.02,36.05,36.13,36.20,36.28,36.36,36.44,36.50,36.58,36.67,36.74,36.81,36.89,36.92,36.95,37.03,37.11,37.19,37.25,37.33,37.42,37.49,37.56,37.64,37.72,37.80,37.88,37.95,38.03,38.11,38.19,38.29,38.42,38.51,38.59,38.67,38.75,38.83,38.91,38.98,39.05,39.14,39.22,39.34,39.49,39.65,40.05,41.83,45.09,48.32,50.76,53.56,57.00,60.04,62.42,64.49,66.57,68.51,71.04,74.96,79.34,83.36,86.59,88.62,88.94,87.86,85.30,82.21,80.00,77.94,75.58,74.18,74.75,76.28,76.01,75.32,74.93,75.00,74.89,74.06,73.07,72.55,71.93,70.87,69.48,68.06,67.43,68.56,70.45,72.36,73.63,74.91,76.32,77.71,78.96,80.14,81.51,82.86,84.08,85.16,86.33,87.75,89.34,91.00,92.72,94.28,95.69,96.97,98.24,99.66,101.41,103.27,104.82,106.18,107.38,108.54,109.85,111.60,115.08,117.60,118.31,118.03,117.80,117.47,117.09,116.72,116.29
45.59,45.23,44.97,44.86,44.78,44.70,44.64,44.58,44.50,44.42,44.35,44.27,44.18,44.06,43.97,43.89,43.78,43.67,43.62,43.56,43.47,43.36,43.27,43.21,43.16,43.08,43.00,42.92,42.84,42.77,42.69,42.59,42.50,42.42,42.34,42.27,42.19,42.07,41.94,41.86,41.78,41.70,41.64,41.61,41.56,41.53,41.49,41.45,41.41,41.32,41.23,41.12,40.96,40.73,40.55,40.39,40.21,40.06,39.92,39.80,39.68,39.51,39.12,38.67,38.27,38.01,37.91,37.78,37.66,37.57,37.47,37.39,37.31,37.23,37.15,37.08,37.00,36.95,36.95,36.95,37.01,37.06,37.08,37.06,37.02,36.97,36.89,36.82,36.76,36.68,36.56,36.44,36.33,36.21,36.11,36.02,35.92,35.79,35.68,35.57,35.46,35.44,35.41,35.41,35.44,35.52,35.57,35.58,35.55,35.53,35.56,35.56,35.56,35.56,35.56,35.59,35.63,35.66,35.67,35.73,35.77,35.77,35.77,35.84,35.87,35.87,35.88,35.95,35.97,35.97,35.98,36.06,36.14,36.22,36.30,36.38,36.44,36.53,36.61,36.68,36.75,36.81,36.84,36.89,36.97,37.05,37.13,37.19,37.28,37.36,37.43,37.50,37.58,37.67,37.73,37.81,37.89,37.97,38.05,38.15,38.27,38.37,38.42,38.50,38.57,38.65,38.73,38.81,38.88,38.96,39.04,39.15,39.30,39.45,39.60,39.88,40.87,43.45,46.31,48.76,51.69,55.77,59.37,62.01,64.02,66.36,68.78,71.50,74.86,78.71,81.90,84.06,84.85,84.02,82.20,79.55,76.90,75.43,74.05,72.16,70.97,71.61,73.80,73.68,72.85,72.24,72.29,72.33,71.29,69.69,68.46,68.38,67.77,66.90,66.22,66.29,67.48,69.12,70.77,72.09,73.42,74.93,76.39,77.60,78.72,79.98,81.27,82.57,84.01,85.59,87.37,89.22,91.02,92.92,94.74,96.38,97.81,99.19,101.01,102.96,104.85,106.47,107.74,108.78,109.77,110.77,111.82,114.35,116.59,117.71,117.59,117.42,117.22,117.00,116.79,116.57
45.29,45.04,44.87,44.79,44.72,44.64,44.60,44.57,44.49,44.42,44.34,44.27,44.18,44.11,44.03,43.98,43.95,43.87,43.80,43.72,43.64,43.56,43.48,43.46,43.41,43.34,43.26,43.19,43.11,43.03,42.95,42.81,42.72,42.64,42.56,42.48,42.41,42.29,42.16,42.09,42.01,41.93,41.86,41.80,41.78,41.73,41.68,41.66,41.58,41.45,41.27,41.07,40.91,40.69,40.51,40.33,40.12,39.96,39.77,39.58,39.43,39.23,38.89,38.56,38.34,38.29,38.21,38.08,37.95,37.86,37.73,37.63,37.55,37.48,37.40,37.33,37.24,37.20,37.20,37.20,37.26,37.33,37.37,37.30,37.23,37.15,37.08,37.01,36.99,36.88,36.76,36.66,36.53,36.43,36.35,36.25,36.11,36.02,35.89,35.77,35.67,35.55,35.46,35.39,35.35,35.41,35.42,35.45,35.47,35.43,35.47,35.50,35.51,35.51,35.51,35.56,35.60,35.61,35.61,35.67,35.70,35.70,35.72,35.78,35.80,35.80,35.82,35.89,35.91,35.91,35.93,36.01,36.09,36.16,36.24,36.32,36.40,36.47,36.55,36.62,36.69,36.71,36.76,36.83,36.91,36.98,37.06,37.14,37.22,37.30,37.37,37.44,37.53,37.61,37.67,37.75,37.83,37.92,37.99,38.12,38.23,38.30,38.31,38.38,38.46,38.54,38.61,38.69,38.77,38.85,38.94,39.09,39.24,39.40,39.55,39.72,39.99,41.80,44.43,47.32,50.44,54.67,58.43,61.18,63.10,65.59,68.44,71.16,73.50,76.39,78.79,80.05,79.86,78.47,76.68,74.50,72.46,71.38,70.42,69.22,68.44,68.99,71.33,71.25,70.25,69.41,69.43,69.37,67.97,65.62,63.46,64.02,64.04,64.03,64.53,65.75,67.14,68.56,69.91,71.18,72.42,73.85,75.27,76.48,77.64,78.82,80.07,81.52,83.43,85.42,87.39,89.32,91.26,93.25,95.19,97.00,98.70,100.46,103.01,105.16,106.85,108.49,109.59,110.44,111.21,112.00,112.70,114.14,115.85,117.21,117.30,117.24,117.15,117.03,116.89,116.78
45.07,44.92,44.80,44.72,44.66,44.61,44.57,44.52,44.45,44.36,44.28,44.22,44.14,44.11,44.04,43.98,43.92,43.84,43.77,43.70,43.61,43.54,43.51,43.46,43.41,43.33,43.25,43.17,43.09,43.04,42.99,42.89,42.81,42.71,42.59,42.52,42.44,42.35,42.25,42.22,42.19,42.13,42.05,41.98,41.93,41.86,41.80,41.74,41.62,41.51,41.33,41.12,40.95,40.73,40.55,40.37,40.16,40.04,39.90,39.73,39.50,39.18,38.91,38.76,38.69,38.64,38.52,38.38,38.26,38.17,38.02,37.92,37.84,37.78,37.70,37.62,37.54,37.49,37.49,37.49,37.55,37.61,37.61,37.54,37.46,37.39,37.31,37.23,37.19,37.09,36.98,36.86,36.75,36.67,36.56,36.45,36.34,36.21,36.10,35.99,35.87,35.76,35.67,35.57,35.48,35.46,35.38,35.36,35.37,35.35,35.37,35.42,35.45,35.45,35.45,35.50,35.55,35.55,35.55,35.61,35.64,35.64,35.66,35.72,35.74,35.74,35.76,35.83,35.84,35.87,35.92,36.00,36.08,36.16,36.23,36.31,36.39,36.46,36.52,36.56,36.63,36.64,36.69,36.77,36.84,36.92,37.00,37.08,37.16,37.23,37.31,37.39,37.47,37.55,37.61,37.69,37.78,37.86,37.98,38.05,38.12,38.19,38.24,38.31,38.39,38.47,38.55,38.63,38.70,38.80,38.92,39.08,39.23,39.39,39.53,39.64,39.80,40.61,42.27,44.78,47.50,50.53,53.52,56.43,59.42,61.88,63.89,65.56,67.14,69.64,71.83,73.51,74.32,73.46,71.80,69.51,67.29,66.14,65.53,65.05,65.20,66.42,68.13,67.81,66.71,65.73,65.51,64.43,63.04,61.61,60.65,61.84,63.04,64.25,65.66,67.36,68.63,69.66,70.59,71.53,72.64,73.91,75.18,76.36,77.52,78.72,80.00,81.48,83.39,85.38,87.36,89.38,91.49,93.54,95.54,97.48,99.53,102.25,105.26,107.58,109.19,110.46,111.32,111.88,112.46,113.21,113.89,114.75,116.11,117.55,117.70,117.78,117.72,117.61,117.51,117.46
44.90,44.82,44.75,44.67,44.61,44.59,44.53,44.46,44.38,44.30,44.22,44.16,44.10,44.08,44.02,43.95,43.86,43.78,43.71,43.63,43.56,43.51,43.49,43.42,43.34,43.27,43.20,43.11,43.05,43.00,42.97,42.91,42.82,42.72,42.56,42.45,42.38,42.30,42.24,42.23,42.23,42.19,42.12,42.05,41.98,41.92,41.85,41.78,41.64,41.54,41.38,41.17,41.00,40.79,40.62,40.44,40.26,40.15,40.08,39.94,39.69,39.32,39.10,39.07,39.08,38.98,38.84,38.69,38.57,38.47,38.32,38.23,38.14,38.05,37.98,37.90,37.82,37.77,37.77,37.78,37.84,37.87,37.84,37.77,37.69,37.61,37.53,37.45,37.38,37.30,37.20,37.06,36.99,36.90,36.78,36.65,36.55,36.42,36.31,36.20,36.08,35.99,35.90,35.79,35.66,35.56,35.43,35.37,35.35,35.32,35.29,35.33,35.38,35.38,35.38,35.44,35.48,35.48,35.49,35.55,35.59,35.59,35.59,35.67,35.69,35.69,35.70,35.77,35.79,35.83,35.91,35.98,36.05,36.14,36.22,36.29,36.36,36.44,36.47,36.50,36.55,36.58,36.64,36.70,36.78,36.86,36.94,37.02,37.09,37.17,37.25,37.33,37.41,37.48,37.55,37.64,37.72,37.80,37.93,37.98,38.01,38.08,38.16,38.23,38.31,38.39,38.47,38.54,38.63,38.75,38.91,39.06,39.22,39.36,39.48,39.57,39.70,39.80,40.53,42.30,44.25,46.00,48.07,50.76,54.23,56.50,57.76,58.66,59.96,62.51,64.61,66.61,68.25,67.94,66.47,64.25,62.07,61.03,60.81,61.12,62.09,63.68,64.60,64.12,63.11,62.18,61.77,60.09,58.95,58.58,59.04,60.84,63.08,65.25,67.24,69.14,70.28,71.03,71.63,72.28,73.21,74.29,75.43,76.59,77.75,78.99,80.38,81.94,83.72,85.58,87.53,89.60,91.84,93.97,96.02,98.16,100.74,104.45,107.63,109.91,111.41,112.34,113.02,113.37,113.77,114.45,115.13,115.65,116.70,118.02,118.28,118.44,118.42,118.31,118.28,118.29
44.83,44.77,44.69,44.62,44.60,44.55,44.47,44.40,44.32,44.25,44.16,44.12,44.09,44.03,43.95,43.88,43.80,43.72,43.65,43.57,43.52,43.49,43.44,43.36,43.28,43.20,43.13,43.05,43.01,42.98,42.92,42.84,42.77,42.64,42.42,42.23,42.17,42.13,42.05,42.00,41.98,41.97,41.94,41.87,41.84,41.83,41.81,41.78,41.69,41.56,41.40,41.22,41.01,40.84,40.67,40.54,40.42,40.29,40.20,40.10,39.98,39.81,39.56,39.46,39.43,39.29,39.14,39.03,38.91,38.77,38.62,38.53,38.42,38.30,38.22,38.14,38.06,38.02,38.02,38.02,38.08,38.09,38.02,37.95,37.86,37.79,37.72,37.64,37.56,37.48,37.40,37.31,37.23,37.10,36.99,36.88,36.75,36.65,36.52,36.40,36.31,36.23,36.11,35.99,35.89,35.76,35.65,35.58,35.50,35.38,35.26,35.28,35.33,35.33,35.33,35.39,35.42,35.42,35.43,35.50,35.52,35.52,35.53,35.61,35.63,35.63,35.64,35.71,35.73,35.77,35.84,35.92,36.00,36.08,36.16,36.23,36.30,36.34,36.38,36.43,36.45,36.50,36.58,36.64,36.72,36.80,36.88,36.95,37.03,37.11,37.19,37.27,37.34,37.42,37.50,37.58,37.66,37.73,37.83,37.89,37.93,37.96,38.04,38.11,38.19,38.27,38.35,38.42,38.55,38.70,38.84,39.00,39.16,39.27,39.36,39.44,39.53,39.61,39.89,40.45,41.04,41.91,43.11,44.69,46.74,48.57,49.83,51.05,53.08,56.40,58.42,59.98,61.20,61.00,59.86,58.34,57.03,56.72,57.04,58.24,59.61,60.51,60.64,60.30,59.78,59.26,58.90,58.00,57.44,57.70,59.22,61.56,64.30,66.74,68.65,70.38,71.52,72.27,72.83,73.39,74.03,74.95,76.03,77.19,78.36,79.67,81.29,83.08,84.59,86.30,88.13,90.17,92.51,94.67,96.81,99.37,102.80,107.36,110.13,111.92,113.19,114.05,114.70,115.06,115.33,115.74,116.41,116.92,117.62,118.45,118.90,119.11,119.11,119.08,119.18,119.24
