38.52,38.61,38.69,38.76,38.84,38.95,39.06,39.17,39.25,39.33,39.43,39.53,39.61,39.69,39.70,39.72,39.73,39.66,39.66,39.63,39.59,39.54,39.43,39.28,39.13,38.97,38.83,38.70,38.56,38.41,38.25,38.09,37.95,37.80,37.69,37.53,37.38,37.22,37.07,36.92,36.79,36.66,36.49,36.34,36.19,36.06,35.93,35.78,35.62,35.47,35.31,35.17,35.05,34.89,34.74,34.59,34.44,34.28,34.19,34.14,34.14,34.14,34.14,34.14,34.14,34.14,34.14,34.14,34.14,34.14,34.14,34.14,34.17,34.20,34.20,34.23,34.24,34.24,34.24,34.24,34.28,34.32,34.34,34.35,34.42,34.45,34.46,34.50,34.54,34.58,34.62,34.64,34.65,34.68,34.72,34.74,34.74,34.74,34.77,34.80,34.80,34.80,34.83,34.84,34.84,34.84,34.84,34.84,34.84,34.84,34.84,34.84,34.84,34.84,34.84,34.84,34.84,34.84,34.84,34.84,34.84,34.84,34.84,34.84,34.84,34.83,34.80,34.80,34.80,34.80,34.79,34.75,34.74,34.74,34.73,34.70,34.70,34.70,34.70,34.69,34.65,34.64,34.64,34.63,34.60,34.60,34.60,34.60,34.59,34.55,34.55,34.52,34.50,34.50,34.50,34.50,34.48,34.45,34.41,34.40,34.40,34.39,34.35,34.34,34.32,34.30,34.30,34.30,34.27,34.23,34.20,34.20,34.20,34.18,34.14,34.14,34.11,34.10,34.10,34.09,34.06,34.02,34.00,34.00,34.00,34.00,33.97,33.94,33.91,33.94,34.48,35.27,36.16,37.09,38.01,38.83,39.62,40.51,41.38,42.34,43.38,44.51,45.64,47.25,48.79,50.73,54.66,59.21,63.19,66.96,72.38,83.93,90.75,94.47,96.39,96.83,97.17,97.44,97.73,98.20,98.85,100.23,102.11,104.01,104.85,105.40,105.46,104.74,102.87,101.28,101.16,101.89,102.53,102.91,104.38,106.06,107.40,108.33,109.05,108.88,107.68,105.60,104.10,103.13,101.72,99.44,98.20,97.58,97.12,96.53,95.49,94.69,93.74,92.42,90.42,87.45
38.47,38.55,38.63,38.70,38.79,38.92,39.03,39.11,39.19,39.27,39.40,39.52,39.59,39.67,39.69,39.74,39.78,39.73,39.71,39.71,39.67,39.57,39.42,39.27,39.12,38.96,38.81,38.66,38.51,38.36,38.20,38.05,37.90,37.77,37.67,37.52,37.37,37.21,37.06,36.91,36.76,36.61,36.45,36.30,36.14,36.03,35.92,35.77,35.61,35.45,35.30,35.15,35.01,34.85,34.70,34.54,34.39,34.23,34.13,34.09,34.09,34.09,34.09,34.09,34.09,34.09,34.09,34.09,34.09,34.09,34.09,34.10,34.14,34.19,34.19,34.19,34.19,34.19,34.19,34.19,34.25,34.29,34.29,34.30,34.36,34.38,34.42,34.47,34.48,34.55,34.59,34.59,34.60,34.66,34.69,34.69,34.70,34.70,34.74,34.79,34.79,34.79,34.79,34.79,34.79,34.79,34.79,34.79,34.79,34.80,34.80,34.80,34.80,34.80,34.80,34.80,34.80,34.80,34.80,34.80,34.80,34.80,34.80,34.80,34.80,34.80,34.80,34.79,34.79,34.79,34.77,34.71,34.70,34.70,34.70,34.70,34.69,34.69,34.69,34.67,34.61,34.60,34.60,34.60,34.60,34.59,34.59,34.59,34.57,34.51,34.50,34.50,34.50,34.49,34.48,34.48,34.46,34.41,34.40,34.40,34.39,34.37,34.31,34.30,34.30,34.30,34.30,34.29,34.23,34.20,34.20,34.20,34.19,34.15,34.10,34.10,34.10,34.10,34.10,34.08,34.02,34.00,34.00,34.00,33.99,33.98,33.94,33.90,33.92,34.05,34.77,35.66,36.54,37.46,38.39,39.34,40.38,41.61,42.79,43.82,44.86,46.01,47.16,48.36,49.46,51.20,55.35,59.99,63.80,67.37,73.04,86.27,93.56,97.16,98.86,99.22,99.38,99.48,99.50,99.52,99.95,101.39,103.28,104.95,105.58,105.13,103.96,102.25,100.22,98.18,97.83,98.43,98.77,98.95,100.17,101.97,103.93,105.43,106.76,107.29,107.22,107.04,105.80,103.98,102.00,100.24,99.34,98.64,98.01,97.16,95.39,93.47,91.77,90.01,87.42,82.96
38.41,38.48,38.56,38.65,38.78,38.88,38.97,39.05,39.13,39.26,39.37,39.45,39.53,39.61,39.67,39.74,39.80,39.78,39.77,39.74,39.66,39.52,39.37,39.22,39.05,38.91,38.75,38.64,38.51,38.36,38.20,38.05,37.89,37.75,37.61,37.46,37.30,37.15,37.01,36.90,36.76,36.61,36.45,36.30,36.14,36.00,35.86,35.70,35.55,35.39,35.24,35.10,35.00,34.85,34.69,34.54,34.39,34.23,34.09,34.02,34.02,34.02,34.02,34.02,34.02,34.02,34.02,34.02,34.02,34.02,34.03,34.08,34.11,34.13,34.13,34.13,34.13,34.13,34.13,34.13,34.19,34.23,34.24,34.29,34.32,34.33,34.36,34.41,34.42,34.48,34.52,34.54,34.59,34.62,34.63,34.64,34.69,34.70,34.71,34.73,34.73,34.73,34.73,34.73,34.73,34.73,34.73,34.73,34.75,34.79,34.80,34.80,34.80,34.80,34.80,34.80,34.80,34.80,34.80,34.80,34.80,34.80,34.80,34.80,34.80,34.80,34.79,34.74,34.73,34.73,34.72,34.70,34.70,34.70,34.70,34.69,34.64,34.63,34.63,34.62,34.60,34.60,34.60,34.60,34.59,34.54,34.52,34.52,34.52,34.50,34.50,34.50,34.48,34.43,34.42,34.42,34.42,34.40,34.40,34.40,34.37,34.32,34.30,34.30,34.30,34.30,34.29,34.24,34.21,34.20,34.20,34.20,34.15,34.12,34.10,34.10,34.10,34.10,34.08,34.03,34.00,34.00,34.00,33.99,33.94,33.92,33.91,33.90,33.96,34.33,35.13,36.05,36.95,37.88,38.81,40.04,41.48,42.81,44.04,45.25,46.39,47.46,48.62,50.16,51.79,54.00,58.03,61.69,65.02,69.91,78.68,89.78,96.30,99.37,100.19,100.67,101.05,101.18,101.15,101.27,102.41,103.31,103.68,103.47,103.07,102.34,101.24,99.67,97.47,95.23,93.61,92.66,92.37,92.47,94.50,97.24,99.79,101.46,102.84,103.44,103.51,103.62,103.34,102.64,101.73,100.81,100.18,98.59,96.60,94.63,92.97,91.12,88.86,86.00,82.17,77.46
38.21,38.30,38.38,38.49,38.62,38.73,38.83,38.92,39.01,39.16,39.25,39.34,39.44,39.52,39.62,39.70,39.78,39.82,39.81,39.75,39.65,39.50,39.34,39.19,39.03,38.88,38.72,38.61,38.48,38.33,38.17,38.02,37.88,37.74,37.58,37.43,37.28,37.12,36.98,36.87,36.73,36.57,36.41,36.27,36.11,35.97,35.83,35.68,35.52,35.37,35.21,35.07,34.97,34.81,34.66,34.50,34.36,34.22,34.08,33.99,33.97,33.97,33.97,33.97,33.97,33.97,33.97,33.97,33.98,34.00,34.00,34.04,34.06,34.06,34.06,34.06,34.06,34.06,34.07,34.09,34.14,34.16,34.19,34.25,34.27,34.28,34.31,34.36,34.39,34.44,34.47,34.48,34.55,34.56,34.56,34.58,34.66,34.66,34.66,34.66,34.66,34.66,34.66,34.68,34.70,34.70,34.70,34.70,34.72,34.76,34.77,34.77,34.77,34.77,34.77,34.77,34.77,34.77,34.77,34.77,34.77,34.77,34.77,34.77,34.77,34.77,34.75,34.71,34.70,34.70,34.70,34.70,34.67,34.66,34.66,34.66,34.61,34.60,34.60,34.59,34.57,34.56,34.56,34.56,34.56,34.51,34.50,34.50,34.49,34.47,34.47,34.47,34.45,34.41,34.40,34.40,34.40,34.40,34.37,34.37,34.34,34.30,34.30,34.30,34.29,34.27,34.26,34.21,34.20,34.20,34.19,34.17,34.12,34.10,34.10,34.10,34.07,34.06,34.05,34.00,34.00,34.00,33.99,33.95,33.91,33.90,33.90,33.92,34.09,34.70,35.55,36.48,37.41,38.34,39.33,40.84,42.63,44.06,45.33,46.61,47.86,49.11,50.53,52.34,54.30,56.71,60.27,63.34,66.54,72.66,84.05,93.59,98.51,100.59,101.05,101.58,102.10,102.38,102.50,102.75,103.45,103.23,102.24,100.92,100.25,99.46,98.47,97.09,94.91,92.32,89.69,87.59,86.77,86.88,89.39,92.75,95.80,97.53,98.74,99.27,99.41,99.59,99.65,99.41,99.03,98.61,98.11,96.30,93.99,91.77,90.09,88.11,85.24,81.39,76.73,72.98
37.89,37.98,38.09,38.23,38.32,38.45,38.60,38.73,38.81,38.95,39.05,39.16,39.29,39.38,39.51,39.62,39.71,39.83,39.80,39.73,39.63,39.48,39.33,39.17,39.02,38.87,38.71,38.57,38.42,38.27,38.11,37.96,37.85,37.73,37.58,37.42,37.27,37.12,36.97,36.82,36.67,36.52,36.36,36.21,36.05,35.95,35.83,35.67,35.52,35.36,35.21,35.06,34.91,34.76,34.61,34.45,34.31,34.21,34.08,33.96,33.91,33.91,33.91,33.91,33.91,33.91,33.91,33.91,33.94,33.99,34.00,34.00,34.01,34.01,34.01,34.01,34.01,34.01,34.02,34.08,34.10,34.11,34.13,34.20,34.20,34.25,34.30,34.31,34.38,34.40,34.41,34.43,34.49,34.51,34.51,34.53,34.59,34.61,34.61,34.61,34.61,34.61,34.61,34.65,34.70,34.70,34.70,34.70,34.70,34.70,34.70,34.70,34.70,34.70,34.70,34.70,34.71,34.71,34.71,34.71,34.71,34.71,34.71,34.71,34.71,34.70,34.70,34.70,34.70,34.70,34.70,34.69,34.63,34.61,34.61,34.61,34.60,34.59,34.59,34.58,34.52,34.51,34.51,34.51,34.51,34.50,34.50,34.50,34.48,34.42,34.41,34.41,34.41,34.40,34.40,34.39,34.39,34.38,34.33,34.31,34.31,34.30,34.30,34.30,34.25,34.21,34.21,34.20,34.20,34.20,34.18,34.12,34.10,34.10,34.10,34.09,34.03,34.01,34.01,34.00,34.00,34.00,33.96,33.91,33.90,33.90,33.90,33.98,34.30,35.11,36.04,36.96,37.89,38.83,39.95,41.74,43.81,45.38,46.66,47.92,49.32,50.97,52.88,54.85,56.92,59.25,62.09,64.95,68.44,75.75,89.06,97.45,100.18,100.97,101.50,102.04,102.63,103.10,103.50,103.81,103.23,101.52,99.41,97.69,97.29,96.57,95.67,94.49,92.48,89.37,86.00,83.21,81.92,82.01,84.55,88.13,91.58,93.36,94.33,94.80,94.98,95.10,94.96,94.59,94.23,93.98,93.52,92.09,90.38,88.67,86.88,84.56,81.04,76.41,71.45,69.56
37.45,37.56,37.70,37.84,37.92,38.06,38.20,38.31,38.42,38.54,38.66,38.77,38.89,39.01,39.16,39.27,39.34,39.41,39.42,39.41,39.36,39.28,39.17,39.02,38.89,38.77,38.61,38.50,38.36,38.20,38.05,37.94,37.82,37.69,37.53,37.38,37.23,37.07,36.92,36.80,36.66,36.50,36.35,36.19,36.04,35.91,35.77,35.63,35.47,35.31,35.18,35.06,34.91,34.75,34.59,34.44,34.30,34.17,34.02,33.91,33.85,33.84,33.84,33.84,33.84,33.85,33.89,33.90,33.92,33.95,33.95,33.95,33.95,33.95,33.95,33.95,33.95,33.95,33.96,34.03,34.05,34.06,34.11,34.14,34.14,34.19,34.24,34.25,34.33,34.34,34.37,34.41,34.44,34.45,34.47,34.51,34.54,34.55,34.55,34.56,34.59,34.60,34.60,34.62,34.64,34.64,34.64,34.64,34.64,34.64,34.64,34.64,34.64,34.64,34.64,34.64,34.67,34.70,34.70,34.70,34.70,34.70,34.70,34.70,34.67,34.64,34.64,34.64,34.64,34.64,34.64,34.64,34.61,34.60,34.60,34.59,34.55,34.55,34.55,34.54,34.50,34.50,34.50,34.50,34.49,34.46,34.45,34.45,34.44,34.41,34.40,34.40,34.40,34.39,34.36,34.34,34.34,34.34,34.31,34.30,34.30,34.30,34.30,34.26,34.22,34.20,34.20,34.20,34.17,34.14,34.14,34.11,34.10,34.10,34.09,34.05,34.01,34.00,34.00,34.00,34.00,33.96,33.93,33.90,33.90,33.90,33.87,34.05,34.69,35.55,36.47,37.40,38.32,39.29,40.80,42.83,45.00,46.72,48.00,49.47,51.28,53.43,55.70,57.64,59.46,61.42,63.97,66.70,71.83,81.11,94.33,99.28,100.60,101.07,101.59,102.17,102.72,103.02,103.16,103.18,102.52,100.75,98.37,96.00,94.75,93.80,92.89,91.72,89.58,85.67,81.96,79.02,77.06,75.71,76.90,79.63,83.02,85.72,87.84,89.12,89.70,89.81,89.64,89.17,88.68,88.35,87.97,87.27,86.39,85.26,83.49,80.85,76.73,72.28,69.24,68.00
36.98,37.13,37.27,37.40,37.50,37.63,37.74,37.84,37.98,38.08,38.22,38.34,38.43,38.56,38.71,38.81,38.86,38.88,38.94,38.97,38.98,38.98,38.93,38.82,38.71,38.60,38.47,38.37,38.25,38.10,37.95,37.87,37.74,37.59,37.45,37.29,37.14,36.98,36.86,36.76,36.63,36.48,36.33,36.18,36.02,35.88,35.73,35.58,35.42,35.27,35.15,35.05,34.89,34.73,34.58,34.42,34.28,34.13,33.98,33.86,33.79,33.79,33.79,33.79,33.79,33.80,33.86,33.88,33.88,33.88,33.88,33.88,33.88,33.88,33.88,33.88,33.88,33.89,33.91,33.97,33.98,34.03,34.09,34.09,34.10,34.14,34.19,34.20,34.27,34.29,34.33,34.38,34.38,34.40,34.44,34.48,34.49,34.50,34.50,34.52,34.58,34.59,34.59,34.59,34.59,34.59,34.59,34.59,34.59,34.60,34.60,34.60,34.60,34.60,34.60,34.60,34.64,34.69,34.69,34.69,34.69,34.69,34.69,34.69,34.63,34.60,34.60,34.60,34.60,34.60,34.60,34.60,34.59,34.59,34.59,34.57,34.51,34.50,34.50,34.50,34.50,34.49,34.48,34.48,34.47,34.42,34.40,34.40,34.40,34.40,34.39,34.38,34.38,34.38,34.32,34.30,34.30,34.30,34.30,34.29,34.29,34.29,34.28,34.23,34.20,34.20,34.20,34.19,34.13,34.10,34.10,34.10,34.10,34.09,34.07,34.01,34.00,34.00,34.00,33.98,33.98,33.93,33.90,33.90,33.90,33.89,33.90,34.23,35.14,36.00,36.90,37.83,38.78,39.86,41.76,43.99,46.21,48.11,49.47,51.19,53.36,55.86,58.34,60.24,61.83,63.49,65.92,69.11,76.63,87.59,98.66,100.36,100.73,101.14,101.62,102.18,102.60,102.67,102.49,102.24,101.71,99.85,97.19,94.33,92.12,90.77,89.68,88.36,86.08,81.59,77.72,74.78,72.34,69.75,69.60,71.22,74.08,77.36,80.30,82.25,83.23,83.39,83.25,82.70,82.09,81.72,81.59,81.92,81.98,81.36,79.70,76.90,72.75,69.06,67.92,67.09
36.56,36.70,36.83,36.93,37.06,37.17,37.29,37.41,37.51,37.64,37.79,37.91,38.00,38.09,38.19,38.25,38.27,38.33,38.36,38.40,38.46,38.51,38.55,38.53,38.45,38.32,38.22,38.09,37.98,37.86,37.72,37.63,37.50,37.37,37.26,37.11,36.95,36.83,36.73,36.59,36.49,36.36,36.22,36.12,35.97,35.86,35.73,35.58,35.42,35.27,35.12,34.98,34.83,34.67,34.52,34.37,34.22,34.12,33.98,33.83,33.73,33.73,33.73,33.73,33.73,33.73,33.80,33.83,33.83,33.83,33.83,33.83,33.83,33.83,33.83,33.83,33.83,33.85,33.90,33.92,33.92,33.97,34.02,34.03,34.08,34.11,34.15,34.20,34.22,34.27,34.31,34.33,34.33,34.38,34.41,34.42,34.43,34.48,34.50,34.51,34.52,34.52,34.52,34.52,34.52,34.52,34.52,34.52,34.55,34.59,34.60,34.60,34.60,34.60,34.60,34.60,34.61,34.63,34.63,34.63,34.63,34.63,34.63,34.63,34.61,34.60,34.60,34.60,34.60,34.60,34.60,34.59,34.54,34.52,34.52,34.52,34.50,34.50,34.50,34.50,34.50,34.45,34.42,34.42,34.42,34.41,34.40,34.40,34.40,34.39,34.35,34.33,34.33,34.32,34.30,34.30,34.30,34.30,34.30,34.25,34.23,34.23,34.23,34.21,34.20,34.20,34.19,34.14,34.11,34.10,34.10,34.10,34.10,34.07,34.02,34.00,34.00,34.00,33.98,33.93,33.92,33.91,33.90,33.90,33.89,33.85,34.10,34.70,35.62,36.48,37.39,38.31,39.34,40.80,42.90,45.20,47.47,49.58,51.36,53.27,55.41,57.78,60.09,62.02,63.77,65.55,68.05,73.52,84.73,95.82,99.84,100.62,100.94,101.30,101.71,102.08,102.21,102.09,101.84,101.61,100.97,97.83,94.16,91.48,88.89,86.88,85.08,83.25,81.07,76.92,73.14,70.22,68.05,65.99,65.57,66.08,67.28,69.39,71.05,72.50,73.63,73.97,73.97,73.41,72.79,72.67,73.33,75.39,76.57,76.18,74.72,72.33,69.95,68.05,67.03,66.73
36.14,36.26,36.37,36.49,36.64,36.73,36.85,36.98,37.07,37.22,37.35,37.46,37.53,37.58,37.63,37.67,37.71,37.76,37.78,37.84,37.92,37.99,38.05,38.08,38.06,37.99,37.93,37.82,37.71,37.59,37.47,37.36,37.24,37.13,37.02,36.89,36.74,36.63,36.53,36.38,36.27,36.15,36.03,35.92,35.80,35.69,35.57,35.44,35.29,35.16,35.02,34.86,34.73,34.58,34.44,34.30,34.16,34.05,33.93,33.79,33.67,33.66,33.66,33.66,33.66,33.67,33.75,33.77,33.77,33.77,33.77,33.77,33.77,33.77,33.77,33.77,33.78,33.82,33.86,33.87,33.89,33.93,33.97,33.97,34.03,34.06,34.09,34.16,34.16,34.22,34.27,34.27,34.27,34.33,34.37,34.37,34.38,34.44,34.47,34.47,34.47,34.47,34.47,34.47,34.47,34.50,34.50,34.50,34.51,34.56,34.56,34.56,34.56,34.56,34.56,34.56,34.56,34.56,34.56,34.56,34.56,34.56,34.56,34.56,34.56,34.56,34.56,34.56,34.56,34.56,34.56,34.56,34.51,34.50,34.50,34.50,34.50,34.48,34.47,34.47,34.46,34.42,34.40,34.40,34.40,34.40,34.38,34.37,34.37,34.36,34.32,34.30,34.30,34.30,34.30,34.28,34.27,34.27,34.27,34.23,34.20,34.20,34.20,34.20,34.19,34.16,34.16,34.11,34.10,34.10,34.09,34.07,34.06,34.04,34.00,34.00,34.00,33.98,33.95,33.91,33.90,33.90,33.90,33.89,33.88,33.94,34.41,35.18,36.10,36.96,37.85,38.80,39.97,41.77,43.96,46.23,48.53,50.87,52.97,55.05,57.20,59.45,61.59,63.52,65.37,67.54,71.42,79.81,91.13,99.72,100.43,100.79,101.12,101.44,101.71,101.83,101.78,101.54,101.24,100.82,99.00,94.68,90.24,87.30,84.47,82.28,80.34,78.28,75.53,71.79,68.38,65.71,64.00,62.62,62.23,62.26,62.59,63.66,64.40,65.25,66.10,66.42,66.50,66.13,65.74,65.78,66.52,68.66,70.32,70.68,69.73,68.39,67.61,67.16,66.70,67.03
35.71,35.80,35.92,36.06,36.22,36.30,36.43,36.56,36.65,36.79,36.89,36.97,37.03,37.05,37.06,37.09,37.15,37.16,37.23,37.30,37.37,37.44,37.46,37.51,37.58,37.61,37.60,37.55,37.43,37.31,37.22,37.08,36.97,36.86,36.73,36.64,36.50,36.38,36.29,36.14,35.99,35.88,35.77,35.64,35.54,35.42,35.30,35.19,35.05,34.95,34.82,34.69,34.59,34.45,34.34,34.23,34.08,33.94,33.84,33.73,33.61,33.61,33.61,33.61,33.61,33.61,33.69,33.70,33.70,33.70,33.70,33.70,33.70,33.70,33.70,33.70,33.75,33.80,33.80,33.81,33.86,33.90,33.91,33.91,33.98,34.01,34.03,34.09,34.11,34.17,34.20,34.20,34.21,34.28,34.30,34.30,34.32,34.38,34.41,34.41,34.41,34.41,34.41,34.41,34.43,34.48,34.50,34.50,34.50,34.51,34.51,34.51,34.51,34.51,34.51,34.51,34.51,34.51,34.51,34.51,34.51,34.51,34.51,34.51,34.51,34.51,34.51,34.51,34.51,34.51,34.51,34.51,34.50,34.50,34.50,34.50,34.50,34.44,34.41,34.41,34.41,34.40,34.40,34.39,34.39,34.39,34.34,34.31,34.31,34.31,34.30,34.30,34.29,34.29,34.29,34.25,34.21,34.21,34.21,34.20,34.20,34.20,34.20,34.20,34.16,34.11,34.11,34.10,34.10,34.10,34.08,34.02,34.01,34.01,34.00,34.00,34.00,33.95,33.91,33.90,33.90,33.90,33.89,33.88,33.86,34.15,34.80,35.67,36.58,37.44,38.30,39.29,40.64,42.72,44.92,47.12,49.41,51.96,54.31,56.55,58.76,60.89,62.86,64.80,66.68,69.48,75.91,87.35,95.93,100.22,100.59,100.91,101.27,101.54,101.64,101.48,101.32,101.05,100.67,99.83,96.03,90.73,85.79,82.27,79.30,77.26,75.58,73.47,69.76,66.46,63.62,61.46,60.32,59.65,59.47,59.51,59.63,59.87,60.05,60.30,60.56,60.74,60.82,60.79,60.79,60.94,61.21,62.25,63.81,65.17,64.94,65.09,65.70,66.39,66.87,67.85
35.28,35.38,35.49,35.64,35.75,35.87,35.98,36.10,36.22,36.33,36.39,36.42,36.46,36.50,36.51,36.53,36.56,36.61,36.68,36.73,36.78,36.85,36.90,36.96,37.03,37.06,37.10,37.12,37.10,37.06,36.97,36.83,36.70,36.59,36.47,36.35,36.24,36.12,36.01,35.89,35.74,35.63,35.53,35.39,35.30,35.17,35.03,34.91,34.80,34.68,34.56,34.45,34.33,34.22,34.10,33.98,33.87,33.72,33.66,33.60,33.55,33.55,33.55,33.55,33.55,33.55,33.63,33.64,33.64,33.64,33.64,33.64,33.64,33.64,33.64,33.64,33.69,33.74,33.75,33.79,33.83,33.84,33.85,33.90,33.93,33.97,34.01,34.05,34.09,34.13,34.14,34.15,34.19,34.23,34.24,34.26,34.30,34.33,34.34,34.34,34.35,34.39,34.40,34.40,34.41,34.44,34.45,34.45,34.45,34.45,34.45,34.45,34.45,34.45,34.45,34.48,34.50,34.50,34.50,34.50,34.50,34.50,34.50,34.50,34.50,34.50,34.50,34.50,34.50,34.50,34.50,34.50,34.50,34.47,34.45,34.45,34.45,34.42,34.40,34.40,34.40,34.40,34.37,34.34,34.34,34.34,34.32,34.30,34.30,34.30,34.30,34.27,34.24,34.24,34.24,34.22,34.20,34.20,34.20,34.20,34.18,34.14,34.14,34.14,34.12,34.10,34.10,34.10,34.10,34.08,34.04,34.01,34.00,34.00,34.00,34.00,33.96,33.92,33.90,33.90,33.90,33.87,33.84,33.84,33.91,34.49,35.28,36.15,37.06,37.92,38.77,39.88,41.44,43.57,45.69,47.76,49.99,52.68,55.31,57.72,59.92,61.90,63.84,65.77,67.68,71.61,82.09,92.93,98.60,100.41,100.72,101.03,101.33,101.49,101.44,101.22,101.02,100.73,100.08,98.09,92.73,87.19,82.48,78.85,75.71,73.40,71.29,68.85,65.47,62.64,60.58,59.19,58.42,57.91,57.73,57.72,57.81,57.97,58.13,58.31,58.51,58.68,58.70,58.81,59.03,59.30,59.59,60.13,60.97,61.81,61.96,63.12,64.68,66.30,67.74,69.05
34.85,34.95,35.06,35.19,35.29,35.42,35.53,35.62,35.75,35.83,35.86,35.86,35.88,35.94,35.96,35.97,35.98,36.06,36.13,36.16,36.19,36.27,36.34,36.42,36.46,36.48,36.55,36.63,36.70,36.74,36.67,36.56,36.43,36.31,36.22,36.08,35.97,35.85,35.73,35.63,35.50,35.38,35.28,35.14,35.05,34.92,34.77,34.64,34.55,34.41,34.30,34.20,34.05,33.96,33.83,33.71,33.63,33.51,33.48,33.48,33.48,33.48,33.48,33.48,33.48,33.50,33.56,33.59,33.59,33.59,33.59,33.59,33.59,33.59,33.60,33.60,33.64,33.69,33.70,33.77,33.79,33.79,33.80,33.87,33.88,33.94,33.98,34.00,34.06,34.09,34.09,34.11,34.17,34.19,34.19,34.22,34.27,34.29,34.29,34.30,34.31,34.37,34.38,34.38,34.38,34.38,34.38,34.38,34.39,34.40,34.40,34.40,34.40,34.40,34.40,34.46,34.48,34.48,34.48,34.48,34.48,34.48,34.48,34.48,34.48,34.48,34.48,34.48,34.48,34.48,34.48,34.48,34.48,34.44,34.40,34.40,34.40,34.40,34.39,34.38,34.38,34.38,34.34,34.30,34.30,34.30,34.30,34.29,34.29,34.29,34.29,34.25,34.20,34.20,34.20,34.20,34.20,34.19,34.19,34.19,34.15,34.10,34.10,34.10,34.10,34.10,34.09,34.09,34.09,34.05,34.00,34.00,34.00,33.99,33.98,33.98,33.92,33.90,33.90,33.90,33.89,33.83,33.80,33.84,34.07,34.87,35.75,36.63,37.55,38.41,39.40,40.82,42.74,44.79,46.74,48.61,50.69,53.44,56.24,58.76,60.94,62.82,64.74,66.67,69.15,74.84,88.60,97.30,100.28,100.54,100.84,101.14,101.34,101.37,101.19,100.96,100.72,100.21,98.86,95.48,89.23,83.80,79.41,75.78,72.56,69.94,67.36,64.64,61.92,59.60,58.22,57.46,56.95,56.58,56.48,56.53,56.69,56.94,57.19,57.42,57.66,57.88,57.92,58.15,58.59,59.23,59.87,60.30,60.55,60.71,61.06,62.69,64.73,66.96,69.25,70.94
34.38,34.50,34.62,34.72,34.85,34.96,35.04,35.13,35.21,35.24,35.29,35.33,35.33,35.35,35.40,35.42,35.44,35.52,35.54,35.59,35.65,35.72,35.80,35.84,35.88,35.94,36.02,36.09,36.14,36.16,36.20,36.22,36.16,36.07,35.98,35.83,35.69,35.58,35.47,35.34,35.23,35.12,34.99,34.89,34.76,34.66,34.53,34.39,34.30,34.17,34.06,33.96,33.80,33.67,33.56,33.47,33.41,33.42,33.42,33.42,33.42,33.42,33.42,33.42,33.42,33.44,33.50,33.52,33.52,33.52,33.52,33.52,33.52,33.54,33.59,33.60,33.61,33.63,33.64,33.70,33.73,33.73,33.74,33.81,33.83,33.88,33.92,33.94,34.00,34.02,34.05,34.10,34.12,34.13,34.16,34.20,34.22,34.23,34.26,34.30,34.30,34.32,34.33,34.33,34.33,34.33,34.33,34.33,34.34,34.39,34.40,34.40,34.40,34.40,34.40,34.41,34.42,34.42,34.42,34.42,34.42,34.42,34.42,34.42,34.42,34.42,34.42,34.42,34.42,34.42,34.42,34.42,34.42,34.41,34.40,34.40,34.40,34.40,34.37,34.33,34.33,34.33,34.31,34.30,34.30,34.30,34.30,34.27,34.23,34.23,34.23,34.21,34.20,34.20,34.20,34.20,34.17,34.13,34.13,34.13,34.12,34.10,34.10,34.10,34.10,34.08,34.03,34.02,34.02,34.02,34.00,34.00,34.00,33.96,33.92,33.92,33.91,33.90,33.90,33.89,33.84,33.81,33.80,33.93,34.49,35.31,36.20,37.11,38.03,38.88,40.47,42.79,45.44,47.19,48.76,50.23,51.97,54.58,57.20,59.63,61.80,63.72,65.65,67.58,72.25,81.31,94.93,99.36,100.43,100.71,100.96,101.21,101.23,101.11,100.89,100.66,100.42,98.91,95.75,90.79,85.38,80.55,76.32,72.69,69.62,66.87,64.14,61.55,59.56,57.91,56.74,55.97,55.56,55.56,56.02,56.51,56.88,57.22,57.52,57.78,58.02,58.33,58.70,59.11,59.98,61.60,63.30,64.36,64.85,64.96,65.19,66.01,67.43,69.48,72.20,74.63
33.93,34.07,34.19,34.28,34.40,34.48,34.55,34.60,34.64,34.67,34.72,34.76,34.78,34.79,34.82,34.86,34.90,34.94,34.97,35.03,35.10,35.16,35.23,35.27,35.31,35.39,35.44,35.51,35.56,35.60,35.68,35.75,35.75,35.71,35.67,35.58,35.44,35.32,35.23,35.08,34.99,34.86,34.73,34.62,34.49,34.38,34.27,34.14,34.04,33.92,33.80,33.69,33.56,33.44,33.36,33.31,33.28,33.34,33.37,33.37,33.37,33.37,33.37,33.37,33.37,33.41,33.45,33.47,33.47,33.47,33.47,33.49,33.50,33.51,33.56,33.56,33.56,33.57,33.61,33.65,33.66,33.68,33.71,33.76,33.79,33.83,33.87,33.91,33.95,33.97,34.00,34.06,34.06,34.09,34.13,34.16,34.17,34.19,34.23,34.27,34.27,34.27,34.27,34.27,34.27,34.30,34.30,34.30,34.31,34.36,34.37,34.37,34.37,34.37,34.37,34.37,34.37,34.37,34.37,34.37,34.37,34.37,34.37,34.39,34.40,34.39,34.37,34.37,34.37,34.37,34.37,34.37,34.37,34.37,34.37,34.37,34.37,34.37,34.34,34.30,34.30,34.30,34.30,34.29,34.27,34.27,34.27,34.24,34.20,34.20,34.20,34.20,34.19,34.17,34.16,34.16,34.14,34.11,34.10,34.10,34.10,34.09,34.07,34.06,34.06,34.05,34.00,34.00,34.00,33.99,33.97,33.97,33.97,33.94,33.90,33.90,33.90,33.90,33.89,33.86,33.81,33.80,33.87,34.16,34.93,35.77,36.67,37.59,38.54,39.59,42.08,45.15,47.98,49.41,50.64,51.76,53.17,55.51,58.05,60.41,62.57,64.54,66.49,68.87,76.88,89.41,98.50,100.32,100.58,100.82,100.97,101.12,101.06,100.88,100.63,100.34,99.36,96.52,92.13,87.09,82.23,77.65,73.49,69.92,66.98,64.17,61.59,59.35,57.69,56.32,55.55,55.26,55.35,55.81,56.55,57.25,57.77,58.17,58.46,58.78,59.23,59.92,60.88,62.15,63.74,65.65,67.48,68.75,69.34,69.55,70.30,71.29,72.63,74.34,76.31,77.70
33.50,33.64,33.76,33.84,33.92,33.99,34.03,34.04,34.06,34.12,34.14,34.17,34.23,34.24,34.24,34.28,34.33,34.36,34.42,34.49,34.54,34.56,34.63,34.70,34.77,34.83,34.85,34.91,34.99,35.06,35.13,35.21,35.23,35.26,35.30,35.29,35.18,35.07,34.98,34.84,34.75,34.62,34.47,34.33,34.24,34.11,33.99,33.89,33.75,33.65,33.54,33.41,33.33,33.25,33.22,33.21,33.22,33.28,33.30,33.30,33.30,33.30,33.30,33.30,33.32,33.39,33.40,33.41,33.41,33.41,33.41,33.47,33.50,33.50,33.51,33.51,33.51,33.53,33.59,33.60,33.61,33.64,33.70,33.71,33.77,33.80,33.82,33.89,33.90,33.91,33.94,34.00,34.01,34.06,34.10,34.11,34.11,34.17,34.20,34.20,34.20,34.21,34.21,34.21,34.23,34.28,34.29,34.29,34.30,34.30,34.30,34.30,34.30,34.30,34.30,34.31,34.31,34.31,34.31,34.31,34.31,34.31,34.32,34.38,34.39,34.36,34.31,34.31,34.31,34.31,34.31,34.31,34.31,34.31,34.31,34.31,34.31,34.31,34.31,34.30,34.29,34.29,34.29,34.27,34.22,34.21,34.21,34.21,34.20,34.20,34.20,34.20,34.18,34.12,34.11,34.11,34.10,34.09,34.09,34.09,34.09,34.08,34.02,34.01,34.01,34.01,34.00,34.00,34.00,33.97,33.91,33.91,33.91,33.91,33.90,33.89,33.89,33.89,33.87,33.81,33.80,33.80,34.00,34.50,35.40,36.25,37.15,38.07,39.09,40.66,44.15,47.72,50.27,51.41,52.35,53.23,54.36,56.31,58.81,61.13,63.27,65.31,67.31,70.75,82.52,97.88,99.98,100.49,100.72,100.87,100.89,100.91,100.85,100.67,100.38,99.95,97.67,93.39,88.32,84.21,79.62,75.05,70.89,67.44,64.56,61.82,59.56,57.80,56.20,54.93,54.72,55.25,56.06,56.97,57.80,58.57,59.25,59.75,60.04,60.49,61.27,62.56,64.22,66.62,68.99,70.70,72.07,73.25,73.89,74.34,75.99,77.58,79.05,79.90,79.40,78.12
33.07,33.19,33.27,33.31,33.38,33.43,33.47,33.50,33.50,33.53,33.57,33.61,33.65,33.69,33.70,33.72,33.75,33.80,33.87,33.92,33.96,34.00,34.07,34.16,34.22,34.25,34.29,34.37,34.44,34.50,34.55,34.62,34.67,34.72,34.79,34.80,34.78,34.75,34.70,34.59,34.47,34.35,34.23,34.08,34.00,33.86,33.74,33.65,33.50,33.38,33.26,33.18,33.18,33.16,33.14,33.14,33.16,33.22,33.24,33.24,33.24,33.24,33.24,33.24,33.27,33.34,33.34,33.34,33.34,33.34,33.35,33.41,33.45,33.45,33.45,33.45,33.45,33.47,33.54,33.55,33.58,33.62,33.64,33.65,33.72,33.74,33.77,33.84,33.84,33.88,33.92,33.94,33.95,34.00,34.05,34.05,34.05,34.11,34.14,34.14,34.15,34.19,34.20,34.20,34.21,34.24,34.24,34.24,34.24,34.24,34.24,34.24,34.24,34.24,34.24,34.28,34.30,34.30,34.30,34.30,34.30,34.30,34.30,34.34,34.34,34.33,34.30,34.30,34.30,34.30,34.30,34.30,34.30,34.30,34.30,34.30,34.30,34.30,34.30,34.29,34.25,34.24,34.24,34.23,34.20,34.20,34.20,34.20,34.19,34.15,34.14,34.14,34.13,34.11,34.10,34.10,34.08,34.05,34.05,34.05,34.05,34.04,34.00,34.00,34.00,33.98,33.95,33.95,33.95,33.93,33.90,33.90,33.90,33.90,33.89,33.85,33.84,33.84,33.83,33.80,33.80,33.84,34.21,34.95,35.88,36.73,37.61,38.48,39.77,43.37,47.01,49.82,51.57,52.62,53.63,54.66,55.76,57.20,59.53,61.80,63.95,66.05,68.21,75.19,87.41,99.68,100.31,100.57,100.69,100.72,100.68,100.63,100.56,100.44,100.10,98.98,95.15,90.46,85.93,82.04,77.38,72.85,68.81,65.37,62.27,59.93,58.03,56.38,54.88,54.52,55.25,56.40,57.35,58.24,59.23,60.38,61.60,62.55,63.42,64.38,65.54,67.08,68.95,70.88,72.70,74.29,75.64,76.77,77.78,78.96,80.73,80.71,80.59,77.24,67.01,59.57
32.72,32.80,32.84,32.85,32.91,32.92,32.96,33.00,33.00,33.00,33.05,33.08,33.10,33.16,33.16,33.16,33.17,33.23,33.31,33.35,33.38,33.45,33.53,33.61,33.64,33.67,33.74,33.82,33.89,33.94,33.96,34.03,34.10,34.18,34.24,34.25,34.31,34.36,34.36,34.29,34.18,34.08,33.97,33.84,33.75,33.62,33.50,33.39,33.26,33.13,33.03,33.00,33.08,33.09,33.09,33.09,33.09,33.15,33.18,33.19,33.19,33.19,33.19,33.19,33.20,33.27,33.29,33.29,33.29,33.29,33.30,33.36,33.38,33.38,33.38,33.38,33.39,33.42,33.48,33.48,33.55,33.59,33.59,33.60,33.66,33.69,33.72,33.78,33.79,33.84,33.88,33.89,33.90,33.96,33.98,33.99,34.01,34.06,34.09,34.09,34.11,34.17,34.19,34.19,34.19,34.19,34.19,34.19,34.19,34.19,34.20,34.20,34.20,34.20,34.20,34.25,34.29,34.29,34.29,34.29,34.29,34.29,34.29,34.29,34.29,34.29,34.29,34.29,34.29,34.29,34.29,34.29,34.29,34.29,34.29,34.29,34.29,34.29,34.29,34.27,34.21,34.20,34.20,34.20,34.20,34.19,34.19,34.19,34.17,34.11,34.10,34.10,34.10,34.09,34.09,34.09,34.06,34.00,34.00,34.00,34.00,34.00,33.99,33.98,33.98,33.96,33.91,33.90,33.90,33.90,33.90,33.89,33.88,33.88,33.87,33.81,33.80,33.80,33.80,33.80,33.79,33.94,34.49,35.40,36.31,37.16,38.00,38.87,40.53,46.12,49.60,51.50,52.59,53.61,54.74,55.92,57.05,58.14,60.30,62.52,64.67,66.88,69.62,80.59,92.27,99.99,100.38,100.57,100.59,100.51,100.42,100.31,100.17,100.02,99.53,97.54,92.67,88.06,84.27,80.47,75.50,70.97,67.04,63.60,60.37,58.35,56.67,55.08,53.94,54.58,56.12,57.77,58.93,59.80,61.03,62.58,64.26,65.62,67.03,68.60,70.29,72.04,73.65,74.83,76.00,77.40,78.60,79.15,79.38,79.48,79.37,76.35,74.32,68.44,52.84,42.29
32.57,32.59,32.59,32.60,32.61,32.61,32.63,32.64,32.64,32.64,32.66,32.67,32.67,32.69,32.64,32.61,32.62,32.64,32.71,32.77,32.84,32.91,32.99,33.02,33.06,33.13,33.20,33.28,33.32,33.35,33.42,33.49,33.56,33.62,33.64,33.70,33.77,33.84,33.89,33.87,33.89,33.81,33.69,33.59,33.46,33.35,33.23,33.11,33.01,32.97,32.94,32.94,33.02,33.02,33.02,33.02,33.03,33.04,33.09,33.13,33.13,33.13,33.13,33.13,33.14,33.22,33.23,33.23,33.23,33.24,33.29,33.31,33.33,33.33,33.33,33.33,33.36,33.41,33.42,33.42,33.48,33.52,33.54,33.59,33.61,33.66,33.70,33.72,33.73,33.78,33.83,33.84,33.89,33.91,33.92,33.94,33.99,34.02,34.02,34.05,34.10,34.12,34.13,34.13,34.13,34.13,34.13,34.13,34.13,34.13,34.18,34.20,34.20,34.20,34.20,34.21,34.23,34.23,34.23,34.23,34.23,34.23,34.23,34.23,34.23,34.23,34.23,34.23,34.23,34.23,34.23,34.23,34.23,34.23,34.23,34.23,34.23,34.23,34.23,34.22,34.20,34.20,34.20,34.20,34.19,34.14,34.13,34.13,34.12,34.10,34.10,34.10,34.08,34.03,34.02,34.02,34.02,34.00,34.00,34.00,34.00,33.99,33.93,33.92,33.92,33.92,33.90,33.90,33.90,33.90,33.89,33.84,33.83,33.83,33.82,33.80,33.80,33.80,33.80,33.79,33.76,34.22,34.93,35.75,36.61,37.41,38.24,39.27,41.47,47.98,50.94,52.31,53.44,54.51,55.65,56.75,57.85,59.17,61.25,63.39,65.50,67.97,72.41,87.08,97.48,100.16,100.37,100.40,100.35,100.25,100.10,99.91,99.54,99.11,98.15,95.12,90.84,87.01,83.75,80.14,74.46,69.71,65.83,62.45,59.46,57.35,55.50,54.01,53.93,55.34,57.14,59.05,60.92,62.09,63.76,65.57,67.23,68.69,70.22,72.45,75.07,77.09,77.42,78.06,79.05,80.02,80.47,78.99,75.00,68.81,61.75,53.22,49.48,47.60,42.97,39.77
32.54,32.53,32.53,32.53,32.53,32.53,32.53,32.53,32.53,32.53,32.53,32.53,32.53,32.53,32.50,32.47,32.46,32.45,32.48,32.53,32.58,32.63,32.68,32.70,32.71,32.76,32.81,32.86,32.88,32.89,32.95,33.02,33.08,33.11,33.12,33.16,33.21,33.27,33.34,33.37,33.44,33.43,33.37,33.30,33.19,33.08,32.97,32.89,32.87,32.87,32.87,32.88,32.92,32.96,32.97,32.97,32.97,32.97,33.03,33.06,33.06,33.06,33.06,33.06,33.08,33.16,33.16,33.16,33.16,33.18,33.25,33.27,33.27,33.27,33.27,33.27,33.31,33.37,33.37,33.39,33.44,33.47,33.48,33.55,33.56,33.61,33.66,33.67,33.69,33.74,33.78,33.81,33.85,33.87,33.88,33.91,33.96,33.97,33.98,34.02,34.06,34.06,34.06,34.06,34.06,34.06,34.09,34.10,34.10,34.11,34.15,34.16,34.16,34.16,34.16,34.16,34.16,34.16,34.16,34.16,34.16,34.16,34.17,34.19,34.20,34.20,34.20,34.20,34.20,34.20,34.20,34.20,34.20,34.20,34.20,34.20,34.20,34.20,34.20,34.19,34.17,34.16,34.16,34.16,34.16,34.11,34.10,34.10,34.09,34.07,34.06,34.06,34.05,34.01,34.00,34.00,34.00,34.00,33.97,33.97,33.97,33.95,33.91,33.90,33.90,33.90,33.90,33.87,33.87,33.87,33.85,33.81,33.80,33.80,33.80,33.80,33.77,33.77,33.77,33.79,33.95,34.58,35.37,36.18,37.02,37.81,38.61,40.39,44.33,49.62,51.94,53.15,54.32,55.41,56.53,57.61,58.79,60.33,62.48,64.67,67.00,70.46,77.85,91.72,99.73,100.21,100.30,100.26,100.09,99.77,99.25,98.71,98.02,97.33,96.31,93.70,89.90,86.43,83.42,79.97,74.02,69.12,65.19,61.78,58.88,56.67,54.67,53.29,54.00,55.80,57.80,60.04,62.68,64.50,66.71,68.54,69.66,70.89,72.45,74.70,77.07,78.37,79.01,79.53,78.60,75.24,71.75,66.54,60.98,55.38,49.08,42.19,39.27,38.96,38.65,38.35
32.62,32.60,32.60,32.60,32.60,32.60,32.60,32.60,32.60,32.60,32.60,32.60,32.60,32.60,32.59,32.59,32.57,32.51,32.50,32.50,32.51,32.52,32.52,32.52,32.53,32.54,32.55,32.55,32.55,32.56,32.57,32.63,32.66,32.67,32.67,32.68,32.69,32.73,32.80,32.86,32.94,33.00,33.03,33.01,32.94,32.82,32.74,32.74,32.79,32.80,32.80,32.81,32.82,32.88,32.91,32.91,32.91,32.91,32.97,33.01,33.01,33.01,33.01,33.01,33.03,33.09,33.11,33.11,33.11,33.13,33.19,33.20,33.20,33.20,33.20,33.21,33.26,33.30,33.31,33.38,33.40,33.41,33.43,33.49,33.51,33.55,33.61,33.61,33.68,33.70,33.73,33.79,33.80,33.80,33.84,33.90,33.90,33.91,33.95,34.00,34.01,34.01,34.01,34.01,34.01,34.02,34.07,34.09,34.09,34.09,34.10,34.11,34.11,34.11,34.11,34.11,34.11,34.11,34.11,34.11,34.11,34.11,34.12,34.18,34.20,34.20,34.20,34.20,34.20,34.20,34.20,34.20,34.20,34.20,34.20,34.20,34.20,34.20,34.20,34.18,34.12,34.11,34.11,34.11,34.11,34.10,34.09,34.09,34.08,34.02,34.01,34.01,34.01,34.00,34.00,34.00,34.00,33.98,33.93,33.91,33.91,33.91,33.90,33.89,33.89,33.89,33.88,33.83,33.81,33.81,33.81,33.80,33.79,33.79,33.79,33.79,33.73,33.71,33.72,33.82,34.30,35.01,35.82,36.66,37.51,38.30,39.21,42.11,48.13,51.04,52.69,54.00,55.21,56.30,57.40,58.54,59.86,61.63,63.91,66.28,69.22,74.26,84.76,94.93,99.95,100.18,100.19,100.11,99.80,99.16,98.10,97.09,96.07,95.14,94.26,92.87,89.52,86.18,83.23,79.89,73.97,68.98,64.92,61.43,58.54,56.22,54.10,52.79,54.12,56.09,58.23,60.83,64.25,67.01,69.86,71.54,71.74,72.39,73.81,75.57,76.86,76.75,78.21,78.49,74.61,65.28,56.79,47.80,42.66,41.60,40.48,39.23,38.55,38.24,37.94,37.62
32.72,32.71,32.71,32.71,32.71,32.71,32.71,32.71,32.71,32.71,32.71,32.71,32.71,32.71,32.71,32.69,32.64,32.57,32.52,32.50,32.50,32.50,32.50,32.50,32.50,32.50,32.50,32.50,32.50,32.50,32.50,32.53,32.57,32.60,32.60,32.60,32.60,32.62,32.65,32.68,32.72,32.75,32.77,32.77,32.73,32.72,32.70,32.71,32.74,32.74,32.74,32.74,32.75,32.81,32.84,32.84,32.84,32.84,32.91,32.95,32.95,32.95,32.95,32.95,32.97,33.03,33.05,33.05,33.06,33.11,33.14,33.14,33.14,33.14,33.15,33.19,33.22,33.24,33.25,33.33,33.34,33.37,33.41,33.44,33.48,33.52,33.55,33.55,33.63,33.64,33.67,33.74,33.74,33.74,33.78,33.84,33.84,33.84,33.89,33.95,33.95,33.95,33.98,34.00,34.00,34.00,34.03,34.05,34.05,34.05,34.05,34.05,34.05,34.05,34.05,34.08,34.10,34.10,34.10,34.10,34.10,34.10,34.11,34.14,34.14,34.14,34.14,34.14,34.14,34.14,34.14,34.14,34.14,34.14,34.14,34.14,34.14,34.14,34.14,34.14,34.11,34.10,34.10,34.10,34.09,34.05,34.05,34.05,34.04,34.01,34.00,34.00,34.00,34.00,33.96,33.95,33.95,33.94,33.91,33.90,33.90,33.90,33.89,33.86,33.84,33.84,33.84,33.81,33.80,33.80,33.80,33.80,33.76,33.74,33.74,33.74,33.71,33.70,33.77,34.05,34.72,35.52,36.35,37.19,38.00,38.81,40.91,44.70,49.74,51.84,53.34,54.73,56.02,57.20,58.33,59.68,61.31,63.31,65.58,68.47,73.34,81.14,89.98,96.20,99.32,100.01,100.01,99.79,99.35,98.62,97.50,96.42,95.31,94.18,93.03,91.67,89.00,86.05,83.15,79.85,74.07,68.98,64.75,61.20,58.36,55.96,53.66,52.32,54.17,56.38,58.74,61.63,65.55,69.84,73.51,74.95,73.85,72.72,73.30,73.85,73.50,71.69,70.03,66.90,61.01,52.39,46.60,41.68,39.11,38.77,38.45,38.13,37.82,37.53,37.25,36.91
32.83,32.83,32.83,32.83,32.82,32.81,32.81,32.81,32.81,32.81,32.81,32.81,32.81,32.81,32.81,32.78,32.70,32.63,32.55,32.51,32.50,32.50,32.50,32.50,32.50,32.50,32.50,32.50,32.50,32.50,32.50,32.50,32.55,32.60,32.60,32.60,32.60,32.60,32.60,32.60,32.60,32.60,32.60,32.60,32.60,32.66,32.70,32.70,32.70,32.70,32.70,32.70,32.71,32.76,32.79,32.79,32.79,32.79,32.84,32.88,32.88,32.88,32.88,32.89,32.92,32.98,32.98,32.98,33.02,33.08,33.09,33.09,33.09,33.09,33.11,33.16,33.19,33.19,33.21,33.27,33.29,33.32,33.38,33.39,33.45,33.48,33.49,33.51,33.57,33.59,33.63,33.68,33.69,33.69,33.73,33.79,33.79,33.80,33.84,33.88,33.89,33.90,33.95,33.98,33.98,33.98,33.98,33.98,33.98,33.98,33.98,33.99,34.00,34.00,34.00,34.05,34.09,34.09,34.09,34.09,34.09,34.09,34.09,34.09,34.09,34.09,34.09,34.09,34.09,34.09,34.09,34.09,34.09,34.09,34.09,34.09,34.09,34.09,34.09,34.09,34.09,34.09,34.09,34.09,34.07,34.02,34.00,34.00,34.00,34.00,33.99,33.98,33.98,33.97,33.92,33.90,33.90,33.90,33.90,33.89,33.88,33.88,33.88,33.83,33.80,33.80,33.80,33.80,33.79,33.79,33.79,33.78,33.73,33.70,33.70,33.70,33.70,33.72,33.88,34.35,35.18,36.03,36.88,37.72,38.55,39.69,43.03,47.35,50.80,52.49,53.96,55.39,56.76,58.04,59.36,60.99,62.94,65.14,67.60,71.85,78.59,87.34,93.45,96.71,98.63,99.68,99.66,99.36,98.84,98.07,96.99,95.91,94.78,93.55,92.20,90.75,88.65,86.02,83.10,79.80,74.23,69.08,64.63,60.90,58.12,55.64,53.26,51.98,54.26,56.67,59.32,62.55,66.93,72.70,76.75,77.58,75.10,72.39,71.32,70.11,67.95,64.33,59.81,54.33,48.13,42.14,39.79,38.98,38.55,38.15,37.77,37.42,37.10,36.82,36.57,36.20
32.96,32.96,32.96,32.95,32.89,32.88,32.88,32.88,32.88,32.88,32.88,32.88,32.88,32.88,32.88,32.83,32.77,32.69,32.61,32.54,32.50,32.50,32.50,32.50,32.50,32.50,32.50,32.50,32.50,32.50,32.50,32.50,32.55,32.60,32.60,32.60,32.60,32.60,32.60,32.60,32.60,32.60,32.60,32.60,32.60,32.66,32.70,32.70,32.70,32.70,32.70,32.70,32.70,32.72,32.73,32.73,32.73,32.73,32.78,32.83,32.83,32.83,32.83,32.86,32.91,32.92,32.92,32.92,32.95,33.02,33.02,33.02,33.02,33.04,33.09,33.12,33.13,33.15,33.20,33.22,33.23,33.26,33.32,33.33,33.39,33.42,33.44,33.49,33.52,33.56,33.61,33.62,33.63,33.67,33.71,33.73,33.73,33.78,33.81,33.83,33.83,33.89,33.91,33.92,33.92,33.92,33.92,33.92,33.92,33.92,33.92,33.96,34.00,34.00,34.00,34.02,34.02,34.02,34.02,34.02,34.02,34.02,34.02,34.02,34.02,34.02,34.02,34.02,34.02,34.02,34.02,34.02,34.02,34.02,34.02,34.02,34.02,34.02,34.02,34.02,34.02,34.02,34.02,34.02,34.02,34.00,34.00,34.00,34.00,34.00,33.95,33.92,33.92,33.92,33.91,33.90,33.90,33.90,33.90,33.85,33.83,33.83,33.82,33.80,33.80,33.80,33.80,33.80,33.75,33.73,33.73,33.72,33.70,33.70,33.70,33.70,33.70,33.78,34.10,34.76,35.65,36.51,37.36,38.22,39.25,41.41,45.61,49.73,51.58,53.04,54.50,55.93,57.33,58.77,60.61,62.66,64.81,67.11,70.38,77.93,85.64,90.34,93.46,96.31,98.22,99.02,98.96,98.72,98.23,97.47,96.38,95.30,94.21,93.09,91.93,90.71,88.76,86.12,83.08,79.74,74.52,69.38,64.60,60.41,57.62,55.12,52.90,51.96,54.47,56.95,59.99,63.75,68.62,75.47,78.73,78.03,74.23,71.03,66.67,62.65,58.58,53.02,48.22,44.61,41.85,39.91,38.98,38.44,37.98,37.55,37.16,36.74,36.38,36.09,35.84,35.48
33.08,33.08,33.06,33.03,32.99,32.98,32.98,32.98,32.98,32.98,32.98,32.98,32.98,32.98,32.98,32.92,32.83,32.75,32.67,32.59,32.53,32.50,32.50,32.50,32.50,32.50,32.50,32.50,32.50,32.50,32.50,32.50,32.55,32.60,32.60,32.60,32.60,32.60,32.60,32.60,32.60,32.60,32.60,32.60,32.60,32.66,32.70,32.70,32.70,32.70,32.70,32.70,32.70,32.70,32.70,32.70,32.70,32.70,32.76,32.80,32.80,32.80,32.80,32.83,32.87,32.87,32.87,32.87,32.89,32.96,32.97,32.97,32.97,32.98,33.05,33.06,33.08,33.12,33.16,33.16,33.19,33.22,33.26,33.27,33.33,33.37,33.39,33.45,33.47,33.52,33.56,33.57,33.59,33.64,33.66,33.67,33.70,33.75,33.77,33.77,33.80,33.85,33.87,33.87,33.87,33.87,33.87,33.88,33.90,33.90,33.90,33.94,33.97,33.97,33.97,33.97,33.97,33.97,33.97,33.97,33.97,33.97,33.97,33.99,34.00,34.00,34.00,34.00,34.00,34.00,34.00,34.00,34.00,34.00,34.00,34.00,34.00,34.00,34.00,34.00,34.00,34.00,34.00,34.00,34.00,34.00,33.98,33.97,33.97,33.96,33.92,33.90,33.90,33.90,33.90,33.88,33.87,33.87,33.86,33.82,33.80,33.80,33.80,33.80,33.78,33.77,33.77,33.77,33.73,33.70,33.70,33.70,33.70,33.70,33.70,33.71,33.76,34.00,34.48,35.21,36.09,36.96,37.80,38.71,40.01,43.24,47.95,51.88,52.99,53.73,55.00,56.53,58.17,60.04,62.23,64.47,66.89,70.26,76.34,83.80,89.66,92.25,94.08,96.32,97.83,98.31,98.24,98.08,97.63,96.86,95.78,94.70,93.62,92.58,91.59,90.55,88.52,85.75,82.58,79.16,74.34,69.25,64.22,59.66,56.93,54.55,52.53,51.81,54.47,57.14,60.52,64.69,69.81,76.48,78.76,76.93,71.85,66.17,59.66,53.95,49.27,45.25,42.15,40.26,39.21,38.74,38.34,37.89,37.43,36.98,36.59,36.14,35.75,35.43,35.13,34.78
33.19,33.19,33.16,33.11,33.10,33.10,33.10,33.10,33.10,33.09,33.09,33.09,33.09,33.09,33.09,33.02,32.89,32.81,32.73,32.65,32.58,32.51,32.50,32.50,32.50,32.50,32.50,32.50,32.50,32.50,32.50,32.50,32.55,32.60,32.60,32.60,32.60,32.60,32.60,32.60,32.60,32.60,32.60,32.60,32.60,32.66,32.70,32.70,32.70,32.70,32.70,32.70,32.70,32.70,32.70,32.70,32.70,32.70,32.76,32.80,32.80,32.80,32.80,32.80,32.81,32.81,32.81,32.81,32.84,32.90,32.91,32.91,32.91,32.93,32.99,33.01,33.05,33.10,33.10,33.11,33.16,33.20,33.20,33.21,33.28,33.31,33.33,33.39,33.41,33.46,33.51,33.52,33.58,33.60,33.61,33.63,33.69,33.70,33.71,33.73,33.79,33.80,33.80,33.80,33.81,33.81,33.81,33.85,33.89,33.89,33.89,33.90,33.91,33.91,33.91,33.91,33.91,33.91,33.91,33.91,33.91,33.91,33.92,33.98,34.00,34.00,34.00,34.00,34.00,34.00,34.00,34.00,34.00,34.00,34.00,34.00,34.00,34.00,34.00,34.00,34.00,34.00,34.00,34.00,34.00,34.00,33.94,33.91,33.91,33.91,33.90,33.90,33.89,33.89,33.89,33.85,33.81,33.81,33.81,33.80,33.80,33.79,33.79,33.79,33.75,33.71,33.71,33.71,33.70,33.70,33.70,33.70,33.70,33.70,33.71,33.75,33.89,34.34,34.96,35.68,36.53,37.38,38.23,39.22,40.92,45.13,50.21,54.05,54.88,54.63,55.60,57.25,59.28,61.65,64.08,66.48,69.44,74.59,83.72,89.01,91.66,93.37,94.96,96.51,97.41,97.60,97.53,97.43,97.03,96.26,95.19,94.12,93.06,92.07,91.23,90.32,88.06,85.09,81.81,78.27,73.82,68.75,63.47,58.68,55.98,53.81,52.03,51.53,54.22,57.09,60.83,65.37,70.59,76.34,77.50,74.62,68.05,59.00,51.45,45.25,40.97,40.17,39.59,39.15,38.71,38.20,37.80,37.35,36.89,36.44,36.05,35.60,35.19,34.81,34.45,34.14
33.27,33.26,33.24,33.22,33.22,33.22,33.22,33.22,33.21,33.18,33.16,33.16,33.16,33.16,33.16,33.10,33.00,32.92,32.80,32.71,32.64,32.56,32.51,32.50,32.50,32.50,32.50,32.50,32.50,32.50,32.50,32.50,32.55,32.60,32.60,32.60,32.60,32.60,32.60,32.60,32.60,32.60,32.60,32.60,32.60,32.66,32.70,32.70,32.70,32.70,32.70,32.70,32.70,32.70,32.70,32.70,32.70,32.70,32.76,32.80,32.80,32.80,32.80,32.80,32.80,32.80,32.80,32.80,32.81,32.84,32.84,32.88,32.90,32.91,32.94,32.95,33.00,33.05,33.05,33.05,33.11,33.14,33.15,33.20,33.23,33.27,33.31,33.34,33.39,33.42,33.46,33.51,33.54,33.55,33.56,33.61,33.64,33.64,33.67,33.71,33.74,33.74,33.74,33.76,33.80,33.80,33.80,33.82,33.84,33.84,33.84,33.84,33.84,33.84,33.84,33.88,33.90,33.90,33.90,33.90,33.90,33.90,33.91,33.94,33.95,33.95,33.95,33.95,33.95,33.95,33.95,33.95,33.95,33.95,33.95,33.95,33.95,33.95,33.95,33.95,33.95,33.95,33.95,33.95,33.95,33.95,33.92,33.90,33.90,33.90,33.90,33.87,33.84,33.84,33.84,33.82,33.80,33.80,33.80,33.80,33.77,33.74,33.74,33.74,33.72,33.70,33.70,33.70,33.70,33.68,33.65,33.69,33.70,33.70,33.77,34.00,34.32,34.79,35.41,36.16,37.01,37.85,38.70,39.96,42.70,47.03,52.78,57.20,57.56,56.52,57.04,58.66,60.96,63.47,65.95,69.20,74.27,82.23,87.94,90.72,92.22,93.58,95.13,96.31,96.86,96.88,96.80,96.69,96.37,95.71,94.66,93.69,92.75,91.86,91.06,90.13,87.60,84.46,81.06,77.27,72.98,67.27,61.58,57.22,54.13,52.05,50.83,50.83,53.01,55.78,60.21,65.49,70.50,75.32,75.31,70.28,60.71,49.96,44.60,41.38,39.30,38.96,38.74,38.52,38.19,37.70,37.26,36.81,36.34,35.90,35.51,35.05,34.64,34.27,33.95,33.76
33.35,33.34,33.34,33.34,33.34,33.34,33.33,33.31,33.31,33.26,33.24,33.24,33.24,33.24,33.23,33.17,33.11,33.02,32.89,32.79,32.71,32.62,32.53,32.51,32.50,32.50,32.50,32.50,32.50,32.50,32.50,32.50,32.55,32.60,32.60,32.60,32.60,32.60,32.60,32.60,32.60,32.60,32.60,32.60,32.60,32.65,32.69,32.70,32.70,32.70,32.70,32.70,32.70,32.70,32.70,32.70,32.70,32.70,32.76,32.80,32.80,32.80,32.80,32.80,32.80,32.80,32.80,32.80,32.80,32.80,32.80,32.87,32.91,32.91,32.91,32.91,32.94,32.98,32.98,33.00,33.05,33.09,33.10,33.17,33.19,33.22,33.29,33.30,33.36,33.38,33.42,33.48,33.48,33.48,33.53,33.59,33.59,33.59,33.64,33.69,33.69,33.69,33.69,33.73,33.78,33.79,33.79,33.79,33.79,33.79,33.79,33.79,33.80,33.80,33.80,33.85,33.88,33.88,33.88,33.88,33.88,33.88,33.88,33.88,33.88,33.88,33.88,33.88,33.88,33.88,33.89,33.90,33.90,33.90,33.90,33.90,33.90,33.90,33.90,33.90,33.90,33.90,33.89,33.88,33.88,33.88,33.88,33.88,33.88,33.88,33.88,33.84,33.80,33.80,33.80,33.80,33.80,33.79,33.79,33.79,33.75,33.70,33.70,33.70,33.70,33.70,33.69,33.69,33.69,33.65,33.62,33.68,33.72,33.79,33.96,34.37,34.81,35.27,35.86,36.64,37.47,38.30,39.22,40.89,44.77,49.97,55.91,60.03,59.77,58.32,58.72,60.41,62.85,65.41,68.27,72.91,79.85,88.42,90.64,91.60,92.57,93.71,95.14,95.95,96.22,96.14,96.06,95.93,95.71,95.20,94.21,93.34,92.51,91.69,90.87,89.79,87.03,83.77,80.26,76.22,71.91,65.80,59.81,55.57,52.31,50.53,49.86,50.18,51.71,54.59,59.66,65.50,70.31,74.28,72.21,64.47,52.63,42.75,39.85,39.19,38.85,38.48,38.22,37.99,37.67,37.21,36.73,36.27,35.80,35.35,34.95,34.51,34.13,33.82,33.57,33.48
33.46,33.46,33.46,33.46,33.46,33.46,33.42,33.38,33.38,33.36,33.36,33.36,33.36,33.36,33.31,33.24,33.17,33.08,32.99,32.91,32.81,32.68,32.59,32.53,32.50,32.50,32.50,32.50,32.50,32.50,32.50,32.50,32.55,32.60,32.60,32.60,32.60,32.60,32.60,32.60,32.60,32.60,32.60,32.60,32.60,32.61,32.65,32.70,32.70,32.70,32.70,32.70,32.70,32.70,32.70,32.70,32.70,32.70,32.76,32.80,32.80,32.80,32.80,32.80,32.80,32.80,32.80,32.80,32.80,32.80,32.80,32.87,32.93,32.98,32.97,32.92,32.91,32.92,32.93,32.99,33.01,33.02,33.04,33.11,33.13,33.17,33.23,33.23,33.30,33.33,33.36,33.42,33.42,33.42,33.47,33.52,33.52,33.52,33.58,33.63,33.63,33.63,33.67,33.71,33.72,33.73,33.73,33.73,33.73,33.73,33.73,33.77,33.80,33.80,33.80,33.81,33.83,33.83,33.83,33.83,33.83,33.83,33.83,33.83,33.83,33.83,33.83,33.83,33.83,33.83,33.84,33.89,33.90,33.90,33.90,33.90,33.90,33.90,33.90,33.90,33.90,33.90,33.86,33.83,33.83,33.83,33.83,33.83,33.83,33.83,33.83,33.81,33.80,33.80,33.80,33.80,33.77,33.73,33.73,33.73,33.71,33.70,33.70,33.70,33.70,33.68,33.63,33.63,33.63,33.62,33.60,33.63,33.78,34.07,34.46,34.90,35.31,35.76,36.34,37.12,37.90,38.64,39.81,42.13,47.13,55.17,60.18,61.72,60.62,59.52,60.60,62.61,64.91,67.55,71.61,78.57,86.15,90.01,91.32,92.14,93.03,94.06,95.11,95.42,95.44,95.35,95.28,95.19,95.07,94.73,93.94,93.10,92.30,91.49,90.56,89.13,86.23,82.92,79.37,75.12,70.46,64.77,58.82,53.72,50.93,49.97,49.74,49.85,50.63,54.20,59.66,65.52,70.25,73.53,67.48,56.17,44.38,40.38,39.20,38.74,38.37,37.99,37.69,37.48,37.20,36.72,36.20,35.72,35.26,34.80,34.36,33.95,33.70,33.55,33.38,33.34
33.58,33.58,33.58,33.58,33.58,33.55,33.52,33.48,33.48,33.48,33.48,33.48,33.47,33.44,33.38,33.30,33.22,33.14,33.06,32.99,32.89,32.78,32.70,32.60,32.52,32.50,32.50,32.50,32.50,32.50,32.50,32.50,32.53,32.57,32.60,32.60,32.60,32.60,32.60,32.60,32.60,32.60,32.60,32.60,32.60,32.60,32.63,32.70,32.70,32.70,32.70,32.70,32.70,32.70,32.70,32.70,32.70,32.70,32.74,32.78,32.80,32.80,32.80,32.80,32.80,32.80,32.80,32.80,32.80,32.81,32.84,32.91,32.98,33.03,33.03,32.97,32.94,32.94,32.95,32.99,32.98,32.98,33.01,33.05,33.09,33.13,33.17,33.20,33.25,33.28,33.32,33.36,33.37,33.39,33.43,33.47,33.47,33.49,33.53,33.56,33.57,33.59,33.64,33.66,33.66,33.66,33.66,33.68,33.70,33.70,33.70,33.73,33.77,33.77,33.77,33.77,33.77,33.77,33.77,33.77,33.77,33.77,33.80,33.80,33.80,33.80,33.80,33.80,33.80,33.80,33.81,33.86,33.87,33.87,33.87,33.87,33.87,33.87,33.87,33.87,33.87,33.87,33.83,33.80,33.80,33.80,33.80,33.80,33.80,33.80,33.80,33.80,33.79,33.77,33.77,33.77,33.74,33.70,33.70,33.70,33.70,33.69,33.67,33.66,33.66,33.64,33.61,33.60,33.60,33.60,33.64,33.82,34.12,34.52,34.98,35.44,35.87,36.31,36.84,37.48,38.22,38.95,40.71,44.39,51.12,58.45,62.32,63.16,62.26,61.95,63.21,65.16,67.64,71.27,76.00,82.81,89.22,90.92,91.83,92.56,93.28,94.00,94.64,94.75,94.69,94.60,94.50,94.42,94.36,94.15,93.57,92.81,92.05,91.28,90.26,88.42,85.40,81.99,78.27,73.83,69.13,64.02,58.27,52.59,50.27,49.70,49.62,49.66,50.18,53.77,59.41,65.40,69.93,71.98,62.41,49.89,40.79,39.29,38.72,38.29,37.89,37.54,37.20,36.96,36.69,36.23,35.70,35.22,34.74,34.28,33.91,33.63,33.46,33.34,33.23,33.19
33.70,33.70,33.70,33.70,33.69,33.64,33.60,33.60,33.60,33.60,33.60,33.60,33.58,33.51,33.44,33.36,33.28,33.20,33.13,33.06,32.97,32.89,32.81,32.69,32.57,32.52,32.50,32.50,32.50,32.50,32.50,32.50,32.50,32.53,32.59,32.60,32.60,32.60,32.60,32.60,32.60,32.60,32.60,32.60,32.60,32.60,32.63,32.70,32.70,32.70,32.70,32.70,32.70,32.70,32.70,32.70,32.70,32.70,32.70,32.74,32.80,32.80,32.80,32.80,32.80,32.80,32.80,32.80,32.80,32.82,32.89,32.97,33.04,33.09,33.09,33.03,33.00,32.99,33.00,33.00,32.95,32.95,33.00,33.01,33.07,33.10,33.12,33.19,33.20,33.25,33.30,33.30,33.31,33.36,33.40,33.41,33.41,33.47,33.50,33.51,33.52,33.58,33.60,33.61,33.61,33.61,33.61,33.65,33.70,33.70,33.70,33.70,33.70,33.70,33.70,33.70,33.70,33.71,33.71,33.71,33.71,33.73,33.79,33.79,33.79,33.79,33.79,33.79,33.79,33.79,33.80,33.80,33.80,33.80,33.80,33.80,33.80,33.80,33.80,33.80,33.80,33.80,33.80,33.79,33.79,33.79,33.79,33.79,33.79,33.79,33.79,33.79,33.77,33.72,33.71,33.71,33.70,33.70,33.70,33.70,33.70,33.68,33.62,33.61,33.61,33.60,33.60,33.60,33.62,33.65,33.76,34.17,34.62,35.07,35.53,36.00,36.45,36.91,37.35,37.82,38.49,39.32,42.00,47.41,55.70,60.57,63.29,64.47,64.36,64.98,66.18,67.98,70.84,75.68,80.65,86.00,90.36,91.35,92.14,92.79,93.30,93.65,93.94,94.00,93.96,93.86,93.73,93.65,93.62,93.50,93.12,92.46,91.77,91.02,89.91,87.58,84.45,80.93,77.01,72.42,67.92,63.45,58.00,51.93,50.04,49.58,49.50,49.56,50.08,53.38,59.01,65.10,69.23,69.33,57.00,44.95,39.79,38.89,38.35,37.87,37.44,37.10,36.73,36.45,36.16,35.74,35.22,34.73,34.25,33.80,33.56,33.44,33.30,33.19,33.10,33.03
33.82,33.82,33.82,33.81,33.77,33.73,33.72,33.72,33.72,33.72,33.72,33.70,33.65,33.58,33.50,33.42,33.34,33.27,33.19,33.11,33.03,32.95,32.88,32.78,32.69,32.60,32.52,32.50,32.50,32.50,32.50,32.50,32.50,32.53,32.59,32.60,32.60,32.60,32.60,32.60,32.60,32.60,32.60,32.60,32.60,32.60,32.63,32.70,32.70,32.70,32.70,32.70,32.70,32.70,32.70,32.70,32.70,32.70,32.70,32.74,32.80,32.80,32.80,32.80,32.80,32.80,32.80,32.80,32.82,32.87,32.95,33.03,33.08,33.11,33.15,33.13,33.09,33.05,33.05,33.05,33.00,32.98,33.00,33.00,33.03,33.05,33.06,33.13,33.14,33.19,33.24,33.25,33.29,33.33,33.34,33.35,33.40,33.43,33.45,33.46,33.50,33.54,33.55,33.56,33.60,33.60,33.60,33.62,33.64,33.64,33.64,33.64,33.64,33.64,33.64,33.64,33.66,33.70,33.70,33.70,33.70,33.71,33.74,33.74,33.74,33.74,33.74,33.74,33.74,33.74,33.74,33.74,33.74,33.74,33.74,33.74,33.74,33.74,33.74,33.74,33.74,33.74,33.74,33.74,33.74,33.74,33.74,33.74,33.74,33.74,33.74,33.74,33.73,33.70,33.70,33.70,33.68,33.64,33.64,33.64,33.64,33.63,33.61,33.60,33.60,33.60,33.60,33.60,33.74,33.97,34.28,34.73,35.20,35.66,36.13,36.59,37.05,37.49,37.89,38.31,38.89,40.33,44.66,51.59,58.56,61.92,64.10,65.69,66.63,67.52,69.06,71.36,74.65,79.08,83.36,87.35,90.34,91.11,91.72,92.20,92.58,92.88,93.11,93.20,93.19,93.10,93.00,92.96,92.94,92.86,92.55,92.03,91.37,90.53,89.12,86.14,82.84,79.30,75.41,70.95,67.07,63.15,57.96,51.82,49.96,49.48,49.41,49.49,50.02,53.31,58.63,64.22,67.09,62.36,50.57,41.55,39.24,38.58,38.04,37.54,37.09,36.64,36.25,35.96,35.66,35.22,34.72,34.22,33.81,33.54,33.39,33.27,33.15,33.06,32.98,32.90
33.94,33.94,33.94,33.92,33.86,33.84,33.84,33.84,33.84,33.84,33.83,33.80,33.73,33.64,33.56,33.48,33.41,33.33,33.25,33.17,33.09,33.02,32.94,32.86,32.78,32.69,32.57,32.53,32.51,32.50,32.50,32.50,32.50,32.53,32.59,32.60,32.60,32.60,32.60,32.60,32.60,32.60,32.60,32.60,32.60,32.60,32.63,32.70,32.70,32.70,32.70,32.70,32.70,32.70,32.70,32.70,32.70,32.70,32.70,32.74,32.80,32.80,32.80,32.80,32.80,32.80,32.80,32.81,32.86,32.94,33.00,33.07,33.11,33.14,33.21,33.22,33.18,33.13,33.12,33.12,33.07,33.03,33.02,33.02,33.02,33.01,33.02,33.08,33.10,33.14,33.18,33.19,33.26,33.28,33.28,33.30,33.37,33.38,33.39,33.42,33.48,33.48,33.49,33.53,33.58,33.58,33.58,33.58,33.58,33.58,33.58,33.58,33.59,33.60,33.60,33.60,33.63,33.68,33.68,33.68,33.68,33.68,33.68,33.68,33.68,33.68,33.68,33.68,33.68,33.69,33.70,33.70,33.70,33.70,33.70,33.70,33.70,33.70,33.70,33.70,33.70,33.70,33.70,33.70,33.70,33.70,33.70,33.70,33.70,33.70,33.70,33.70,33.70,33.68,33.68,33.68,33.66,33.61,33.60,33.60,33.60,33.60,33.60,33.60,33.62,33.66,33.73,33.80,34.06,34.45,34.90,35.36,35.82,36.29,36.75,37.21,37.68,38.08,38.45,38.86,39.55,42.30,48.26,55.95,61.06,63.38,65.19,67.00,68.63,69.84,71.78,74.47,77.75,81.22,84.66,87.61,89.75,90.58,91.11,91.46,91.76,92.06,92.28,92.38,92.39,92.33,92.25,92.25,92.26,92.19,91.94,91.55,90.92,89.75,87.63,84.15,80.82,77.45,73.76,69.57,66.18,62.68,57.79,51.80,49.91,49.37,49.29,49.44,49.99,53.23,58.26,63.10,64.12,54.69,44.88,39.38,38.84,38.30,37.76,37.25,36.76,36.23,35.80,35.48,35.15,34.70,34.23,33.79,33.48,33.35,33.27,33.12,33.01,32.94,32.86,32.78
34.06,34.06,34.06,34.05,33.98,33.96,33.96,33.96,33.96,33.96,33.92,33.87,33.84,33.71,33.61,33.54,33.47,33.39,33.31,33.23,33.16,33.08,33.00,32.92,32.84,32.76,32.67,32.61,32.54,32.50,32.50,32.50,32.50,32.53,32.59,32.60,32.60,32.60,32.60,32.60,32.60,32.60,32.60,32.60,32.60,32.60,32.63,32.70,32.70,32.70,32.70,32.70,32.70,32.70,32.70,32.70,32.70,32.70,32.70,32.74,32.80,32.80,32.80,32.80,32.80,32.80,32.80,32.84,32.92,33.00,33.06,33.09,33.13,33.20,33.27,33.28,33.27,33.23,33.19,33.18,33.17,33.13,33.09,33.09,33.09,33.04,33.01,33.02,33.08,33.11,33.12,33.13,33.20,33.22,33.22,33.23,33.30,33.31,33.36,33.41,33.41,33.42,33.47,33.51,33.52,33.52,33.52,33.52,33.52,33.52,33.52,33.52,33.55,33.59,33.60,33.60,33.61,33.62,33.62,33.62,33.62,33.62,33.62,33.62,33.62,33.62,33.62,33.62,33.62,33.66,33.70,33.70,33.70,33.70,33.70,33.70,33.70,33.70,33.70,33.70,33.70,33.70,33.70,33.70,33.70,33.70,33.70,33.70,33.70,33.70,33.70,33.70,33.68,33.63,33.62,33.62,33.61,33.60,33.60,33.60,33.60,33.60,33.60,33.60,33.68,33.85,34.10,34.41,34.76,35.15,35.56,36.02,36.49,36.95,37.41,37.88,38.34,38.71,39.03,39.49,40.68,45.97,53.29,60.27,63.44,65.30,66.91,68.50,70.07,71.84,74.27,76.84,79.20,81.19,83.79,86.31,88.39,89.73,90.37,90.71,90.98,91.27,91.44,91.54,91.57,91.54,91.47,91.51,91.54,91.48,91.30,91.03,90.44,88.46,84.86,81.23,78.23,75.33,72.15,68.42,65.09,61.79,57.28,51.74,49.86,49.24,49.16,49.40,50.01,53.04,57.86,61.75,59.96,47.12,41.07,39.14,38.60,38.06,37.52,36.98,36.46,35.92,35.40,35.00,34.63,34.21,33.76,33.52,33.36,33.22,33.14,33.00,32.89,32.81,32.74,32.66
34.18,34.18,34.18,34.16,34.09,34.08,34.08,34.08,34.08,34.05,33.98,33.95,33.91,33.77,33.67,33.58,33.48,33.41,33.36,33.30,33.22,33.14,33.06,32.98,32.91,32.83,32.75,32.67,32.59,32.53,32.50,32.50,32.50,32.53,32.59,32.60,32.60,32.60,32.60,32.60,32.60,32.60,32.60,32.60,32.60,32.60,32.63,32.70,32.70,32.70,32.70,32.70,32.70,32.70,32.70,32.70,32.70,32.70,32.70,32.74,32.80,32.80,32.80,32.80,32.80,32.80,32.83,32.89,32.97,33.05,33.09,33.13,33.19,33.26,33.33,33.34,33.34,33.31,33.25,33.24,33.24,33.22,33.17,33.15,33.14,33.09,33.05,33.05,33.05,33.05,33.07,33.11,33.15,33.16,33.18,33.21,33.25,33.26,33.31,33.36,33.36,33.36,33.42,33.45,33.45,33.45,33.45,33.45,33.47,33.50,33.50,33.50,33.52,33.55,33.55,33.55,33.55,33.55,33.55,33.55,33.55,33.57,33.60,33.60,33.60,33.60,33.60,33.60,33.60,33.63,33.66,33.66,33.66,33.66,33.66,33.66,33.66,33.66,33.66,33.66,33.66,33.66,33.66,33.66,33.66,33.66,33.66,33.66,33.66,33.66,33.66,33.66,33.65,33.61,33.60,33.60,33.60,33.59,33.56,33.55,33.58,33.63,33.76,33.91,34.12,34.41,34.75,35.13,35.52,35.89,36.26,36.69,37.12,37.58,38.03,38.49,38.93,39.34,40.05,41.41,43.81,50.12,57.55,63.77,66.05,67.66,69.12,70.56,72.02,73.77,75.90,77.85,79.33,80.47,82.26,84.24,86.06,87.40,88.24,88.89,89.52,90.10,90.38,90.57,90.70,90.77,90.76,90.80,90.81,90.71,90.33,89.55,87.99,85.35,81.85,78.88,76.15,73.45,70.54,67.14,64.00,60.72,56.46,51.51,49.74,49.09,49.01,49.32,50.03,53.20,57.33,58.86,53.51,43.06,39.53,38.86,38.32,37.78,37.24,36.70,36.16,35.62,35.07,34.59,34.18,33.83,33.50,33.36,33.24,33.11,33.02,32.88,32.77,32.70,32.62,32.54
34.30,34.30,34.30,34.28,34.21,34.20,34.20,34.20,34.19,34.13,34.05,34.01,33.98,33.84,33.74,33.63,33.49,33.42,33.40,33.34,33.27,33.20,33.12,33.05,32.97,32.89,32.81,32.73,32.66,32.58,32.52,32.50,32.50,32.53,32.59,32.60,32.60,32.60,32.60,32.60,32.60,32.60,32.60,32.60,32.60,32.60,32.63,32.69,32.70,32.70,32.70,32.70,32.70,32.70,32.70,32.70,32.70,32.70,32.70,32.74,32.80,32.80,32.80,32.80,32.80,32.82,32.88,32.95,33.03,33.09,33.11,33.17,33.25,33.32,33.38,33.40,33.41,33.38,33.31,33.30,33.30,33.30,33.28,33.22,33.20,33.16,33.11,33.09,33.04,33.02,33.05,33.09,33.10,33.10,33.14,33.19,33.20,33.20,33.25,33.30,33.30,33.30,33.36,33.39,33.40,33.41,33.41,33.41,33.43,33.48,33.49,33.49,33.49,33.49,33.49,33.49,33.49,33.50,33.50,33.50,33.50,33.53,33.58,33.59,33.59,33.59,33.59,33.59,33.59,33.59,33.59,33.59,33.59,33.59,33.59,33.59,33.60,33.60,33.60,33.60,33.60,33.60,33.60,33.60,33.60,33.59,33.59,33.59,33.59,33.59,33.59,33.59,33.59,33.59,33.59,33.59,33.59,33.59,33.55,33.57,33.64,33.78,34.06,34.40,34.77,35.14,35.52,35.91,36.30,36.65,36.98,37.36,37.76,38.19,38.65,39.15,39.64,40.20,41.43,43.90,47.74,54.45,61.43,66.80,68.65,70.11,71.42,72.69,73.97,75.35,76.85,78.01,78.73,79.44,80.49,81.88,83.31,84.36,85.39,86.47,87.56,88.54,89.00,89.32,89.58,89.77,89.84,89.87,89.86,89.64,88.90,87.41,84.64,81.61,78.92,76.86,74.38,71.75,68.95,65.78,62.83,59.49,55.42,51.12,49.56,48.89,48.83,49.23,50.07,53.67,56.58,55.05,46.50,40.91,39.12,38.56,38.02,37.48,36.94,36.40,35.85,35.30,34.76,34.23,33.80,33.52,33.34,33.24,33.12,32.98,32.89,32.76,32.65,32.56,32.49,32.42
34.41,34.42,34.40,34.36,34.33,34.32,34.32,34.31,34.27,34.23,34.17,34.10,34.04,33.94,33.82,33.69,33.55,33.47,33.42,33.35,33.29,33.25,33.19,33.11,33.03,32.95,32.88,32.80,32.72,32.64,32.57,32.51,32.50,32.51,32.55,32.59,32.60,32.60,32.60,32.60,32.60,32.60,32.60,32.60,32.60,32.60,32.61,32.65,32.69,32.70,32.70,32.70,32.70,32.70,32.70,32.70,32.70,32.70,32.70,32.74,32.80,32.80,32.80,32.80,32.81,32.87,32.94,33.02,33.07,33.11,33.15,33.22,33.31,33.37,33.40,33.45,33.46,33.45,33.42,33.37,33.37,33.37,33.36,33.33,33.28,33.24,33.21,33.16,33.13,33.09,33.07,33.09,33.05,33.08,33.12,33.13,33.14,33.19,33.22,33.23,33.25,33.29,33.32,33.34,33.35,33.39,33.40,33.40,33.41,33.43,33.44,33.44,33.44,33.44,33.44,33.44,33.44,33.45,33.49,33.50,33.50,33.51,33.54,33.54,33.54,33.54,33.54,33.54,33.54,33.54,33.54,33.54,33.54,33.54,33.54,33.54,33.54,33.58,33.60,33.60,33.60,33.60,33.60,33.58,33.54,33.54,33.54,33.54,33.54,33.54,33.54,33.54,33.54,33.54,33.54,33.54,33.54,33.57,33.77,34.00,34.25,34.51,34.78,35.11,35.48,35.87,36.25,36.64,37.02,37.38,37.70,38.09,38.47,38.88,39.37,40.12,41.20,42.32,43.72,46.06,50.71,58.47,65.25,69.39,70.65,71.89,72.94,73.81,74.55,75.22,76.28,77.20,77.83,78.45,79.18,79.99,80.79,81.44,82.33,83.45,84.64,85.72,86.46,86.86,87.16,87.41,87.58,87.69,87.60,87.06,85.74,84.05,81.61,79.20,77.15,75.25,72.96,70.36,67.48,64.33,61.22,57.82,54.05,50.48,49.22,48.48,48.52,49.23,50.26,54.86,55.03,50.22,42.69,39.83,38.85,38.31,37.78,37.23,36.66,36.09,35.54,34.95,34.36,33.87,33.52,33.31,33.20,33.12,33.00,32.86,32.73,32.62,32.50,32.39,32.32,32.29
34.52,34.54,34.51,34.45,34.44,34.44,34.43,34.40,34.35,34.33,34.27,34.20,34.13,34.04,33.90,33.75,33.62,33.53,33.45,33.38,33.31,33.29,33.22,33.14,33.08,33.01,32.94,32.86,32.78,32.70,32.63,32.55,32.51,32.50,32.52,32.59,32.60,32.60,32.60,32.60,32.60,32.60,32.60,32.60,32.60,32.60,32.60,32.62,32.69,32.70,32.70,32.70,32.70,32.70,32.70,32.70,32.70,32.70,32.70,32.73,32.78,32.80,32.80,32.81,32.84,32.92,33.00,33.06,33.11,33.14,33.21,33.28,33.35,33.40,33.42,33.50,33.52,33.52,33.51,33.44,33.42,33.42,33.42,33.42,33.37,33.33,33.30,33.25,33.23,33.18,33.13,33.11,33.05,33.08,33.10,33.10,33.11,33.16,33.17,33.19,33.21,33.26,33.27,33.29,33.31,33.37,33.38,33.38,33.38,33.38,33.38,33.38,33.38,33.38,33.40,33.40,33.40,33.42,33.47,33.48,33.48,33.48,33.48,33.48,33.48,33.48,33.48,33.48,33.48,33.49,33.50,33.50,33.50,33.50,33.50,33.50,33.50,33.55,33.58,33.58,33.58,33.58,33.58,33.56,33.50,33.50,33.50,33.50,33.50,33.50,33.50,33.50,33.51,33.55,33.61,33.69,33.76,33.88,34.25,34.63,35.02,35.37,35.61,35.89,36.24,36.61,36.98,37.36,37.74,38.10,38.42,38.81,39.25,39.79,40.49,41.51,43.02,44.55,46.09,48.39,53.71,62.13,68.31,70.98,71.65,72.53,73.21,73.75,74.22,74.59,75.41,76.22,76.84,77.45,77.98,78.40,78.75,79.08,79.78,80.78,81.84,82.82,83.69,84.19,84.55,84.86,85.09,85.22,85.02,84.22,82.58,80.91,79.00,77.19,75.54,73.72,71.50,68.77,65.69,62.51,59.28,55.90,52.55,49.78,48.73,48.10,48.33,49.35,50.78,55.01,52.53,45.76,40.31,39.12,38.56,38.01,37.47,36.91,36.30,35.73,35.16,34.55,33.98,33.55,33.27,33.13,33.03,32.95,32.84,32.71,32.58,32.49,32.36,32.23,32.16,32.14
34.64,34.66,34.63,34.56,34.56,34.56,34.53,34.48,34.46,34.40,34.33,34.27,34.24,34.11,33.95,33.84,33.73,33.60,33.51,33.44,33.36,33.30,33.22,33.14,33.09,33.07,33.00,32.92,32.83,32.76,32.69,32.61,32.54,32.50,32.52,32.59,32.60,32.60,32.60,32.60,32.60,32.60,32.60,32.60,32.60,32.60,32.60,32.62,32.69,32.70,32.70,32.70,32.70,32.70,32.70,32.70,32.70,32.70,32.70,32.71,32.73,32.79,32.80,32.84,32.91,32.98,33.06,33.09,33.13,33.20,33.27,33.34,33.39,33.42,33.48,33.56,33.59,33.59,33.57,33.50,33.48,33.48,33.48,33.48,33.47,33.42,33.38,33.35,33.30,33.27,33.23,33.19,33.16,33.12,33.10,33.10,33.10,33.11,33.12,33.14,33.20,33.21,33.22,33.25,33.30,33.31,33.31,33.31,33.31,33.31,33.31,33.31,33.31,33.33,33.39,33.40,33.40,33.40,33.41,33.41,33.41,33.41,33.41,33.41,33.41,33.41,33.41,33.41,33.41,33.46,33.50,33.50,33.50,33.50,33.50,33.50,33.50,33.51,33.52,33.52,33.52,33.52,33.52,33.51,33.50,33.50,33.50,33.50,33.50,33.50,33.50,33.50,33.54,33.68,33.92,34.21,34.50,34.78,35.15,35.54,35.92,36.27,36.51,36.75,37.05,37.37,37.70,38.09,38.47,38.82,39.14,39.54,40.14,41.10,42.31,43.57,45.04,46.60,48.37,51.13,57.05,65.21,69.98,70.84,71.01,71.26,71.44,71.81,72.64,73.55,74.44,75.19,75.81,76.42,76.87,77.23,77.52,77.74,78.23,78.90,79.55,80.12,80.84,81.49,81.98,82.34,82.60,82.63,82.22,81.32,79.89,78.48,77.03,75.52,73.94,72.23,69.85,66.73,63.27,60.04,56.85,53.68,50.94,49.08,48.04,47.86,48.38,49.69,51.88,53.03,48.52,42.25,39.63,38.77,38.16,37.59,37.04,36.44,35.83,35.24,34.69,34.09,33.63,33.32,33.09,32.95,32.80,32.71,32.63,32.53,32.45,32.37,32.24,32.11,32.04,31.97
34.76,34.78,34.75,34.69,34.68,34.68,34.64,34.57,34.54,34.47,34.41,34.37,34.31,34.17,34.04,33.93,33.81,33.70,33.58,33.47,33.37,33.30,33.22,33.17,33.13,33.09,33.01,32.96,32.89,32.83,32.75,32.67,32.58,32.53,32.52,32.59,32.60,32.60,32.60,32.60,32.60,32.60,32.60,32.60,32.60,32.60,32.60,32.62,32.69,32.70,32.70,32.70,32.70,32.70,32.70,32.70,32.70,32.70,32.70,32.70,32.72,32.79,32.83,32.89,32.97,33.04,33.09,33.12,33.17,33.25,33.33,33.38,33.42,33.47,33.53,33.61,33.64,33.64,33.64,33.59,33.56,33.55,33.55,33.58,33.55,33.52,33.47,33.44,33.40,33.36,33.32,33.28,33.28,33.22,33.18,33.17,33.14,33.11,33.10,33.12,33.15,33.16,33.16,33.19,33.26,33.26,33.26,33.26,33.26,33.26,33.29,33.30,33.30,33.31,33.35,33.36,33.36,33.36,33.36,33.36,33.36,33.37,33.40,33.40,33.40,33.40,33.40,33.40,33.40,33.43,33.45,33.45,33.45,33.45,33.45,33.45,33.45,33.45,33.45,33.45,33.45,33.45,33.45,33.45,33.45,33.45,33.51,33.59,33.67,33.75,33.84,33.98,34.15,34.38,34.71,35.06,35.38,35.68,36.06,36.44,36.83,37.18,37.41,37.62,37.88,38.19,38.50,38.86,39.26,39.77,40.36,40.98,41.74,42.90,44.31,45.70,47.13,48.82,51.12,54.64,60.36,66.84,70.10,70.11,69.86,69.67,69.81,70.36,71.38,72.57,73.46,74.17,74.79,75.39,75.74,76.06,76.32,76.42,76.81,77.32,77.72,77.97,78.61,79.01,79.39,79.78,79.97,79.92,79.50,78.69,77.47,76.22,74.94,73.60,72.11,70.28,67.51,64.20,60.69,57.29,53.98,51.40,49.48,48.20,47.38,47.73,48.62,50.20,52.82,50.66,45.30,40.34,39.03,38.33,37.72,37.13,36.57,35.96,35.34,34.77,34.23,33.73,33.38,33.12,32.91,32.77,32.61,32.49,32.39,32.32,32.24,32.16,32.06,31.96,31.91,31.84
34.88,34.89,34.86,34.81,34.80,34.80,34.75,34.68,34.60,34.53,34.50,34.47,34.38,34.24,34.14,34.02,33.89,33.80,33.66,33.51,33.39,33.31,33.23,33.20,33.16,33.09,33.02,33.00,32.95,32.88,32.80,32.72,32.65,32.58,32.53,32.59,32.60,32.60,32.60,32.60,32.60,32.60,32.60,32.60,32.60,32.60,32.60,32.62,32.69,32.70,32.70,32.70,32.70,32.70,32.70,32.70,32.70,32.70,32.70,32.70,32.73,32.80,32.88,32.95,33.02,33.09,33.10,33.16,33.23,33.31,33.38,33.40,33.45,33.53,33.59,33.67,33.70,33.70,33.70,33.70,33.64,33.61,33.62,33.68,33.64,33.60,33.57,33.51,33.50,33.44,33.41,33.40,33.40,33.34,33.30,33.28,33.22,33.15,33.12,33.12,33.12,33.12,33.12,33.15,33.20,33.20,33.20,33.20,33.20,33.22,33.27,33.29,33.29,33.29,33.30,33.30,33.30,33.30,33.30,33.30,33.30,33.33,33.38,33.39,33.39,33.39,33.39,33.39,33.39,33.39,33.39,33.40,33.40,33.41,33.42,33.43,33.44,33.45,33.46,33.47,33.47,33.48,33.49,33.50,33.52,33.54,33.66,33.84,34.04,34.19,34.41,34.70,35.03,35.35,35.72,36.05,36.33,36.59,36.97,37.35,37.73,38.08,38.30,38.50,38.79,39.13,39.47,39.84,40.30,40.97,41.87,42.77,43.68,44.91,46.38,47.86,49.35,51.25,54.08,58.27,63.32,67.68,69.53,69.16,68.57,68.09,68.39,69.23,70.33,71.63,72.48,73.15,73.77,74.34,74.59,74.88,75.13,75.11,75.43,75.84,76.06,76.06,76.63,76.63,76.79,77.18,77.24,77.13,76.77,76.12,75.10,73.98,72.75,71.46,69.98,67.91,64.69,61.25,57.83,54.36,51.09,49.23,48.11,47.25,46.85,47.73,49.13,50.99,53.13,47.97,42.56,39.23,38.48,37.84,37.23,36.64,36.09,35.47,34.86,34.30,33.81,33.44,33.17,32.95,32.74,32.58,32.42,32.28,32.16,32.09,32.01,31.93,31.85,31.79,31.78,31.71
34.96,34.96,34.95,34.92,34.92,34.88,34.81,34.75,34.67,34.63,34.59,34.53,34.45,34.35,34.22,34.09,33.95,33.86,33.72,33.59,33.48,33.36,33.28,33.23,33.16,33.10,33.06,33.02,32.96,32.88,32.81,32.77,32.71,32.64,32.57,32.59,32.60,32.60,32.60,32.60,32.60,32.60,32.60,32.60,32.60,32.60,32.60,32.62,32.69,32.70,32.70,32.70,32.70,32.70,32.70,32.70,32.70,32.70,32.70,32.72,32.78,32.86,32.94,33.01,33.07,33.11,33.15,33.22,33.30,33.36,33.39,33.44,33.50,33.59,33.66,33.69,33.73,33.77,33.77,33.76,33.70,33.66,33.68,33.75,33.74,33.69,33.64,33.58,33.56,33.50,33.48,33.52,33.52,33.46,33.42,33.41,33.39,33.31,33.26,33.21,33.17,33.16,33.16,33.16,33.14,33.14,33.18,33.20,33.20,33.20,33.23,33.23,33.23,33.23,33.23,33.23,33.23,33.25,33.29,33.30,33.30,33.31,33.34,33.34,33.34,33.34,33.34,33.34,33.34,33.34,33.34,33.34,33.39,33.47,33.54,33.59,33.64,33.73,33.80,33.85,33.90,33.94,34.02,34.14,34.27,34.38,34.55,34.77,34.98,35.15,35.41,35.69,36.00,36.36,36.70,37.02,37.29,37.55,37.92,38.27,38.64,38.97,39.18,39.50,40.01,40.57,41.11,41.83,42.47,43.08,43.77,44.73,45.67,46.88,48.37,50.08,52.09,54.30,57.12,60.78,64.50,67.75,68.98,68.37,67.61,67.27,67.76,68.69,69.69,70.74,71.49,72.14,72.77,73.23,73.45,73.68,73.87,73.83,74.03,74.22,74.25,74.14,74.39,74.21,74.17,74.35,74.28,74.14,73.79,73.22,72.39,71.48,70.25,68.71,66.79,64.40,61.00,57.32,53.87,51.20,49.15,47.79,46.83,46.31,46.96,48.22,50.68,52.90,50.52,44.51,40.47,38.67,37.99,37.37,36.75,36.16,35.61,35.00,34.42,33.92,33.51,33.23,32.99,32.79,32.60,32.41,32.24,32.09,31.97,31.89,31.82,31.74,31.66,31.62,31.61,31.54
35.02,35.02,35.02,35.02,35.02,34.95,34.88,34.81,34.73,34.73,34.68,34.62,34.54,34.44,34.30,34.15,34.03,33.92,33.79,33.69,33.57,33.43,33.34,33.25,33.17,33.12,33.10,33.03,32.96,32.88,32.83,32.80,32.75,32.67,32.61,32.60,32.60,32.60,32.60,32.60,32.60,32.60,32.60,32.60,32.60,32.60,32.60,32.61,32.66,32.69,32.70,32.70,32.70,32.70,32.70,32.70,32.70,32.70,32.71,32.77,32.84,32.92,33.00,33.06,33.11,33.13,33.20,33.28,33.35,33.40,33.42,33.48,33.56,33.64,33.70,33.72,33.78,33.83,33.83,33.83,33.77,33.73,33.74,33.81,33.83,33.78,33.70,33.65,33.63,33.58,33.57,33.62,33.64,33.58,33.55,33.56,33.54,33.47,33.39,33.33,33.27,33.27,33.25,33.22,33.17,33.17,33.22,33.25,33.25,33.25,33.26,33.27,33.27,33.27,33.27,33.27,33.27,33.28,33.34,33.35,33.35,33.35,33.36,33.42,33.47,33.52,33.59,33.62,33.64,33.67,33.69,33.72,33.80,33.93,34.04,34.12,34.21,34.34,34.45,34.52,34.60,34.66,34.78,34.97,35.19,35.34,35.56,35.78,35.99,36.17,36.45,36.73,37.01,37.36,37.67,37.98,38.25,38.54,39.06,39.84,40.44,40.81,41.17,41.45,41.85,42.41,43.17,44.11,44.88,45.40,45.85,46.73,47.67,48.94,50.55,52.45,54.84,57.23,59.84,62.80,65.56,67.67,68.20,67.40,66.59,66.58,67.25,68.18,69.08,69.94,70.58,71.17,71.74,72.11,72.31,72.47,72.58,72.53,72.64,72.59,72.42,72.22,72.23,71.94,71.66,71.48,71.33,71.18,70.80,70.23,69.48,68.67,67.42,65.65,63.29,60.46,56.95,53.47,50.48,48.59,47.44,46.53,45.92,45.99,47.39,49.21,51.54,52.36,46.85,41.59,39.05,38.20,37.51,36.88,36.28,35.70,35.13,34.52,34.00,33.59,33.27,33.04,32.81,32.63,32.45,32.23,32.06,31.91,31.79,31.69,31.62,31.54,31.46,31.41,31.42,31.37
35.09,35.09,35.09,35.09,35.08,35.02,34.94,34.86,34.80,34.78,34.77,34.73,34.65,34.51,34.36,34.24,34.13,34.00,33.90,33.78,33.63,33.49,33.41,33.28,33.20,33.17,33.11,33.03,32.96,32.90,32.88,32.82,32.75,32.67,32.61,32.60,32.60,32.60,32.60,32.60,32.60,32.60,32.60,32.60,32.60,32.60,32.60,32.60,32.62,32.67,32.70,32.70,32.70,32.70,32.70,32.70,32.70,32.70,32.75,32.83,32.89,32.97,33.06,33.09,33.12,33.19,33.27,33.34,33.39,33.41,33.48,33.55,33.63,33.69,33.70,33.76,33.84,33.88,33.88,33.88,33.87,33.84,33.80,33.87,33.88,33.83,33.78,33.76,33.70,33.67,33.67,33.70,33.75,33.70,33.70,33.73,33.67,33.59,33.52,33.46,33.45,33.45,33.40,33.36,33.34,33.35,33.36,33.37,33.37,33.38,33.43,33.45,33.45,33.45,33.45,33.45,33.45,33.45,33.47,33.47,33.47,33.47,33.51,33.74,33.89,34.12,34.38,34.45,34.58,34.66,34.73,34.80,34.93,35.04,35.12,35.21,35.35,35.45,35.53,35.61,35.68,35.70,35.81,35.99,36.21,36.38,36.59,36.79,36.96,37.19,37.48,37.78,38.06,38.33,38.63,38.94,39.22,39.57,40.47,42.46,43.73,44.20,45.07,44.97,44.66,44.79,45.77,46.66,47.41,47.87,48.15,48.78,49.70,51.18,53.05,55.08,57.49,59.82,62.02,64.25,66.89,67.51,67.02,66.08,65.37,65.92,66.73,67.56,68.42,69.28,69.80,70.24,70.66,70.97,71.16,71.25,71.26,71.20,71.26,70.99,70.60,70.34,70.27,69.95,69.32,68.60,68.44,68.28,67.85,67.19,66.34,65.39,64.11,62.23,59.54,56.08,52.51,49.95,48.31,46.99,45.89,45.38,45.62,46.73,48.21,50.92,51.00,47.46,42.08,39.75,38.57,37.72,37.03,36.41,35.83,35.25,34.65,34.04,33.64,33.34,33.09,32.86,32.63,32.45,32.27,32.04,31.88,31.73,31.58,31.46,31.38,31.30,31.22,31.19,31.24,31.24
35.19,35.19,35.17,35.14,35.14,35.08,35.00,34.93,34.89,34.89,34.87,34.81,34.72,34.58,34.45,34.33,34.22,34.10,33.98,33.84,33.70,33.58,33.47,33.35,33.26,33.19,33.11,33.03,32.97,32.94,32.89,32.83,32.77,32.72,32.65,32.64,32.62,32.60,32.60,32.60,32.60,32.60,32.60,32.60,32.60,32.60,32.60,32.60,32.61,32.67,32.70,32.70,32.70,32.70,32.70,32.70,32.71,32.74,32.81,32.89,32.95,33.03,33.08,33.12,33.17,33.25,33.33,33.37,33.41,33.46,33.53,33.61,33.66,33.71,33.75,33.81,33.89,33.95,33.95,33.95,33.95,33.91,33.86,33.93,33.95,33.92,33.87,33.84,33.80,33.79,33.79,33.80,33.87,33.82,33.83,33.87,33.79,33.71,33.66,33.63,33.63,33.63,33.57,33.52,33.52,33.52,33.52,33.55,33.57,33.58,33.61,33.63,33.63,33.63,33.63,33.63,33.65,33.67,33.67,33.67,33.69,33.80,34.05,34.38,34.55,34.77,35.07,35.32,35.54,35.70,35.81,35.92,36.04,36.13,36.22,36.34,36.45,36.54,36.60,36.65,36.73,36.76,36.88,37.05,37.24,37.39,37.61,37.80,37.98,38.25,38.55,38.92,39.53,40.64,41.90,42.98,43.77,44.27,44.96,46.37,47.22,47.47,47.87,47.47,47.07,47.22,48.21,49.07,49.76,50.17,50.46,51.25,52.19,53.70,55.63,57.69,59.88,62.06,63.89,65.33,67.18,66.96,65.95,64.95,64.61,65.32,66.18,67.01,67.89,68.74,69.22,69.54,69.81,70.02,70.07,70.16,70.24,70.20,70.17,69.87,69.49,69.25,69.14,68.62,67.71,66.68,66.06,65.56,65.01,64.29,63.25,61.89,60.20,57.93,55.07,52.15,49.46,47.64,46.43,45.35,45.06,45.42,46.31,47.79,49.60,49.85,47.50,43.27,39.96,38.85,38.06,37.23,36.55,35.92,35.35,34.78,34.19,33.68,33.38,33.14,32.91,32.68,32.48,32.29,32.08,31.86,31.71,31.55,31.39,31.25,31.14,31.06,30.98,30.96,31.06,31.08
35.30,35.29,35.25,35.20,35.18,35.12,35.05,35.00,34.99,34.99,34.94,34.87,34.77,34.62,34.52,34.41,34.27,34.18,34.05,33.89,33.77,33.67,33.53,33.43,33.33,33.20,33.12,33.04,33.01,32.98,32.91,32.84,32.81,32.78,32.71,32.70,32.65,32.61,32.60,32.60,32.60,32.60,32.60,32.60,32.60,32.60,32.60,32.60,32.61,32.67,32.70,32.70,32.70,32.70,32.70,32.70,32.72,32.79,32.86,32.95,33.02,33.08,33.10,33.16,33.22,33.31,33.38,33.40,33.44,33.52,33.59,33.66,33.70,33.73,33.80,33.88,33.95,34.01,34.01,34.01,34.01,33.97,33.93,33.99,34.01,34.01,33.97,33.92,33.90,33.90,33.90,33.92,33.99,33.94,33.95,33.99,33.91,33.84,33.81,33.80,33.81,33.81,33.75,33.71,33.72,33.72,33.72,33.76,33.80,33.81,33.81,33.81,33.81,33.81,33.81,33.81,33.85,33.90,33.91,33.95,34.04,34.30,34.79,35.15,35.30,35.45,35.73,36.14,36.47,36.70,36.88,37.03,37.14,37.22,37.32,37.45,37.54,37.61,37.65,37.67,37.75,37.83,37.95,38.11,38.28,38.54,38.86,39.23,39.65,40.17,40.67,41.25,42.27,44.23,46.15,47.85,49.07,49.65,49.95,50.25,50.41,50.35,50.03,49.48,49.25,49.55,50.47,51.33,51.98,52.38,52.74,53.83,54.83,56.31,58.22,60.27,62.16,63.99,65.34,66.03,66.89,66.15,64.88,63.89,64.05,64.78,65.64,66.50,67.39,68.25,68.68,68.91,69.03,69.08,68.99,69.12,69.36,69.37,69.25,68.97,68.68,68.45,68.30,67.51,66.40,65.19,64.04,63.07,62.19,61.16,59.76,58.01,55.97,53.45,50.64,48.64,47.03,45.80,44.82,44.07,44.80,46.05,47.48,48.98,50.27,47.31,43.17,39.85,38.95,38.30,37.55,36.75,36.06,35.44,34.88,34.31,33.76,33.38,33.16,32.96,32.73,32.50,32.34,32.13,31.90,31.68,31.52,31.37,31.21,31.06,30.91,30.83,30.75,30.74,30.86,30.90
35.37,35.33,35.27,35.19,35.14,35.11,35.09,35.05,35.01,35.00,34.98,34.90,34.72,34.57,34.47,34.38,34.27,34.15,34.04,33.90,33.77,33.69,33.54,33.44,33.35,33.25,33.17,33.09,33.06,33.05,32.97,32.94,32.89,32.83,32.77,32.76,32.70,32.64,32.60,32.60,32.60,32.60,32.60,32.60,32.60,32.60,32.60,32.60,32.61,32.67,32.70,32.70,32.70,32.70,32.70,32.72,32.77,32.84,32.92,33.00,33.07,33.10,33.14,33.22,33.28,33.36,33.39,33.44,33.50,33.58,33.65,33.69,33.73,33.78,33.86,33.94,34.02,34.06,34.06,34.06,34.06,34.05,34.03,34.06,34.11,34.10,34.06,34.02,33.98,33.96,33.99,34.04,34.11,34.06,34.07,34.11,34.03,34.00,33.96,33.94,33.99,33.99,33.93,33.91,33.95,33.95,33.95,33.97,34.01,34.05,34.05,34.05,34.05,34.05,34.05,34.05,34.07,34.09,34.13,34.42,34.78,35.22,35.70,35.92,36.02,36.15,36.37,36.73,37.13,37.48,37.78,38.06,38.21,38.30,38.39,38.49,38.57,38.64,38.69,38.70,38.77,38.85,38.98,39.14,39.41,40.23,41.25,42.63,44.39,46.25,47.89,49.29,50.55,51.49,50.78,50.77,51.06,51.21,51.39,51.58,51.69,51.59,51.23,51.09,51.04,51.35,52.23,53.12,53.94,54.48,54.93,56.10,57.32,58.85,60.70,62.73,64.45,65.07,65.26,65.50,65.79,64.82,63.58,62.88,63.58,64.41,65.22,66.03,66.87,67.72,68.05,68.12,68.06,67.94,67.84,68.11,68.56,68.72,68.61,68.28,67.93,67.63,67.24,66.31,65.14,63.90,62.66,61.44,59.26,56.58,54.21,52.70,51.35,49.73,47.86,46.35,44.90,44.05,43.93,44.64,45.88,47.30,49.06,50.16,46.36,43.00,40.50,38.88,38.31,37.74,37.06,36.31,35.59,34.96,34.39,33.88,33.46,33.21,33.00,32.78,32.55,32.33,32.16,31.95,31.72,31.50,31.35,31.19,31.04,30.88,30.73,30.63,30.56,30.54,30.65,30.75
35.38,35.31,35.25,35.16,35.09,35.08,35.08,35.06,35.01,34.98,34.96,34.87,34.66,34.49,34.38,34.28,34.20,34.05,33.95,33.84,33.74,33.69,33.58,33.50,33.44,33.38,33.29,33.19,33.14,33.11,33.03,33.02,32.97,32.90,32.85,32.83,32.77,32.69,32.62,32.60,32.60,32.60,32.60,32.60,32.60,32.60,32.60,32.60,32.61,32.67,32.70,32.70,32.70,32.70,32.71,32.75,32.83,32.91,32.98,33.05,33.10,33.13,33.20,33.28,33.34,33.39,33.42,33.48,33.56,33.63,33.69,33.71,33.77,33.84,33.92,34.00,34.06,34.11,34.12,34.13,34.13,34.13,34.13,34.13,34.20,34.19,34.14,34.12,34.05,34.04,34.08,34.16,34.21,34.18,34.19,34.23,34.18,34.16,34.11,34.10,34.17,34.17,34.13,34.13,34.17,34.17,34.17,34.18,34.21,34.27,34.29,34.30,34.30,34.30,34.30,34.30,34.34,34.42,34.59,35.07,35.61,36.13,36.55,36.67,36.75,36.86,37.05,37.34,37.74,38.15,38.56,38.96,39.32,39.67,39.92,40.07,40.18,40.28,40.35,40.44,40.78,41.53,42.32,43.05,43.84,45.28,46.75,48.45,50.48,52.57,54.40,55.88,56.94,56.99,54.45,53.25,52.88,52.66,52.65,52.71,52.75,52.67,52.48,52.64,52.73,53.04,53.90,54.82,55.76,56.48,57.10,58.29,59.58,61.15,62.77,64.05,64.86,64.55,64.13,64.21,64.18,63.28,62.37,62.09,63.11,64.04,64.87,65.64,66.41,67.09,67.25,67.17,66.99,66.78,66.69,67.06,67.68,68.02,67.99,67.64,67.22,66.83,66.19,65.14,63.95,62.73,61.44,59.49,56.14,52.35,49.51,48.23,47.41,46.50,45.35,44.17,43.38,43.33,44.13,45.80,47.30,48.57,49.34,48.36,42.57,39.88,38.81,38.27,37.71,37.16,36.55,35.86,35.11,34.47,33.95,33.52,33.22,33.05,32.83,32.60,32.36,32.14,31.98,31.78,31.54,31.32,31.16,31.00,30.86,30.70,30.55,30.44,30.36,30.33,30.42,30.56
35.33,35.25,35.18,35.11,35.03,35.02,35.02,35.01,34.99,34.94,34.87,34.77,34.59,34.37,34.22,34.11,34.01,33.86,33.77,33.69,33.65,33.69,33.67,33.66,33.65,33.61,33.47,33.33,33.23,33.17,33.09,33.09,33.03,32.98,32.96,32.90,32.83,32.75,32.67,32.61,32.60,32.60,32.60,32.60,32.60,32.60,32.60,32.60,32.61,32.67,32.70,32.70,32.70,32.70,32.74,32.81,32.89,32.97,33.05,33.09,33.11,33.18,33.25,33.34,33.39,33.41,33.47,33.54,33.61,33.68,33.70,33.75,33.83,33.91,33.98,34.06,34.09,34.13,34.18,34.19,34.19,34.19,34.19,34.19,34.25,34.28,34.25,34.18,34.11,34.13,34.20,34.27,34.28,34.27,34.31,34.37,34.35,34.29,34.26,34.28,34.34,34.36,34.34,34.34,34.36,34.36,34.36,34.39,34.44,34.46,34.52,34.54,34.54,34.54,34.54,34.54,34.68,34.98,35.45,35.98,36.52,36.99,37.29,37.39,37.47,37.58,37.76,38.01,38.32,38.72,39.17,39.68,40.50,41.45,42.17,42.48,42.70,42.85,42.99,43.28,44.25,46.70,49.15,51.34,53.32,55.34,56.75,57.60,58.02,58.45,58.83,59.15,59.37,59.09,56.59,55.45,55.07,54.71,54.34,54.04,53.86,53.84,53.99,54.20,54.33,54.67,55.53,56.45,57.42,58.34,59.24,60.40,61.53,63.06,64.23,63.62,62.41,61.77,61.70,61.96,61.97,61.54,61.34,61.65,62.66,63.70,64.57,65.34,66.04,66.35,66.24,66.00,65.79,65.63,65.59,65.98,66.66,67.22,67.35,67.04,66.59,66.06,65.16,64.05,62.89,61.72,60.31,56.90,52.74,48.95,46.52,45.32,44.58,43.85,42.94,41.91,42.70,44.17,45.81,47.49,48.99,49.75,47.57,42.01,39.91,38.92,38.27,37.72,37.12,36.56,36.01,35.38,34.63,33.99,33.57,33.27,33.03,32.86,32.65,32.42,32.19,31.97,31.80,31.59,31.36,31.14,30.98,30.82,30.67,30.52,30.37,30.22,30.12,30.09,30.18,30.32
35.28,35.19,35.12,35.05,34.97,34.93,34.89,34.86,34.86,34.82,34.76,34.65,34.49,34.29,34.10,34.01,33.99,33.94,33.89,33.85,33.84,33.91,33.92,33.92,33.89,33.81,33.66,33.50,33.37,33.26,33.16,33.14,33.09,33.05,33.03,32.96,32.89,32.81,32.72,32.66,32.61,32.60,32.60,32.60,32.60,32.60,32.60,32.60,32.61,32.67,32.70,32.70,32.70,32.73,32.80,32.88,32.95,33.03,33.08,33.12,33.16,33.23,33.31,33.37,33.41,33.45,33.53,33.61,33.66,33.70,33.74,33.81,33.89,33.97,34.04,34.09,34.12,34.17,34.25,34.28,34.26,34.24,34.24,34.25,34.31,34.34,34.32,34.25,34.20,34.24,34.31,34.35,34.38,34.39,34.43,34.49,34.48,34.45,34.43,34.47,34.53,34.53,34.53,34.53,34.53,34.53,34.53,34.58,34.64,34.68,34.72,34.73,34.75,34.78,34.86,35.07,35.40,35.84,36.38,36.92,37.44,37.84,38.03,38.12,38.19,38.29,38.43,38.67,38.93,39.42,40.23,41.46,42.76,43.99,44.92,45.46,45.94,46.43,47.42,49.05,51.28,53.30,54.97,56.40,57.67,58.88,59.66,60.02,60.05,60.05,60.05,60.05,60.04,59.80,58.31,57.44,56.91,56.35,55.82,55.38,55.10,55.08,55.47,55.76,55.92,56.30,57.20,58.12,59.00,59.86,60.77,61.85,62.90,63.60,63.55,62.22,60.73,60.08,60.02,60.20,60.14,60.30,60.70,61.32,62.23,63.26,64.20,65.01,65.60,65.56,65.22,64.86,64.59,64.45,64.47,64.89,65.59,66.25,66.64,66.44,65.97,65.45,64.63,63.55,62.39,61.16,59.36,54.62,49.91,46.20,43.89,42.63,42.06,41.71,41.47,41.66,43.31,45.38,47.35,48.75,48.61,46.91,43.68,39.68,38.81,38.24,37.69,37.13,36.56,36.01,35.45,34.82,34.16,33.65,33.32,33.08,32.88,32.69,32.47,32.23,32.02,31.82,31.63,31.41,31.18,30.96,30.80,30.64,30.49,30.34,30.18,30.06,29.96,29.91,29.95,30.12
35.25,35.15,35.06,34.98,34.91,34.83,34.76,34.70,34.69,34.69,34.63,34.52,34.36,34.21,34.03,33.98,34.05,34.11,34.13,34.13,34.15,34.22,34.22,34.21,34.14,33.99,33.84,33.68,33.53,33.38,33.24,33.21,33.16,33.11,33.09,33.02,32.95,32.86,32.78,32.72,32.64,32.61,32.60,32.60,32.60,32.60,32.60,32.60,32.61,32.67,32.70,32.70,32.72,32.78,32.86,32.94,33.01,33.08,33.10,33.15,33.22,33.30,33.37,33.40,33.43,33.50,33.59,33.66,33.70,33.73,33.80,33.87,33.95,34.02,34.09,34.11,34.16,34.23,34.31,34.38,34.34,34.30,34.31,34.32,34.38,34.41,34.38,34.32,34.31,34.36,34.40,34.43,34.49,34.51,34.55,34.61,34.61,34.61,34.61,34.66,34.75,34.78,34.80,34.82,34.82,34.83,34.84,34.87,34.93,35.03,35.06,35.11,35.17,35.26,35.42,35.85,36.34,36.85,37.36,37.88,38.36,38.67,38.76,38.85,38.93,39.02,39.17,39.46,39.80,40.46,41.69,43.69,45.40,46.76,47.80,48.59,49.38,50.42,52.35,55.21,58.32,59.27,59.53,59.67,59.79,59.91,59.98,60.04,60.09,60.10,60.11,60.10,60.08,59.98,59.66,59.13,58.47,57.76,57.18,56.68,56.34,56.32,56.88,57.25,57.49,57.92,58.78,59.65,60.38,61.11,61.95,62.95,63.82,63.52,62.25,60.71,59.55,58.93,58.70,58.73,58.67,59.41,60.31,61.13,61.92,62.87,63.84,64.66,65.07,64.73,64.22,63.76,63.41,63.25,63.34,63.81,64.53,65.28,65.95,65.83,65.37,64.88,64.26,63.24,62.09,60.75,58.39,52.53,47.37,43.75,41.60,40.34,40.00,40.08,40.60,42.15,44.26,46.45,48.29,48.92,46.94,42.95,39.70,38.84,38.27,37.67,37.09,36.55,36.00,35.45,34.87,34.27,33.72,33.38,33.13,32.92,32.74,32.52,32.29,32.05,31.85,31.68,31.46,31.23,31.00,30.79,30.62,30.46,30.31,30.16,30.02,29.93,29.86,29.79,29.77,29.95
35.30,35.17,35.04,34.92,34.84,34.77,34.69,34.62,34.57,34.52,34.45,34.34,34.20,34.09,34.09,34.16,34.28,34.35,34.41,34.45,34.50,34.52,34.52,34.45,34.33,34.17,34.02,33.87,33.70,33.54,33.35,33.28,33.22,33.16,33.15,33.08,33.00,32.92,32.84,32.78,32.70,32.64,32.60,32.60,32.60,32.60,32.60,32.60,32.61,32.67,32.70,32.71,32.77,32.84,32.92,33.00,33.06,33.09,33.14,33.20,33.28,33.35,33.39,33.43,33.49,33.56,33.64,33.69,33.72,33.78,33.86,33.93,34.00,34.07,34.10,34.15,34.22,34.30,34.36,34.39,34.38,34.37,34.38,34.42,34.45,34.46,34.46,34.43,34.43,34.45,34.49,34.54,34.62,34.63,34.67,34.73,34.73,34.78,34.80,34.90,35.16,35.31,35.47,35.57,35.62,35.66,35.68,35.63,35.66,35.92,36.09,36.35,36.58,36.72,36.93,37.32,37.71,38.05,38.40,38.82,39.18,39.41,39.49,39.61,39.74,39.92,40.23,40.87,41.75,42.84,44.29,46.26,48.00,49.33,50.45,51.48,52.55,54.60,56.66,58.36,59.63,59.95,60.00,60.02,60.06,60.06,60.06,60.08,60.11,60.16,60.16,60.14,60.09,60.05,59.94,59.73,59.33,58.74,58.30,57.77,57.41,57.41,57.96,58.48,58.92,59.37,59.90,60.47,60.99,61.66,62.56,63.49,63.60,62.86,61.62,60.37,59.43,58.46,57.77,57.68,58.22,59.32,60.42,61.30,62.00,62.82,63.64,64.22,64.24,63.79,63.26,62.76,62.35,62.07,62.22,62.73,63.55,64.64,65.35,65.23,64.77,64.29,63.77,62.91,61.85,60.30,57.12,50.82,45.23,41.57,40.26,39.54,39.55,39.97,40.89,42.70,44.68,46.30,46.75,44.80,42.66,40.41,38.81,38.27,37.72,37.12,36.54,36.00,35.46,34.88,34.30,33.80,33.44,33.17,32.97,32.78,32.57,32.34,32.11,31.88,31.66,31.50,31.28,31.05,30.84,30.65,30.45,30.29,30.13,29.99,29.89,29.84,29.82,29.81,29.84,29.92
35.38,35.25,35.11,34.95,34.84,34.75,34.69,34.61,34.53,34.45,34.38,34.29,34.14,34.05,34.15,34.31,34.47,34.57,34.66,34.74,34.77,34.77,34.77,34.66,34.51,34.36,34.20,34.05,33.88,33.70,33.50,33.38,33.28,33.23,33.21,33.14,33.06,32.98,32.91,32.83,32.75,32.67,32.62,32.60,32.60,32.60,32.60,32.60,32.63,32.67,32.71,32.75,32.83,32.90,32.97,33.05,33.10,33.12,33.19,33.27,33.34,33.39,33.42,33.47,33.55,33.62,33.69,33.71,33.75,33.84,33.92,33.99,34.06,34.11,34.13,34.20,34.28,34.35,34.40,34.42,34.44,34.44,34.44,34.51,34.52,34.54,34.55,34.53,34.55,34.55,34.58,34.66,34.71,34.74,35.05,35.58,36.04,36.17,36.20,36.32,36.59,36.77,36.96,37.09,37.14,37.18,37.17,36.95,36.80,37.07,37.26,37.64,38.00,38.23,38.47,38.80,39.09,39.33,39.55,39.85,40.09,40.26,40.38,40.60,40.94,41.26,41.65,42.51,43.93,45.44,46.98,48.64,50.19,51.52,52.81,54.11,55.33,57.65,59.33,60.00,60.00,60.02,60.02,60.05,60.09,60.10,60.12,60.13,60.14,60.19,60.22,60.18,60.13,60.12,60.04,60.02,59.86,59.48,59.22,58.75,58.43,58.45,58.93,59.44,59.92,60.33,60.66,61.07,61.50,62.10,62.92,63.67,63.34,62.43,61.34,60.36,59.52,58.27,57.13,56.77,57.75,59.12,60.35,61.28,61.94,62.65,63.33,63.69,63.48,62.98,62.43,61.89,61.37,60.94,61.16,61.81,62.81,64.10,64.76,64.60,64.15,63.70,63.23,62.54,61.60,59.83,55.69,49.18,43.55,40.09,39.38,39.08,39.34,40.04,41.27,43.12,44.60,45.11,44.19,41.38,39.66,38.80,38.26,37.72,37.18,36.60,36.02,35.46,34.91,34.33,33.81,33.43,33.22,33.00,32.85,32.67,32.44,32.21,31.98,31.75,31.53,31.35,31.13,30.90,30.69,30.50,30.28,30.12,29.98,29.87,29.81,29.80,29.80,29.82,29.87,29.89
35.49,35.40,35.28,35.12,34.92,34.81,34.75,34.67,34.58,34.51,34.48,34.41,34.25,34.12,34.21,34.40,34.60,34.75,34.89,34.95,34.95,34.95,34.95,34.84,34.69,34.53,34.38,34.23,34.03,33.83,33.66,33.52,33.37,33.28,33.27,33.20,33.13,33.05,32.97,32.89,32.81,32.73,32.67,32.61,32.60,32.60,32.60,32.61,32.67,32.70,32.73,32.81,32.89,32.96,33.03,33.09,33.11,33.17,33.25,33.33,33.39,33.40,33.46,33.53,33.61,33.68,33.70,33.75,33.81,33.89,33.97,34.05,34.09,34.12,34.19,34.26,34.34,34.39,34.41,34.47,34.54,34.54,34.50,34.57,34.59,34.63,34.65,34.60,34.65,34.67,34.70,34.77,34.79,34.85,35.78,37.45,38.98,39.24,39.29,39.36,39.41,39.45,39.53,39.59,39.59,39.53,39.47,38.95,38.41,38.46,38.50,38.84,39.29,39.67,39.91,40.16,40.44,40.71,40.86,41.00,41.15,41.30,41.49,41.89,42.66,43.20,43.52,44.37,46.23,48.11,49.63,50.71,51.81,53.19,54.79,56.43,57.64,59.07,59.87,60.00,60.01,60.06,60.09,60.09,60.10,60.10,60.15,60.19,60.19,60.20,60.26,60.24,60.19,60.17,60.10,60.09,60.05,59.97,59.85,59.60,59.42,59.44,59.77,60.06,60.34,60.63,60.97,61.47,61.99,62.51,63.03,63.45,63.20,62.42,61.45,60.63,59.73,58.35,56.85,55.96,57.10,58.63,59.95,60.93,61.62,62.27,62.81,63.09,62.88,62.38,61.79,61.16,60.48,59.85,60.18,61.12,62.39,63.66,64.15,63.94,63.50,63.09,62.63,62.13,61.35,59.35,54.10,47.54,42.45,39.53,38.97,38.86,39.23,40.10,41.55,43.35,43.89,42.64,40.63,39.64,38.86,38.26,37.72,37.18,36.64,36.09,35.51,34.92,34.38,33.83,33.45,33.21,33.04,32.87,32.76,32.61,32.38,32.15,31.91,31.69,31.46,31.23,31.00,30.77,30.54,30.32,30.10,29.97,29.88,29.81,29.80,29.80,29.80,29.80,29.82,29.88
35.56,35.48,35.38,35.22,35.06,34.94,34.85,34.77,34.70,34.65,34.61,34.55,34.41,34.24,34.29,34.47,34.68,34.87,34.97,35.00,35.01,35.04,35.05,34.98,34.87,34.72,34.55,34.37,34.18,34.00,33.84,33.69,33.51,33.38,33.33,33.27,33.19,33.11,33.03,32.95,32.88,32.82,32.75,32.65,32.61,32.60,32.62,32.65,32.69,32.73,32.78,32.86,32.95,33.02,33.07,33.11,33.16,33.23,33.31,33.37,33.41,33.44,33.52,33.59,33.66,33.70,33.74,33.81,33.88,33.95,34.03,34.08,34.12,34.17,34.25,34.32,34.37,34.41,34.46,34.53,34.61,34.63,34.60,34.64,34.64,34.70,34.73,34.70,34.73,34.77,34.81,34.92,35.30,35.95,37.19,38.77,39.92,40.23,40.39,40.58,40.75,40.89,41.04,41.01,40.83,40.70,40.59,40.16,39.68,39.59,39.58,39.86,40.25,40.62,40.86,41.14,41.49,41.81,41.97,42.08,42.22,42.39,42.63,43.10,43.94,44.73,45.39,46.19,48.04,49.75,51.12,52.24,53.26,54.47,56.00,57.72,58.91,59.68,60.00,60.01,60.05,60.09,60.10,60.11,60.14,60.15,60.18,60.22,60.24,60.25,60.31,60.32,60.28,60.25,60.20,60.19,60.19,60.17,60.11,59.99,59.93,59.97,60.17,60.43,60.67,60.94,61.27,61.72,62.22,62.69,63.05,63.18,63.01,62.43,61.63,60.88,60.04,58.64,56.95,55.59,56.25,57.81,59.37,60.55,61.19,61.77,62.30,62.56,62.29,61.81,61.25,60.49,59.58,59.04,59.88,61.07,62.28,63.35,63.48,63.12,62.62,62.13,61.63,61.27,60.06,57.17,51.53,45.51,41.39,39.22,38.67,38.54,38.95,39.73,40.84,42.09,42.04,40.83,39.35,38.84,38.30,37.77,37.21,36.64,36.10,35.56,34.99,34.42,33.90,33.47,33.20,33.00,32.82,32.70,32.58,32.45,32.28,32.08,31.85,31.60,31.35,31.11,30.85,30.61,30.36,30.12,29.98,29.92,29.86,29.80,29.80,29.80,29.80,29.80,29.80,29.84
35.63,35.55,35.44,35.29,35.20,35.07,34.96,34.88,34.82,34.81,34.76,34.69,34.58,34.37,34.37,34.51,34.73,34.93,34.98,34.99,35.02,35.08,35.09,35.09,35.02,34.88,34.72,34.52,34.33,34.16,33.99,33.83,33.64,33.48,33.41,33.34,33.26,33.18,33.10,33.02,32.95,32.91,32.85,32.72,32.63,32.61,32.64,32.69,32.71,32.78,32.84,32.92,33.00,33.08,33.10,33.14,33.22,33.29,33.36,33.40,33.43,33.50,33.58,33.65,33.70,33.72,33.78,33.86,33.94,34.01,34.08,34.11,34.15,34.22,34.30,34.37,34.40,34.44,34.52,34.59,34.66,34.70,34.70,34.70,34.71,34.76,34.81,34.81,34.85,34.93,35.01,35.19,35.94,37.17,38.50,39.59,40.04,40.37,40.65,40.96,41.31,41.66,41.96,41.95,41.65,41.49,41.34,41.07,40.77,40.59,40.56,40.80,41.11,41.41,41.66,42.01,42.42,42.81,43.00,43.16,43.31,43.50,43.80,44.31,45.06,46.06,47.13,47.93,49.57,50.99,52.17,53.49,54.57,55.63,57.00,58.66,59.71,59.98,60.00,60.03,60.09,60.10,60.11,60.13,60.19,60.19,60.20,60.24,60.30,60.31,60.37,60.40,60.38,60.32,60.31,60.31,60.31,60.30,60.24,60.22,60.26,60.33,60.45,60.70,60.96,61.23,61.55,61.93,62.36,62.75,63.00,62.89,62.79,62.40,61.77,61.07,60.31,58.95,57.09,55.32,55.39,56.97,58.81,60.23,60.80,61.34,61.83,62.03,61.70,61.25,60.70,59.73,58.57,58.51,59.90,61.23,62.20,62.92,62.66,62.07,61.37,60.60,59.94,59.49,57.75,54.14,48.73,43.50,40.41,38.98,38.42,38.21,38.62,39.24,39.90,40.50,40.08,39.42,38.83,38.34,37.81,37.27,36.71,36.11,35.56,35.02,34.48,33.96,33.47,33.18,32.98,32.80,32.60,32.50,32.37,32.25,32.15,31.99,31.78,31.52,31.25,31.01,30.71,30.45,30.19,29.94,29.90,29.89,29.85,29.80,29.80,29.80,29.80,29.80,29.79,29.80
35.70,35.61,35.50,35.36,35.27,35.13,35.03,34.96,34.94,34.93,34.92,34.85,34.71,34.54,34.44,34.49,34.67,34.84,34.91,34.94,34.96,35.02,35.04,35.07,35.08,35.00,34.85,34.68,34.48,34.27,34.01,33.80,33.68,33.60,33.52,33.45,33.37,33.29,33.22,33.14,33.06,33.00,32.93,32.82,32.70,32.66,32.68,32.71,32.76,32.84,32.91,32.98,33.06,33.09,33.14,33.20,33.28,33.35,33.39,33.43,33.48,33.56,33.64,33.68,33.72,33.77,33.84,33.92,34.00,34.07,34.09,34.14,34.20,34.28,34.36,34.39,34.44,34.50,34.58,34.65,34.69,34.73,34.77,34.77,34.81,34.85,34.88,34.95,35.14,35.40,35.65,35.93,36.52,37.53,38.43,39.07,39.45,39.81,40.07,40.30,40.64,41.23,41.87,42.30,42.42,42.27,42.08,41.81,41.56,41.44,41.38,41.62,41.96,42.25,42.49,42.85,43.27,43.71,44.05,44.24,44.39,44.63,45.04,45.57,46.19,47.09,48.25,49.35,50.67,51.87,53.01,54.30,55.56,56.82,58.18,59.47,59.92,60.00,60.03,60.07,60.10,60.10,60.13,60.17,60.20,60.20,60.24,60.28,60.31,60.36,60.39,60.43,60.46,60.44,60.43,60.43,60.43,60.43,60.41,60.44,60.51,60.59,60.73,60.92,61.18,61.47,61.79,62.17,62.46,62.64,62.67,62.58,62.46,62.16,61.69,61.03,60.37,58.97,56.95,54.91,54.75,56.57,58.66,60.20,60.77,61.30,61.52,61.43,61.10,60.66,59.98,58.53,57.11,58.79,60.40,61.36,61.76,61.77,61.34,60.31,58.86,57.18,55.79,54.34,52.46,49.92,46.36,42.12,39.76,38.78,38.17,37.87,38.26,38.86,39.36,39.57,39.24,38.79,38.33,37.81,37.28,36.74,36.19,35.61,35.02,34.47,33.98,33.57,33.24,32.99,32.78,32.57,32.40,32.27,32.16,32.06,31.97,31.82,31.64,31.45,31.24,31.00,30.70,30.41,30.14,29.91,29.85,29.84,29.82,29.80,29.80,29.80,29.80,29.79,29.74,29.73
35.77,35.67,35.55,35.42,35.33,35.21,35.11,35.05,35.03,35.02,35.02,34.97,34.84,34.73,34.58,34.55,34.65,34.74,34.80,34.83,34.87,34.94,34.97,35.02,35.06,35.07,34.97,34.80,34.59,34.34,34.02,33.79,33.73,33.70,33.62,33.55,33.47,33.39,33.31,33.23,33.18,33.11,33.02,32.92,32.77,32.71,32.70,32.72,32.79,32.87,32.94,33.02,33.09,33.12,33.17,33.25,33.33,33.39,33.41,33.47,33.55,33.62,33.68,33.71,33.75,33.83,33.91,33.98,34.05,34.10,34.13,34.20,34.27,34.34,34.39,34.42,34.47,34.56,34.63,34.69,34.71,34.77,34.83,34.83,34.91,34.98,35.05,35.19,35.49,35.85,36.20,36.54,36.96,37.66,38.22,38.58,38.95,39.34,39.58,39.80,40.15,40.90,41.69,42.37,42.81,42.84,42.76,42.56,42.35,42.27,42.17,42.39,42.74,43.07,43.31,43.68,44.12,44.59,45.05,45.30,45.49,45.78,46.27,46.80,47.34,48.12,49.20,50.50,51.61,52.70,53.83,55.07,56.40,57.73,58.99,59.92,60.00,60.00,60.03,60.08,60.08,60.09,60.14,60.17,60.18,60.20,60.25,60.27,60.29,60.36,60.38,60.42,60.48,60.50,60.52,60.54,60.55,60.55,60.58,60.65,60.72,60.82,60.99,61.15,61.39,61.66,61.91,62.18,62.33,62.36,62.30,62.22,62.10,61.90,61.55,60.93,60.35,58.88,56.71,54.46,54.00,56.20,58.63,60.22,60.73,61.16,61.17,60.90,60.49,59.65,58.48,56.99,56.23,59.08,60.60,61.13,60.84,59.64,58.65,57.10,55.20,53.27,51.66,49.90,48.22,46.51,44.15,41.02,39.33,38.59,37.93,37.49,37.84,38.41,38.80,38.75,38.51,38.19,37.80,37.27,36.73,36.19,35.65,35.10,34.51,33.99,33.57,33.25,33.04,32.81,32.58,32.36,32.19,32.03,31.94,31.86,31.77,31.62,31.48,31.34,31.16,30.95,30.69,30.42,30.16,29.96,29.85,29.81,29.80,29.80,29.80,29.80,29.80,29.78,29.73,29.72
35.83,35.72,35.62,35.48,35.39,35.31,35.23,35.15,35.09,35.09,35.09,35.05,34.98,34.95,34.82,34.72,34.68,34.64,34.64,34.69,34.76,34.83,34.90,34.92,34.99,35.09,35.06,34.88,34.66,34.38,34.03,33.84,33.78,33.75,33.68,33.61,33.53,33.45,33.37,33.30,33.28,33.22,33.13,32.98,32.83,32.74,32.70,32.72,32.79,32.87,32.94,33.02,33.10,33.16,33.23,33.31,33.38,33.40,33.45,33.53,33.60,33.67,33.70,33.74,33.81,33.89,33.97,34.05,34.09,34.11,34.18,34.25,34.33,34.39,34.41,34.47,34.53,34.61,34.68,34.70,34.75,34.83,34.88,34.90,35.02,35.16,35.31,35.55,35.90,36.23,36.58,36.93,37.21,37.63,38.02,38.34,38.66,39.04,39.32,39.59,40.03,40.82,41.51,42.14,42.72,43.14,43.36,43.33,43.19,43.10,42.97,43.11,43.44,43.84,44.10,44.51,44.96,45.44,45.95,46.34,46.60,46.93,47.46,48.00,48.54,49.15,49.98,51.31,52.39,53.48,54.63,55.81,57.05,58.26,59.29,59.94,59.99,60.00,60.01,60.02,60.02,60.07,60.11,60.12,60.13,60.18,60.21,60.22,60.23,60.30,60.31,60.36,60.43,60.50,60.57,60.63,60.67,60.68,60.75,60.82,60.90,61.01,61.22,61.38,61.60,61.79,61.88,61.88,61.89,61.90,61.88,61.80,61.72,61.62,61.36,60.76,60.25,58.68,56.38,53.99,53.06,55.81,58.66,60.25,60.66,60.84,60.74,60.46,59.86,58.15,56.05,55.08,56.16,59.27,60.33,60.36,59.27,56.33,54.31,52.17,50.27,48.98,47.86,46.81,45.70,44.28,42.10,40.23,39.11,38.41,37.72,37.08,37.37,37.89,38.17,38.00,37.77,37.52,37.20,36.72,36.19,35.65,35.11,34.57,34.02,33.59,33.25,33.02,32.84,32.63,32.39,32.17,31.95,31.79,31.70,31.62,31.52,31.38,31.28,31.16,30.99,30.83,30.65,30.48,30.28,30.06,29.92,29.83,29.80,29.80,29.80,29.80,29.80,29.80,29.79,29.79
35.88,35.78,35.67,35.54,35.45,35.38,35.31,35.22,35.15,35.11,35.10,35.08,35.05,35.04,34.95,34.87,34.83,34.79,34.75,34.77,34.81,34.85,34.89,34.92,35.00,35.10,35.13,34.98,34.74,34.45,34.13,33.94,33.89,33.86,33.79,33.71,33.63,33.55,33.48,33.41,33.36,33.30,33.21,33.09,32.94,32.81,32.73,32.71,32.75,32.81,32.89,32.97,33.05,33.13,33.20,33.28,33.36,33.39,33.46,33.54,33.62,33.69,33.73,33.80,33.88,33.94,33.99,34.06,34.12,34.16,34.23,34.31,34.37,34.41,34.45,34.53,34.59,34.66,34.70,34.74,34.81,34.89,34.98,35.13,35.31,35.48,35.66,35.90,36.20,36.54,36.87,37.17,37.41,37.77,38.11,38.42,38.73,39.04,39.30,39.56,39.93,40.53,41.15,41.73,42.28,42.81,43.31,43.63,43.81,43.88,43.79,43.90,44.19,44.59,44.91,45.38,45.86,46.33,46.81,47.16,47.42,47.71,48.10,48.50,48.89,49.33,49.93,50.96,51.91,52.92,53.94,54.94,56.01,57.20,58.36,59.27,59.58,59.77,59.91,60.00,60.00,60.04,60.05,60.06,60.11,60.14,60.16,60.17,60.21,60.25,60.26,60.30,60.38,60.46,60.53,60.61,60.68,60.76,60.84,60.91,61.01,61.12,61.24,61.36,61.51,61.61,61.60,61.50,61.44,61.42,61.41,61.38,61.30,61.27,61.11,60.54,59.85,58.01,55.53,53.09,51.73,54.05,57.29,59.81,60.33,60.45,60.37,59.89,58.59,56.38,53.97,53.28,54.96,57.45,57.38,56.01,54.05,51.87,50.29,48.66,47.17,46.04,45.06,44.16,43.15,41.98,40.65,39.59,38.85,38.23,37.53,36.84,36.98,37.33,37.48,37.27,37.04,36.80,36.53,36.13,35.64,35.11,34.57,34.05,33.61,33.27,32.99,32.77,32.58,32.36,32.12,31.89,31.67,31.54,31.45,31.38,31.29,31.18,31.06,30.95,30.82,30.66,30.51,30.36,30.19,30.01,29.92,29.84,29.80,29.80,29.80,29.83,29.84,29.83,29.80,29.80
35.95,35.85,35.74,35.61,35.52,35.45,35.38,35.30,35.22,35.15,35.12,35.11,35.11,35.11,35.04,35.00,35.00,34.99,34.94,34.91,34.92,34.93,34.94,34.98,35.05,35.13,35.17,35.06,34.82,34.51,34.22,34.05,34.01,33.98,33.91,33.83,33.75,33.68,33.60,33.52,33.45,33.37,33.29,33.19,33.04,32.90,32.78,32.71,32.71,32.76,32.83,32.92,32.99,33.06,33.14,33.22,33.30,33.37,33.45,33.53,33.60,33.68,33.76,33.83,33.91,33.98,34.00,34.06,34.13,34.20,34.29,34.36,34.40,34.43,34.50,34.59,34.65,34.70,34.72,34.79,34.86,34.96,35.10,35.38,35.62,35.81,36.00,36.23,36.48,36.81,37.11,37.36,37.59,37.93,38.26,38.56,38.86,39.10,39.34,39.57,39.82,40.19,40.72,41.24,41.74,42.30,43.00,43.64,44.15,44.45,44.49,44.62,44.88,45.26,45.62,46.09,46.55,46.98,47.39,47.65,47.88,48.11,48.36,48.61,48.86,49.15,49.55,50.23,51.01,51.85,52.67,53.43,54.32,55.51,56.87,58.15,58.73,59.16,59.51,59.78,59.91,59.98,60.00,60.03,60.08,60.09,60.10,60.13,60.19,60.20,60.20,60.23,60.30,60.38,60.46,60.54,60.64,60.77,60.85,60.93,61.04,61.15,61.17,61.23,61.32,61.34,61.24,61.10,61.00,60.95,60.95,60.94,60.89,60.91,60.83,60.30,59.35,57.24,54.64,52.17,50.44,51.88,55.13,58.47,59.33,59.53,59.46,58.73,56.74,54.30,51.93,51.39,53.03,54.61,53.48,50.90,48.35,47.43,46.58,45.66,44.63,43.55,42.69,41.85,40.90,39.98,39.50,39.00,38.52,37.99,37.33,36.66,36.63,36.77,36.76,36.54,36.31,36.07,35.82,35.49,35.07,34.56,34.04,33.56,33.23,32.98,32.74,32.51,32.28,32.05,31.82,31.58,31.37,31.30,31.22,31.14,31.06,30.99,30.85,30.73,30.63,30.48,30.32,30.17,30.04,29.92,29.89,29.84,29.80,29.80,29.82,29.87,29.90,29.87,29.81,29.80
36.01,35.91,35.82,35.72,35.59,35.54,35.49,35.41,35.34,35.26,35.20,35.16,35.16,35.16,35.11,35.06,35.06,35.06,35.04,35.04,35.05,35.10,35.11,35.12,35.17,35.23,35.20,35.07,34.83,34.52,34.23,34.15,34.14,34.11,34.03,33.95,33.87,33.80,33.72,33.64,33.56,33.49,33.39,33.26,33.11,32.99,32.88,32.77,32.71,32.72,32.78,32.86,32.93,33.00,33.08,33.17,33.23,33.31,33.39,33.47,33.55,33.63,33.70,33.78,33.86,33.93,33.99,34.06,34.13,34.21,34.29,34.37,34.43,34.48,34.56,34.64,34.69,34.72,34.78,34.86,34.92,35.08,35.32,35.57,35.81,36.03,36.26,36.54,36.77,37.04,37.30,37.53,37.77,38.04,38.31,38.56,38.82,39.05,39.28,39.50,39.69,39.91,40.24,40.67,41.20,41.80,42.41,43.03,43.64,44.24,44.66,44.99,45.29,45.56,45.80,46.11,46.40,46.66,46.90,47.09,47.28,47.49,47.77,48.01,48.27,48.59,48.98,49.47,49.95,50.45,50.94,51.44,52.17,53.29,54.66,56.01,56.66,57.22,57.90,58.70,59.44,59.87,60.00,60.01,60.03,60.04,60.07,60.11,60.13,60.13,60.13,60.15,60.19,60.27,60.34,60.42,60.53,60.66,60.70,60.76,60.85,60.94,60.99,61.02,61.08,61.07,60.89,60.73,60.60,60.53,60.52,60.48,60.53,60.58,60.49,60.02,58.88,56.74,54.22,51.77,49.73,49.78,51.51,54.06,55.84,56.50,56.37,55.38,53.30,51.29,49.56,48.92,49.50,50.10,49.08,47.17,45.32,44.56,43.75,42.92,42.05,41.20,40.75,40.35,39.85,39.30,38.86,38.40,37.97,37.53,37.03,36.45,36.28,36.20,36.05,35.82,35.55,35.29,35.05,34.78,34.44,33.99,33.57,33.23,32.93,32.67,32.45,32.22,31.98,31.75,31.49,31.22,31.04,31.07,31.00,30.90,30.83,30.80,30.66,30.53,30.40,30.29,30.10,29.99,29.95,29.89,29.85,29.81,29.80,29.81,29.86,29.89,29.90,29.88,29.81,29.80
