507.83,512.27,517.08,521.78,526.33,531.57,537.34,543.18,547.95,554.19,559.82,564.51,569.69,574.38,578.09,580.73,582.17,583.45,584.86,585.98,586.49,586.36,584.68,582.17,578.61,572.94,567.37,562.58,558.68,555.66,552.66,548.91,544.22,539.06,534.99,530.94,527.18,523.65,520.32,517.57,516.47,516.42,517.03,517.77,517.89,517.85,517.50,516.07,514.09,512.06,509.60,506.26,502.46,499.35,496.78,494.53,492.25,490.20,487.63,484.85,482.58,480.85,479.72,478.65,477.52,477.04,477.70,479.17,481.40,484.58,487.32,489.99,492.61,495.13,497.57,499.40,500.74,501.71,502.51,503.26,503.83,504.14,504.13,504.17,504.93,506.14,507.57,509.04,510.88,512.92,515.08,517.24,519.33,521.06,522.08,521.88,520.48,518.50,516.38,514.26,512.04,509.16,505.40,501.35,497.92,495.04,492.21,489.16,485.86,482.99,483.95,485.95,486.92,484.81,482.54,479.50,475.41,470.70,468.75,467.41,466.01,464.49,463.17,463.98,465.36,466.63,467.63,468.64,470.07,472.80,477.00,480.18,482.14,483.78,485.46,487.09,488.78,490.69,492.75,494.88,496.92,498.97,501.31,503.93,506.14,508.15,509.90,511.36,512.43,513.17,513.82,514.22,514.23,514.15,513.73,513.08,512.30,511.55,511.08,510.99,511.50,512.95,514.77,516.81,518.79,520.45,521.50,522.41,523.10,523.55,523.68,523.62,523.25,522.53,521.43,520.21,518.71,517.33,516.59,517.42,518.43,519.31,520.13,521.17,523.15,525.40,527.62,529.75,531.85,533.93,536.12,538.46,540.96,543.20,545.38,547.60,550.23,554.26,558.08,560.83,562.57,564.33,566.31,568.33,570.19,571.73,573.36,575.07,576.80,578.55,580.42,582.56,584.61,586.52,588.33,589.91,591.37,592.90,594.58,596.20,597.85,599.36,600.59,601.42,602.26,603.38,604.71,606.02,607.01,608.45,609.93,611.33,613.41,616.69,620.64,624.76,628.43,631.38,633.82,635.75,636.90,637.17,636.91,635.91,634.24,632.44,630.55,628.36,625.73,622.74,621.01,623.93,628.37,632.23,635.40,638.52
506.37,510.56,515.12,519.84,524.30,528.77,534.06,540.36,545.28,549.92,554.76,559.96,565.52,570.51,574.81,578.40,580.95,582.28,583.54,584.69,585.45,585.33,583.46,580.59,576.69,570.98,565.02,560.45,556.90,553.81,550.53,546.24,541.54,536.95,533.00,529.13,525.40,521.90,518.79,515.80,513.96,513.08,513.07,513.78,514.15,514.56,514.97,514.86,513.55,511.80,509.46,506.14,502.27,499.38,497.07,494.99,492.88,491.36,489.86,488.32,486.86,485.27,483.15,480.72,478.45,477.34,476.82,477.58,479.49,481.91,484.56,487.37,490.16,492.80,495.28,497.11,498.47,499.47,500.28,500.91,501.45,501.91,502.33,503.16,504.41,505.89,507.44,508.93,510.72,512.75,514.94,517.18,519.34,520.94,521.74,521.39,520.02,517.83,515.54,513.41,511.21,508.01,504.10,500.19,497.16,494.38,491.62,488.67,485.41,482.32,483.17,485.20,486.37,484.61,482.54,479.58,475.52,470.74,468.59,467.08,465.57,464.03,462.84,463.82,465.33,466.77,468.05,469.14,471.55,475.04,478.83,480.92,482.61,484.24,485.89,487.52,489.25,491.25,493.41,495.56,497.67,499.99,502.58,505.34,507.84,510.08,511.99,513.59,514.81,515.71,516.40,516.85,517.01,516.99,516.56,515.88,515.06,514.25,513.55,513.34,513.88,515.45,517.48,519.44,521.27,522.86,523.99,524.96,525.63,526.01,526.17,526.10,525.71,525.01,523.97,522.66,520.95,519.16,517.99,518.93,520.26,521.41,522.42,523.52,524.88,525.82,526.62,527.67,529.44,531.37,533.60,536.22,539.12,541.30,543.46,545.75,548.46,552.42,556.31,559.44,561.72,563.63,565.56,567.44,569.20,570.74,572.25,573.88,575.80,578.07,580.44,583.06,585.56,587.76,589.53,591.03,592.50,593.90,595.05,595.73,596.61,597.50,598.36,599.38,600.27,601.23,602.23,603.15,603.95,605.15,606.57,608.22,610.59,614.35,618.61,622.68,625.83,628.63,630.74,632.28,633.25,633.57,633.15,632.15,630.69,629.03,627.35,625.00,622.16,619.63,619.53,623.00,627.54,631.57,634.82,637.97
504.80,508.75,512.99,517.68,522.13,526.04,530.66,536.79,542.43,546.16,550.25,555.49,561.33,566.64,571.50,575.80,579.08,580.84,582.16,583.39,584.28,583.98,581.78,578.52,574.37,568.82,562.74,558.40,555.11,551.89,548.16,543.52,539.01,534.94,531.03,527.30,523.54,519.88,516.60,513.56,511.30,509.82,509.28,509.85,510.47,511.35,512.44,513.29,512.77,511.41,509.19,505.85,502.01,499.39,497.39,495.62,493.99,493.06,492.38,491.72,490.90,489.66,487.16,483.90,480.50,478.20,476.56,476.44,477.67,479.48,481.86,484.66,487.59,490.40,492.98,494.85,496.22,497.24,498.10,498.72,499.35,500.09,501.03,502.45,504.04,505.66,507.26,508.78,510.56,512.57,514.74,517.00,519.15,520.64,521.31,520.88,519.34,516.88,514.41,512.20,509.84,506.43,502.56,498.92,496.19,493.50,490.78,487.92,484.85,481.74,482.48,484.48,485.75,484.34,482.41,479.43,475.31,470.55,468.36,466.72,465.14,463.60,462.49,463.62,465.26,466.87,468.43,469.83,473.00,476.91,480.26,481.60,483.09,484.70,486.32,487.94,489.69,491.75,493.98,496.17,498.35,500.94,503.74,506.62,509.36,511.87,513.99,515.75,517.17,518.34,519.15,519.72,520.03,520.02,519.57,518.80,517.86,516.94,516.06,515.74,516.24,517.81,519.93,521.83,523.57,525.13,526.36,527.55,528.37,528.82,529.02,528.91,528.40,527.59,526.48,525.10,523.27,521.19,519.67,520.40,522.00,523.53,524.91,526.24,527.28,527.41,527.22,527.29,528.35,529.68,531.58,534.13,537.31,539.43,541.52,543.87,546.73,550.54,554.38,557.79,560.58,562.68,564.56,566.27,567.89,569.46,570.90,572.46,574.50,577.14,579.86,582.85,585.86,588.55,590.39,591.74,592.92,593.93,594.53,594.44,594.59,594.87,595.38,596.48,597.47,598.43,599.30,599.95,600.75,601.93,603.48,605.52,608.14,611.95,616.27,620.41,623.42,626.10,627.95,629.23,630.06,630.30,629.74,628.76,627.49,625.88,624.22,621.83,619.01,616.98,618.50,622.32,626.72,630.76,634.05,637.21
503.05,506.77,510.60,515.15,519.77,523.66,527.43,532.18,539.40,543.73,547.30,551.62,557.59,563.29,568.60,573.09,576.19,578.98,580.84,582.23,583.06,582.25,579.43,575.76,571.55,566.45,560.84,556.62,553.27,549.88,545.43,540.84,536.68,532.95,529.09,525.40,521.50,517.32,513.15,510.38,508.35,506.80,505.90,506.18,507.06,508.51,510.17,511.22,511.60,510.80,508.71,505.26,501.65,499.34,497.70,496.49,495.89,495.72,495.31,494.67,493.97,493.34,491.71,488.70,484.27,479.74,477.24,475.96,475.84,477.50,479.37,481.88,484.79,487.84,490.63,492.63,494.00,494.97,495.93,496.79,497.78,499.00,500.55,502.13,503.75,505.36,506.98,508.58,510.38,512.37,514.47,516.60,518.65,520.09,520.74,520.26,518.19,515.42,512.79,510.39,507.55,504.10,500.66,497.55,494.95,492.31,489.54,486.80,484.11,481.26,481.96,483.80,485.03,483.97,482.08,478.85,474.56,469.98,468.00,466.40,464.81,463.29,462.12,463.36,465.19,466.96,468.74,470.87,474.19,477.81,480.73,482.16,483.61,485.16,486.77,488.36,490.10,492.16,494.42,496.69,498.93,501.73,504.74,507.75,510.64,513.47,515.90,517.91,519.55,521.21,522.33,523.07,523.52,523.49,522.92,521.94,520.75,519.67,518.67,518.24,518.57,519.93,521.95,523.86,525.66,527.33,528.70,530.32,531.59,532.35,532.59,532.44,531.68,530.50,529.08,527.67,525.77,523.64,521.84,521.65,523.25,525.27,527.21,528.92,530.16,530.57,530.44,530.02,529.69,529.73,530.52,532.38,535.61,537.69,539.64,541.98,545.02,548.61,552.28,555.80,558.93,561.29,563.13,564.69,566.23,567.93,569.47,571.01,573.03,575.67,578.40,581.49,585.08,588.59,590.71,591.76,592.09,592.22,592.36,591.98,591.57,591.35,591.52,592.37,593.38,594.58,595.67,596.41,597.54,599.11,601.15,603.69,606.43,609.48,613.36,617.73,621.41,623.97,625.69,626.97,627.83,627.75,627.03,626.09,624.91,623.08,621.13,618.93,616.55,614.87,617.80,621.86,625.96,629.78,633.00,636.08
501.00,504.83,508.38,512.45,516.99,521.04,524.70,528.78,535.58,541.07,545.43,549.56,555.17,560.76,566.11,570.73,574.07,577.23,579.57,581.11,581.58,580.35,577.34,573.56,569.29,564.30,559.10,554.92,551.28,547.50,542.94,538.37,534.32,530.74,526.95,523.21,518.99,514.52,510.52,507.96,505.92,504.17,502.86,502.49,503.80,505.80,507.75,508.89,509.72,509.33,507.61,504.64,501.67,499.85,498.64,497.83,497.53,497.67,497.61,497.31,496.94,496.70,495.48,492.77,488.28,482.64,478.88,476.52,475.35,475.69,477.14,479.34,481.95,484.81,487.77,490.36,492.16,493.23,494.30,495.42,496.74,498.29,500.10,501.75,503.33,504.91,506.50,508.10,509.93,511.84,513.79,515.78,517.79,519.30,519.83,518.79,516.46,513.42,510.51,507.85,504.82,501.68,498.72,496.02,493.51,490.90,488.07,485.25,482.64,480.50,481.47,483.39,484.59,483.25,481.07,477.26,472.84,469.23,467.49,465.95,464.40,462.91,461.71,462.98,464.86,466.74,468.78,471.42,474.88,478.33,481.00,482.56,484.06,485.61,487.16,488.70,490.48,492.59,494.88,497.20,499.53,502.36,505.42,508.59,511.80,514.89,517.67,520.13,522.34,524.58,525.88,526.58,526.93,526.88,526.31,525.28,523.97,522.82,522.00,521.68,521.75,522.30,524.01,525.87,527.88,530.05,532.02,534.01,535.45,536.27,536.54,536.39,535.58,534.20,532.38,530.51,528.34,526.12,524.15,523.13,524.57,526.68,528.84,530.86,532.40,533.14,533.18,532.62,531.87,531.46,531.57,532.45,534.55,536.22,538.08,540.28,543.01,546.44,549.89,553.28,556.51,559.24,561.39,562.89,564.19,565.82,567.42,569.22,571.43,574.10,576.81,579.83,583.41,587.15,589.93,590.72,590.57,590.22,589.93,589.35,588.90,588.65,588.67,589.21,590.10,591.25,592.46,593.61,595.10,597.10,599.50,602.22,604.99,607.82,611.35,615.44,619.30,621.89,623.63,624.92,625.74,625.29,624.42,623.46,622.22,619.97,617.53,615.22,613.60,613.89,617.42,621.32,625.08,628.61,631.64,634.53
498.77,502.87,506.27,509.74,514.01,518.27,522.20,526.06,531.48,538.35,544.08,548.45,553.50,558.73,563.87,568.57,572.35,575.52,578.23,579.87,579.88,578.34,575.41,571.68,567.33,562.30,557.46,553.24,549.20,544.95,540.55,536.00,531.92,528.37,524.64,520.78,516.21,511.68,508.37,505.98,503.81,501.75,499.95,498.78,500.60,503.12,505.26,506.50,507.47,507.35,506.14,503.97,501.85,500.60,499.84,499.33,498.96,499.17,499.43,499.59,499.60,499.64,498.59,496.30,492.36,486.33,481.17,477.75,475.69,474.24,475.17,476.99,479.14,481.62,484.63,487.95,490.41,491.77,492.99,494.36,495.96,497.76,499.65,501.31,502.83,504.33,505.89,507.48,509.33,511.16,512.93,514.81,516.78,518.36,518.67,516.89,514.45,511.16,507.91,504.97,501.96,499.25,496.77,494.38,491.94,489.34,486.47,483.48,480.84,479.67,481.06,483.13,484.23,482.30,479.60,475.13,470.72,468.36,466.83,465.39,463.93,462.48,461.29,462.52,464.40,466.38,468.71,471.70,475.27,478.62,481.14,482.83,484.48,486.08,487.58,489.07,490.93,493.09,495.38,497.69,500.14,502.90,505.92,509.23,512.83,516.16,519.29,522.29,525.18,527.94,529.38,529.97,530.13,530.08,529.60,528.62,527.31,526.21,525.72,525.62,525.39,524.91,526.20,528.01,530.34,533.16,535.79,538.04,539.48,540.21,540.50,540.35,539.58,538.12,535.89,533.39,530.86,528.53,526.42,524.70,525.88,527.89,530.09,532.38,534.27,535.38,535.65,535.16,534.50,534.11,533.78,533.63,534.13,535.18,536.86,538.79,540.94,544.21,547.39,550.53,553.69,556.79,559.36,560.85,561.89,563.37,565.06,567.23,569.73,572.45,575.18,578.06,581.37,585.08,588.59,589.09,588.62,587.97,587.34,586.63,586.43,586.38,586.36,586.59,587.28,588.27,589.55,591.22,593.10,595.52,598.18,600.90,603.68,606.58,609.80,613.40,617.15,619.85,621.68,623.02,623.74,622.90,621.87,620.83,619.41,616.66,613.76,611.30,610.61,613.47,617.16,620.71,624.11,627.32,630.07,632.70
496.44,500.77,504.26,507.60,511.29,515.34,519.40,523.44,528.50,535.93,542.43,547.28,552.26,557.22,561.97,566.49,570.59,573.62,576.15,577.68,577.64,576.04,573.50,569.89,565.43,560.56,555.75,551.32,547.05,542.67,538.08,533.51,529.39,525.72,521.89,517.69,513.30,509.35,506.59,504.32,502.02,499.42,496.66,494.95,497.22,500.35,502.98,504.53,505.20,505.05,504.31,503.12,501.86,501.08,500.53,500.11,499.84,499.97,500.16,500.31,500.39,500.46,499.91,498.65,496.03,490.46,484.46,479.83,476.78,474.85,474.19,475.05,476.81,479.02,481.55,484.83,487.92,490.30,491.91,493.37,495.07,496.99,498.89,500.63,502.10,503.56,505.15,506.94,508.87,510.73,512.48,514.25,516.08,517.18,516.96,514.95,512.69,509.19,505.60,502.47,499.72,497.24,494.90,492.58,490.12,487.52,484.71,481.76,479.34,479.61,481.26,482.83,483.26,481.15,477.46,473.04,469.29,467.39,465.87,464.56,463.23,461.86,460.84,462.01,464.00,466.27,468.82,471.97,475.50,478.69,481.04,482.79,484.91,486.93,488.57,489.91,491.91,494.00,496.08,498.25,500.76,503.47,506.38,509.59,513.30,516.96,520.38,523.61,526.68,529.33,531.01,531.89,532.09,532.11,531.94,531.25,530.23,529.63,529.45,529.43,529.13,528.42,529.31,531.25,533.97,537.04,539.17,540.97,542.16,542.79,542.99,542.79,541.91,540.40,538.25,535.52,532.75,530.15,527.80,526.01,527.01,528.98,531.25,533.69,535.92,537.41,538.04,537.81,537.30,536.85,536.35,535.94,535.98,536.38,537.12,538.18,539.73,542.29,545.08,547.97,550.93,553.87,556.32,557.86,559.08,560.77,562.73,565.18,567.93,570.87,573.72,576.74,580.22,584.05,587.44,587.25,586.08,585.03,584.45,583.97,583.99,584.08,584.09,584.12,584.76,585.79,587.22,589.18,591.41,593.99,596.67,599.37,602.19,605.10,608.24,611.58,614.93,617.77,619.89,621.31,621.70,620.66,619.35,617.94,616.14,613.25,610.70,608.93,609.11,612.76,616.53,619.92,622.99,625.77,628.23,630.37
494.15,498.61,502.27,505.61,508.78,512.53,516.63,520.91,525.89,533.42,540.50,546.14,551.18,555.85,560.21,564.48,568.65,571.57,573.86,575.23,575.23,573.71,571.49,568.05,563.63,558.86,553.94,549.31,544.86,540.34,535.41,530.81,526.65,522.85,518.99,514.57,510.57,507.30,504.92,502.67,500.12,496.96,493.47,491.54,493.99,497.53,500.67,502.63,503.09,503.00,502.74,502.38,501.87,501.45,501.05,500.68,500.53,500.56,500.63,500.71,500.78,500.86,500.71,500.31,498.93,494.27,488.00,482.31,478.12,475.94,473.89,473.59,474.71,476.71,478.79,481.78,485.19,488.46,490.62,492.26,494.06,496.01,497.90,499.72,501.26,502.76,504.43,506.41,508.41,510.30,512.08,513.76,515.45,516.03,515.31,513.32,511.22,507.44,503.44,500.07,497.56,495.21,492.96,490.70,488.27,485.68,482.90,480.11,478.22,479.76,481.55,482.55,482.33,480.19,475.59,471.27,468.14,466.47,464.87,463.62,462.38,461.14,460.39,461.60,463.75,466.28,468.99,472.22,475.62,478.63,480.88,482.79,485.36,487.78,489.65,490.91,492.97,494.94,496.78,498.79,501.32,504.00,506.81,509.92,513.66,517.51,521.11,524.47,527.64,530.12,532.04,533.30,533.77,533.95,534.09,533.72,533.05,532.95,532.98,532.97,532.63,531.92,532.53,534.66,537.61,540.63,542.22,543.58,544.56,545.10,545.16,544.86,543.80,542.20,540.12,537.28,534.36,531.52,528.97,527.29,528.11,529.98,532.28,534.82,537.30,539.13,540.15,540.28,539.95,539.46,538.91,538.47,538.36,538.19,538.04,538.27,539.29,541.02,543.34,545.87,548.50,551.16,553.39,555.05,556.59,558.57,560.77,563.41,566.34,569.45,572.49,575.82,579.52,583.36,586.40,585.52,583.61,582.04,581.40,581.28,581.52,581.74,581.78,581.68,582.25,583.40,585.04,587.25,589.74,592.38,595.05,597.73,600.56,603.51,606.66,609.88,612.89,615.76,618.07,619.49,619.57,618.36,616.75,614.95,612.81,609.92,607.81,607.00,608.10,611.96,615.68,618.90,621.70,624.08,626.20,627.85
492.04,496.35,500.26,503.70,506.82,510.21,514.07,518.58,523.71,530.42,537.90,545.12,550.30,554.58,558.63,562.58,566.21,569.14,571.32,572.59,572.67,571.50,569.19,566.02,562.06,557.09,551.88,547.17,542.60,537.65,532.25,527.53,523.33,519.50,515.87,511.79,508.44,505.77,503.36,500.88,497.63,494.04,490.83,489.48,491.35,494.63,498.12,500.64,501.50,501.98,502.24,502.12,501.96,501.67,501.35,501.09,500.94,500.93,500.98,501.06,501.14,501.21,501.03,500.65,499.70,496.83,491.69,485.45,479.79,477.22,475.03,473.32,473.03,474.95,476.97,479.33,482.21,485.50,488.50,490.75,492.71,494.57,496.35,498.28,500.17,502.03,503.89,505.88,507.85,509.76,511.60,513.24,514.88,515.09,514.19,512.61,510.47,506.19,501.61,497.81,495.27,492.88,490.71,488.67,486.48,483.97,481.01,478.68,478.12,480.13,481.73,482.34,481.86,479.88,474.97,470.50,467.39,465.73,463.98,462.51,461.24,460.25,460.01,461.54,463.86,466.45,469.17,472.44,475.52,478.25,480.68,483.12,485.82,488.41,490.60,492.12,493.93,495.68,497.39,499.26,501.70,504.39,507.20,510.26,514.00,517.59,521.05,524.45,527.76,530.38,532.40,534.07,535.34,535.88,536.26,536.17,535.80,535.95,535.90,535.76,535.39,534.85,535.55,537.88,540.54,542.82,544.49,545.91,546.90,547.41,547.33,546.77,545.40,543.51,541.21,538.44,535.53,532.63,530.05,528.67,529.25,530.84,532.99,535.53,538.00,540.01,541.46,542.21,542.04,541.61,541.21,540.98,540.98,540.54,540.05,539.98,540.63,541.55,543.18,545.04,547.05,549.43,551.46,553.35,555.35,557.64,559.89,562.56,565.44,568.47,571.86,575.80,579.61,583.06,585.61,584.27,581.66,579.27,578.07,578.48,578.95,579.26,579.36,579.22,579.63,580.97,583.01,585.45,587.93,590.53,593.20,595.89,598.65,601.73,605.05,608.42,611.43,614.01,616.05,617.26,617.15,615.71,613.84,611.80,609.55,606.99,605.02,605.39,607.70,611.04,614.38,617.34,619.94,622.12,623.77,625.03
490.14,494.30,498.28,501.89,505.00,508.15,511.80,516.32,521.56,527.76,535.59,543.89,549.04,553.06,556.83,560.50,563.79,566.63,568.71,569.96,570.16,569.17,567.05,564.11,560.31,555.19,549.96,545.20,540.33,534.83,529.37,524.75,520.55,516.60,513.00,509.46,506.61,504.22,501.76,498.99,495.40,491.75,488.85,487.85,489.62,492.85,496.49,499.25,500.46,501.23,501.71,501.86,502.02,501.92,501.71,501.50,501.35,501.32,501.37,501.44,501.52,501.60,501.37,500.96,500.28,498.72,494.68,488.78,482.54,478.62,476.13,473.78,472.40,473.19,475.09,477.14,479.62,482.67,485.98,488.75,491.04,492.98,494.71,496.76,498.78,500.74,502.66,504.64,506.75,508.97,511.09,512.69,514.15,514.09,513.07,511.65,509.33,504.89,500.12,495.99,492.97,490.62,488.61,486.70,484.66,482.15,478.86,477.16,478.43,480.41,481.69,481.99,481.27,479.33,474.52,470.10,466.88,464.87,463.02,461.48,460.25,459.52,459.81,461.65,464.08,466.68,469.33,472.45,475.35,478.06,480.68,483.43,486.20,488.82,491.11,492.77,494.46,496.13,497.80,499.61,502.05,504.74,507.54,510.54,514.06,517.39,520.71,524.13,527.59,530.36,532.54,534.53,536.39,537.45,538.28,538.69,538.79,539.04,538.98,538.76,538.34,537.85,538.42,540.53,542.88,544.85,546.59,547.98,548.92,549.40,549.26,548.55,546.87,544.61,542.05,539.29,536.51,533.73,531.34,530.31,530.68,532.06,534.05,536.42,538.58,540.45,542.19,543.65,544.08,543.94,543.78,543.78,543.88,543.44,542.84,542.56,542.80,542.97,544.14,545.75,547.53,549.51,551.41,553.44,555.67,558.07,560.35,562.87,565.48,568.30,572.08,576.52,580.31,583.04,584.21,582.25,579.05,576.09,574.62,575.39,576.11,576.53,576.65,576.56,577.08,578.72,581.14,583.78,586.28,588.86,591.54,594.31,597.14,600.26,603.57,606.90,609.91,612.30,614.09,615.05,614.75,613.22,611.14,608.88,606.54,604.16,602.86,604.11,607.00,610.01,612.98,615.66,617.98,619.82,621.12,622.17
488.41,492.42,496.36,500.16,503.31,506.35,509.80,514.13,519.42,525.42,533.51,542.45,547.45,551.29,554.84,558.26,561.38,564.04,566.05,567.35,567.69,566.75,565.04,562.30,558.39,553.21,548.16,543.35,538.04,531.91,526.80,522.44,518.26,514.13,510.40,507.53,505.02,502.63,500.12,497.03,493.42,489.99,487.45,486.62,488.66,492.02,495.64,498.37,499.93,500.71,501.18,501.60,502.06,502.21,502.12,501.90,501.76,501.73,501.77,501.85,501.93,502.00,501.71,501.23,500.70,500.00,497.05,492.23,486.19,480.17,477.24,474.87,472.69,471.52,473.16,475.17,477.38,479.97,483.13,486.33,489.06,491.25,492.98,495.17,497.13,498.96,500.84,502.80,505.22,507.95,510.53,512.12,513.28,513.03,511.96,510.48,507.83,503.56,498.91,494.52,490.69,488.44,486.61,484.79,482.81,480.21,476.55,475.65,479.08,480.61,481.49,481.50,480.58,478.52,474.15,469.96,466.53,463.90,462.01,460.53,459.40,458.95,459.80,461.92,464.43,466.97,469.51,472.33,475.22,478.08,480.88,483.70,486.49,489.05,491.24,492.94,494.63,496.33,498.02,499.86,502.38,505.08,507.85,510.76,513.90,516.97,520.12,523.50,527.16,530.13,532.50,534.75,537.02,538.75,540.20,541.31,542.00,542.23,542.19,541.92,541.45,540.91,541.17,542.71,544.71,546.74,548.54,549.79,550.64,551.10,550.97,550.17,548.17,545.52,542.67,539.89,537.30,534.83,532.81,532.21,532.39,533.59,535.45,537.52,539.12,540.59,542.46,544.67,546.02,546.38,546.58,546.82,547.00,546.79,546.28,545.87,545.69,545.15,546.08,547.77,549.66,551.15,552.99,555.09,557.35,559.69,562.00,564.21,566.37,568.93,573.15,577.89,581.48,583.19,582.25,579.57,575.88,572.59,571.12,572.08,573.03,573.56,573.69,573.74,574.57,576.60,579.38,582.23,584.76,587.34,590.07,592.97,596.00,599.10,602.22,605.35,608.32,610.62,612.15,612.84,612.36,610.84,608.61,606.18,603.73,601.46,601.26,603.11,606.01,608.85,611.49,613.86,615.81,617.21,618.28,619.26
486.79,490.75,494.65,498.48,501.81,504.90,508.11,511.96,517.33,523.41,531.52,540.38,545.33,549.14,552.59,555.86,558.86,561.53,563.51,564.85,565.34,564.54,562.98,560.34,556.52,551.47,546.26,540.99,535.48,529.79,525.25,520.93,516.61,512.39,508.74,505.93,503.44,500.94,498.14,494.96,491.57,488.37,485.99,485.62,487.84,491.17,494.69,497.52,499.56,500.53,501.03,501.54,502.07,502.47,502.55,502.36,502.18,502.14,502.19,502.25,502.29,502.33,502.01,501.56,501.13,500.61,498.87,495.07,489.46,483.16,478.95,476.02,473.55,471.51,471.54,473.10,475.24,477.67,480.55,483.79,486.69,489.19,491.38,493.54,495.44,497.23,499.08,501.10,503.81,506.78,509.52,511.23,512.25,512.02,510.94,509.19,506.38,502.25,497.47,492.65,488.92,486.55,484.64,482.79,480.72,477.79,475.29,475.71,479.50,480.65,481.05,480.75,479.49,476.67,472.81,469.02,465.63,462.89,460.93,459.65,458.87,458.83,460.30,462.61,465.14,467.70,470.34,473.32,476.27,478.96,481.37,483.95,486.69,489.21,491.35,493.06,494.77,496.47,498.19,500.12,502.86,505.69,508.44,511.11,513.82,516.47,519.26,522.47,526.41,529.95,532.84,535.39,537.89,540.47,542.84,544.52,545.40,545.57,545.38,545.02,544.55,544.06,544.11,544.97,546.50,548.45,550.13,551.28,552.13,552.55,552.01,550.93,548.92,546.30,543.35,540.49,537.99,535.99,534.64,534.19,534.12,535.23,537.17,539.33,541.06,542.27,543.64,545.45,547.21,548.30,549.02,549.53,549.83,549.78,549.40,548.91,548.39,547.61,548.19,549.66,551.50,553.03,554.80,556.89,559.22,561.62,563.85,565.91,568.23,571.34,575.87,579.47,581.57,581.92,579.89,576.47,572.71,569.59,568.12,568.96,569.91,570.44,570.59,570.77,571.75,574.13,577.38,580.65,583.27,585.86,588.88,592.35,595.36,598.40,601.41,604.32,606.89,608.68,609.81,610.25,609.72,608.10,605.84,603.40,601.00,598.98,599.93,602.26,604.97,607.46,609.77,611.65,613.12,614.21,615.18,616.49
485.16,489.16,493.04,496.85,500.38,503.56,506.57,509.99,515.30,521.50,529.38,537.83,543.11,546.97,550.31,553.40,556.28,559.00,560.98,562.37,562.99,562.34,560.84,558.26,554.60,549.72,544.25,538.54,532.98,528.02,524.02,519.64,515.13,510.86,507.35,504.41,501.82,499.17,496.07,492.87,489.75,486.77,484.45,484.37,486.82,490.24,493.75,496.74,499.27,500.46,501.00,501.54,502.09,502.67,502.93,502.80,502.60,502.56,502.60,502.65,502.65,502.64,502.32,501.93,501.56,501.01,500.27,497.43,492.45,486.47,480.96,477.33,474.67,472.14,470.36,471.17,473.05,475.30,477.94,481.26,484.26,486.96,489.64,491.82,493.68,495.43,497.26,499.48,502.44,505.54,508.34,510.23,511.16,510.95,509.81,507.79,504.92,500.93,496.00,490.82,487.37,484.78,482.65,480.70,478.48,475.30,474.20,475.85,479.50,480.43,480.21,479.38,477.66,474.24,470.88,467.46,464.27,461.75,459.85,458.81,458.41,458.90,460.92,463.39,465.93,468.53,471.35,474.59,477.57,480.03,481.96,484.20,486.86,489.37,491.47,493.17,494.88,496.59,498.36,500.39,503.34,506.32,509.05,511.48,513.80,516.06,518.46,521.42,525.59,529.68,533.07,535.99,538.82,542.32,545.55,547.65,548.54,548.72,548.39,547.96,547.53,547.15,547.05,547.33,548.36,550.11,551.59,552.67,553.52,553.78,552.70,551.30,549.35,546.86,543.91,541.11,538.77,537.26,536.55,536.15,535.87,536.86,538.86,541.23,543.33,544.45,545.27,546.36,548.26,549.97,551.21,552.01,552.45,552.57,552.36,551.87,551.13,550.32,550.57,551.66,553.30,554.94,556.66,558.77,561.17,563.66,565.83,567.91,570.49,574.03,578.48,580.66,581.08,580.03,577.26,573.34,569.73,566.88,565.37,565.94,566.78,567.34,567.62,568.01,569.08,571.62,575.14,578.79,581.64,584.46,587.93,591.96,594.89,597.83,600.70,603.32,605.40,606.62,607.28,607.47,606.88,605.20,603.01,600.70,598.42,596.71,598.59,601.28,603.78,605.89,607.87,609.28,610.31,611.17,612.14,613.92
483.33,487.67,491.65,495.35,498.99,502.24,505.31,508.69,513.45,519.58,526.55,533.99,541.13,545.09,548.08,550.88,553.61,556.27,558.30,559.79,560.54,559.94,558.42,555.95,552.46,547.61,541.95,536.26,531.09,526.76,522.98,518.36,513.65,509.37,505.96,502.90,500.03,497.12,493.98,490.84,487.92,485.10,482.66,481.93,484.89,489.00,492.96,496.15,499.10,500.45,501.00,501.54,502.13,502.70,503.10,503.22,503.06,502.98,503.01,503.06,503.05,502.96,502.68,502.31,501.90,501.27,500.59,498.51,494.76,489.47,483.44,479.22,476.22,473.48,470.58,469.90,470.56,472.19,474.96,478.95,481.99,484.38,487.26,489.79,491.70,493.33,495.15,497.97,501.12,504.17,506.93,509.15,509.96,509.54,508.24,506.14,503.37,499.52,494.70,489.60,486.19,483.14,480.60,478.33,475.86,473.06,472.60,474.58,478.12,479.31,478.06,475.86,473.35,470.68,467.64,464.39,461.64,460.07,458.81,457.93,457.96,459.24,461.53,464.04,466.56,469.22,472.31,475.64,478.59,480.93,482.65,484.47,487.04,489.52,491.58,493.25,494.98,496.76,498.62,500.74,503.71,506.76,509.47,511.76,513.93,516.03,518.17,520.84,524.82,529.02,532.55,535.92,539.71,544.11,547.70,549.72,550.42,550.87,550.65,550.32,550.04,549.85,549.76,549.88,550.51,551.72,552.86,554.07,554.75,554.45,552.68,551.13,549.14,546.68,543.95,541.78,540.06,538.94,538.36,537.94,537.74,538.37,539.97,542.64,545.42,546.95,547.63,548.11,549.62,551.29,552.78,553.92,554.56,554.96,555.02,554.76,554.21,553.74,553.80,554.32,555.30,556.71,558.48,560.75,563.27,565.78,568.06,570.63,573.29,575.98,578.88,580.08,579.42,577.26,574.01,570.55,567.41,564.77,563.02,563.08,563.71,564.52,565.37,566.20,567.36,569.38,572.25,575.81,579.42,583.36,587.59,591.74,594.55,597.26,599.74,601.91,603.57,604.33,604.54,604.36,603.62,602.02,600.26,598.33,596.34,595.00,596.92,599.63,602.09,603.87,605.49,606.71,607.60,608.37,609.73,612.02
481.38,486.12,490.16,493.83,497.48,500.86,504.08,507.46,511.63,517.64,524.06,530.85,538.89,543.02,545.88,548.44,550.95,553.53,555.59,557.13,557.94,557.42,555.91,553.54,550.16,545.19,539.46,534.00,529.27,525.48,521.79,516.94,512.07,507.83,504.45,501.10,497.88,494.76,491.67,488.71,485.96,483.33,481.07,480.18,483.44,487.87,492.08,495.52,498.92,500.43,500.98,501.54,502.14,502.71,503.20,503.52,503.48,503.40,503.42,503.47,503.45,503.28,502.91,502.39,501.77,501.24,500.69,499.28,496.57,491.96,486.21,481.66,478.17,475.13,471.62,469.60,468.96,469.69,471.96,475.46,478.29,480.58,483.25,485.86,488.18,490.53,493.29,496.80,500.13,503.03,505.59,507.90,508.57,507.94,506.54,504.57,502.02,498.14,493.40,488.56,485.13,481.78,478.94,476.42,473.72,470.95,470.93,473.05,476.04,476.71,474.69,471.78,468.92,466.69,464.14,461.54,459.52,458.63,457.79,457.29,457.81,459.61,462.03,464.53,467.03,469.73,473.02,476.41,479.32,481.63,483.32,484.96,487.30,489.65,491.68,493.36,495.13,496.95,498.87,501.10,504.06,507.08,509.73,511.92,514.00,516.03,518.03,520.53,524.39,528.65,532.31,535.99,540.33,545.11,548.61,550.57,551.39,552.13,552.35,552.41,552.39,552.25,552.16,552.24,552.71,553.59,554.50,555.69,556.01,555.07,552.73,550.81,548.87,546.77,544.61,543.08,541.81,540.93,540.35,539.83,539.70,540.02,541.33,544.29,547.44,549.26,549.97,550.11,551.15,552.65,554.21,555.59,556.53,557.24,557.63,557.69,557.45,557.27,557.23,557.38,557.81,558.82,560.56,562.90,565.48,567.88,569.99,572.64,575.07,576.87,578.41,578.89,577.67,574.99,571.54,568.35,565.44,562.76,560.63,560.40,561.05,562.09,563.31,564.43,565.69,567.38,569.77,573.28,577.46,582.21,587.05,591.37,593.97,596.39,598.57,600.41,601.66,601.92,601.69,601.23,600.52,599.14,597.77,596.18,594.40,593.14,594.80,597.48,600.00,601.59,602.97,604.06,604.94,605.90,607.83,610.64
479.30,484.48,488.54,492.27,495.82,499.40,502.89,506.23,509.84,515.67,522.11,528.81,536.24,540.66,543.67,546.12,548.34,550.80,552.82,554.35,555.15,554.76,553.31,551.03,547.66,542.38,536.76,531.72,527.50,524.08,520.38,515.32,510.38,506.24,502.78,498.89,495.25,491.99,489.06,486.44,483.82,481.45,479.75,479.50,482.72,486.92,491.04,494.83,498.69,500.37,500.93,501.53,502.09,502.68,503.25,503.69,503.85,503.82,503.83,503.88,503.85,503.60,502.98,502.02,501.01,500.81,500.60,499.75,497.76,493.83,489.31,484.76,480.62,477.14,473.64,470.58,468.62,468.11,469.00,470.34,472.59,475.12,477.05,479.36,482.57,486.79,491.82,496.07,499.58,502.24,504.35,506.40,506.91,506.12,504.73,503.13,500.99,496.82,492.09,487.69,484.20,480.80,477.84,475.14,472.26,469.01,469.23,471.30,473.15,472.17,469.84,467.18,464.58,462.24,460.45,459.18,458.25,457.55,456.78,456.97,458.08,460.00,462.38,464.80,467.29,470.04,473.37,476.81,479.71,482.07,483.98,485.74,487.69,489.74,491.76,493.52,495.35,497.16,499.11,501.48,504.42,507.26,509.76,511.92,514.00,516.03,518.03,520.54,524.45,528.71,532.52,536.32,540.57,544.99,547.89,549.86,551.25,552.29,553.38,554.22,554.56,554.26,554.15,554.33,554.92,555.86,556.68,557.59,557.31,555.67,552.94,550.34,548.60,547.32,546.19,545.24,544.17,543.28,542.59,541.87,541.78,541.91,543.08,546.34,549.36,551.31,552.20,552.34,552.89,554.10,555.54,557.00,558.37,559.42,560.19,560.69,560.89,560.88,560.87,560.90,561.01,561.39,562.98,565.31,567.81,569.94,571.51,573.60,575.40,576.43,577.02,577.08,575.90,573.51,570.21,566.93,563.86,560.81,558.14,557.97,558.92,560.18,561.44,562.62,563.99,565.65,567.95,571.50,575.92,580.97,586.19,590.80,593.04,595.13,597.14,598.85,599.67,599.37,598.69,598.10,597.68,596.71,595.63,594.27,592.57,591.04,592.13,594.71,597.41,598.99,600.30,601.33,602.37,603.85,606.56,609.90
477.16,482.55,486.71,490.50,494.11,497.83,501.52,505.00,508.51,513.95,520.01,526.24,532.74,537.52,540.94,543.52,545.64,547.92,549.92,551.47,552.27,551.93,550.40,547.95,544.45,539.32,533.97,529.55,525.87,522.49,518.45,513.33,508.49,504.42,500.72,496.38,492.55,489.36,486.62,484.05,481.80,479.96,478.83,479.05,481.92,485.71,489.64,493.50,497.82,500.00,500.91,501.58,502.19,502.75,503.29,503.76,504.11,504.19,504.24,504.27,504.16,503.77,502.60,501.13,500.01,500.21,500.29,499.67,497.91,494.29,490.74,486.67,482.70,479.39,475.90,472.29,469.47,467.92,467.62,468.04,469.74,472.09,474.17,476.65,479.88,484.78,491.22,495.62,499.24,501.89,503.79,505.42,505.61,504.72,503.37,501.81,499.61,495.44,490.95,486.94,483.47,479.98,476.72,473.67,470.64,466.92,466.70,467.78,468.00,466.33,464.53,462.80,461.13,459.51,458.25,457.44,456.91,456.51,456.24,457.05,458.54,460.51,462.80,465.17,467.60,470.29,473.62,476.99,479.85,482.24,484.22,486.07,487.97,489.94,491.91,493.73,495.55,497.36,499.35,501.76,504.47,507.11,509.53,511.72,513.84,516.03,518.27,520.99,524.95,529.16,533.00,536.61,540.20,543.73,546.29,548.42,550.27,551.66,553.13,554.44,555.44,555.95,556.20,556.48,557.13,558.11,558.77,559.29,558.85,557.25,554.48,551.89,550.11,548.92,548.12,547.40,546.50,545.60,544.76,544.08,544.07,544.11,544.82,547.18,550.03,552.32,553.92,554.81,555.26,556.15,557.35,558.81,560.56,561.94,562.95,563.64,563.99,564.14,564.17,564.17,564.18,564.34,565.63,567.64,569.81,571.50,572.16,573.32,574.40,574.97,575.22,575.19,574.12,571.82,568.35,564.92,561.73,558.58,555.87,555.79,556.60,557.79,559.19,560.56,562.09,564.52,567.70,571.40,575.68,580.51,585.45,589.78,592.06,594.02,595.89,597.40,597.76,596.84,595.64,594.82,594.63,594.22,593.54,592.32,590.53,588.87,589.89,592.17,594.55,596.18,597.63,598.66,599.88,602.10,606.21,609.99
475.07,480.54,484.82,488.65,492.33,496.15,499.98,503.67,507.30,512.29,517.82,523.46,529.02,534.07,537.90,540.72,542.83,544.91,546.86,548.38,549.17,548.85,547.24,544.59,540.94,536.11,531.22,527.45,524.23,520.73,516.24,511.17,506.51,502.48,498.44,493.72,489.83,486.78,484.21,481.70,479.92,478.66,478.05,478.67,481.09,484.44,488.15,491.96,496.66,499.47,500.86,501.63,502.33,502.86,503.35,503.84,504.33,504.55,504.67,504.69,504.48,503.93,502.19,500.26,499.06,499.41,499.67,499.19,497.54,494.20,491.46,488.07,484.60,481.64,478.18,474.27,470.84,468.36,467.02,466.94,468.14,470.21,472.74,475.52,478.48,483.59,490.98,495.27,498.96,501.66,503.41,504.61,504.44,503.49,502.18,500.54,498.07,494.03,489.88,486.23,482.80,479.22,475.61,472.14,468.91,464.83,463.90,463.73,462.42,460.58,459.57,458.87,458.22,457.51,456.62,455.99,455.67,455.67,456.09,457.43,459.20,461.18,463.36,465.69,468.06,470.69,474.02,477.27,480.01,482.32,484.28,486.21,488.19,490.16,492.08,493.93,495.74,497.56,499.58,501.96,504.38,506.83,509.19,511.43,513.66,516.08,518.63,521.62,525.62,529.73,533.45,536.72,539.50,542.05,544.41,546.75,548.97,550.77,552.43,554.08,555.76,557.32,558.07,558.53,559.26,560.26,560.75,560.93,560.49,559.15,556.52,554.16,552.31,551.01,550.26,549.61,548.83,547.88,546.91,546.35,546.43,546.44,546.61,547.70,550.35,553.05,555.49,557.32,557.89,558.54,559.52,560.96,563.01,564.66,565.84,566.59,566.95,567.23,567.27,567.26,567.26,567.34,568.30,569.86,571.51,572.56,572.26,572.44,572.83,573.10,573.26,573.28,572.27,569.95,566.20,562.62,559.31,556.20,553.71,553.75,554.25,555.25,556.76,558.41,560.20,563.64,567.97,571.87,575.87,580.25,584.66,588.56,591.08,593.01,594.76,596.05,595.92,594.41,592.69,591.59,591.56,591.72,591.49,590.39,588.47,586.74,587.78,589.64,591.60,593.50,595.29,596.49,598.01,600.99,606.45,610.43
473.29,478.67,483.18,486.91,490.39,494.05,497.85,501.75,505.73,510.38,515.46,520.77,525.97,530.61,534.35,537.33,539.61,541.44,543.12,544.43,545.05,544.66,543.31,540.87,537.34,532.73,528.77,525.46,522.25,518.51,513.76,508.95,504.47,500.25,495.78,491.00,487.18,484.18,481.67,479.89,478.56,477.57,477.20,478.22,480.39,483.44,486.99,490.61,495.29,498.72,500.74,501.58,502.38,502.99,503.54,504.10,504.67,504.98,505.17,505.25,505.01,504.33,502.63,500.60,498.83,497.88,497.80,497.61,496.64,494.14,491.94,489.25,486.29,483.30,480.01,476.21,472.44,469.21,467.23,466.32,467.23,469.38,471.95,474.88,477.83,483.08,490.80,494.95,498.62,501.12,502.53,503.57,503.14,502.23,501.03,499.25,496.38,492.62,488.88,485.47,482.14,478.49,474.63,470.75,466.97,463.00,461.42,460.64,459.46,458.35,457.65,457.02,456.34,455.69,454.97,454.82,455.19,455.98,457.13,458.70,460.50,462.49,464.64,466.88,469.23,471.97,475.49,478.54,480.77,482.56,484.26,486.22,488.22,490.19,492.11,494.01,495.88,497.74,499.73,501.99,504.25,506.53,508.79,511.11,513.72,516.44,519.28,522.42,526.20,529.96,533.14,535.88,538.36,540.67,543.02,545.40,547.79,550.12,552.02,553.87,555.79,557.65,558.83,559.88,560.91,561.82,562.26,562.60,562.15,560.75,558.36,555.90,554.43,553.55,552.87,552.20,551.24,550.11,549.05,548.62,548.76,548.80,548.76,549.20,551.49,554.54,557.41,559.53,560.59,561.46,562.61,564.16,566.14,567.82,568.97,569.63,569.88,570.14,570.06,569.97,569.94,569.88,570.55,571.56,572.24,571.89,571.11,570.83,570.92,571.22,571.42,571.42,570.21,567.59,563.68,559.92,556.53,553.60,551.63,551.90,552.19,552.88,554.24,556.30,558.89,562.90,567.61,571.80,575.53,579.40,583.38,587.18,590.23,592.27,593.95,595.02,594.33,592.55,590.54,589.08,588.79,589.28,589.52,588.68,586.78,585.02,585.43,586.72,588.82,592.17,594.78,596.99,599.48,602.93,607.88,611.05
471.54,476.76,481.48,485.17,488.45,491.89,495.63,499.68,503.92,508.33,513.05,518.03,522.94,527.18,530.83,533.93,536.30,537.95,539.38,540.45,540.87,540.39,539.26,537.06,533.77,529.61,526.42,523.35,519.99,515.99,511.13,506.54,502.15,497.78,493.16,488.50,484.75,481.80,479.55,478.35,477.35,476.56,476.42,477.76,479.72,482.54,485.98,489.56,494.06,497.89,500.44,501.45,502.34,503.08,503.77,504.44,505.05,505.38,505.61,505.71,505.51,504.86,503.29,501.22,498.96,496.84,496.10,495.93,495.53,493.95,492.22,490.06,487.48,484.47,481.38,477.71,473.79,470.12,467.62,465.87,466.46,468.68,471.24,474.24,477.21,482.44,490.15,494.39,497.98,500.33,501.58,502.45,501.90,500.97,499.71,497.69,494.63,491.24,487.92,484.75,481.49,477.79,473.76,469.52,465.19,461.45,459.52,458.39,457.46,456.86,456.25,455.53,454.76,454.15,453.92,454.42,455.44,456.84,458.50,460.22,462.03,463.99,466.14,468.35,470.73,473.56,477.06,479.80,481.58,482.99,484.48,486.35,488.25,490.17,492.10,494.05,495.98,497.88,499.84,501.95,504.05,506.16,508.32,510.67,513.55,516.56,519.66,522.90,526.40,529.75,532.40,534.72,537.03,539.43,541.96,544.50,547.08,549.77,551.85,553.84,555.86,557.85,559.43,561.04,562.45,563.42,563.88,564.39,563.92,562.41,560.20,557.72,556.63,556.16,555.57,554.85,553.73,552.46,551.37,551.01,551.22,551.39,551.35,551.36,553.05,556.16,559.25,561.56,563.10,564.35,565.84,567.67,569.69,571.31,572.28,572.74,572.83,572.85,572.63,572.45,572.32,572.04,572.27,572.54,572.18,570.57,569.19,568.51,568.44,568.85,569.22,569.43,568.14,565.30,561.41,557.53,554.07,551.26,549.66,550.10,550.28,550.80,552.17,554.66,557.88,562.20,566.97,571.19,574.62,578.02,581.60,585.38,589.07,591.44,593.16,594.01,592.90,591.03,588.77,586.85,586.11,586.81,587.56,587.07,585.24,583.48,583.07,584.08,586.79,591.54,595.14,598.29,601.47,604.97,608.92,611.28
469.73,474.72,479.58,483.38,486.56,489.81,493.40,497.46,501.69,506.07,510.56,515.14,519.72,523.86,527.60,530.77,532.98,534.61,535.84,536.67,536.92,536.31,535.23,533.17,530.30,527.16,524.13,520.88,517.23,512.99,508.22,503.70,499.25,494.85,490.74,486.52,482.79,479.96,478.44,477.26,476.27,475.66,475.84,477.32,479.12,481.76,485.21,489.13,493.15,496.96,499.81,501.14,502.15,503.07,503.99,504.85,505.50,505.73,505.85,505.92,505.85,505.56,504.14,502.04,499.61,497.14,495.23,494.38,494.17,493.43,492.11,490.12,487.63,484.73,481.86,478.23,474.49,471.02,468.15,465.64,465.76,467.87,470.46,473.43,476.39,481.27,488.41,493.27,496.67,499.09,500.66,501.19,500.81,499.71,497.98,495.53,492.77,489.89,487.01,484.10,480.89,477.12,473.06,468.65,463.86,460.48,458.79,457.73,456.70,455.81,454.91,454.14,453.50,453.15,454.24,455.64,457.06,458.53,460.20,461.99,463.80,465.69,467.85,470.20,472.75,475.51,478.47,480.68,482.32,483.77,485.24,486.82,488.37,490.11,492.05,494.04,495.98,497.94,499.89,501.82,503.75,505.67,507.69,509.95,512.76,516.01,519.35,522.63,525.75,528.62,530.99,533.17,535.49,538.38,541.46,544.47,547.35,550.02,552.13,554.13,556.13,558.09,560.08,562.04,563.88,565.34,565.91,566.44,565.92,564.34,562.12,559.90,559.03,558.75,558.29,557.51,556.37,555.12,554.06,553.72,553.96,554.45,554.76,554.65,555.25,557.84,560.82,563.27,565.17,566.96,569.06,571.49,573.93,575.39,575.90,575.95,575.78,575.18,574.84,574.57,574.18,573.50,572.96,572.13,570.70,568.39,565.98,564.85,564.74,565.35,566.17,567.12,566.16,563.35,559.82,555.96,552.49,549.63,547.91,548.34,548.60,549.36,551.15,554.10,557.37,561.54,565.94,569.52,572.60,575.65,578.91,582.64,587.20,590.34,592.27,592.94,591.76,590.07,587.56,585.01,583.51,584.21,585.61,585.61,583.91,582.19,580.78,582.29,586.44,592.02,596.82,600.44,603.44,606.13,608.66,610.58
467.91,472.69,477.42,481.29,484.51,487.63,490.98,494.77,499.00,503.35,507.66,511.88,516.06,520.20,524.02,527.22,529.36,530.96,532.14,532.88,533.00,532.41,531.28,529.37,526.90,524.24,521.13,517.60,513.78,509.67,505.20,501.00,496.81,492.61,488.66,484.55,481.23,478.93,477.67,476.43,475.31,474.87,475.48,477.06,478.79,481.44,485.02,489.11,492.97,496.76,499.72,501.13,502.21,503.26,504.36,505.36,505.86,506.06,506.18,506.23,506.16,505.99,504.88,502.94,500.33,497.54,494.88,493.33,492.77,492.37,491.44,489.90,487.76,485.00,482.22,478.85,475.34,471.96,468.88,466.02,465.28,466.57,469.34,472.43,475.43,479.56,485.46,491.51,495.04,497.43,499.14,499.81,499.50,498.42,496.59,493.99,491.37,488.68,485.98,483.19,480.07,476.34,472.16,467.40,462.12,459.11,457.75,456.86,455.87,454.92,453.95,453.09,452.61,453.15,454.97,456.83,458.52,460.15,461.92,463.73,465.55,467.41,469.52,471.84,474.29,476.83,479.33,481.17,482.72,484.20,485.69,487.15,488.58,490.23,492.14,494.12,496.08,498.05,499.99,501.84,503.69,505.55,507.46,509.60,512.37,515.58,518.85,521.95,524.66,527.19,529.48,531.85,534.63,537.95,541.28,544.50,547.50,550.18,552.28,554.30,556.31,558.31,560.49,562.83,565.10,566.97,567.89,568.45,568.17,567.13,565.53,563.45,562.49,562.07,561.52,560.71,559.42,557.99,556.79,556.43,556.72,557.48,558.21,558.44,558.67,560.35,562.57,564.76,566.87,569.13,571.74,574.55,577.04,578.07,578.28,578.21,578.01,577.36,576.79,576.09,575.15,574.00,572.84,571.29,569.15,566.23,563.22,561.63,561.40,562.33,563.57,564.89,564.38,562.02,558.66,554.61,551.05,548.15,546.30,546.50,547.10,548.40,550.64,553.66,556.71,560.29,564.01,567.20,570.13,573.14,576.61,580.86,585.91,589.47,591.39,591.79,590.53,588.14,585.26,582.68,581.32,582.19,583.88,584.17,582.68,580.96,578.94,580.66,585.73,592.25,597.58,600.92,603.20,604.93,606.41,608.36
466.03,470.57,475.04,478.98,482.34,485.40,488.46,491.81,495.94,500.27,504.46,508.40,512.14,516.30,520.16,523.35,525.51,527.09,528.32,529.04,529.09,528.58,527.32,525.54,523.39,520.81,517.54,513.76,509.92,506.20,502.17,498.43,494.69,490.79,486.78,482.65,480.00,478.45,477.13,475.78,474.49,474.14,475.20,476.89,478.64,481.43,485.21,489.31,493.20,497.00,499.94,501.31,502.43,503.56,504.81,505.90,506.16,506.38,506.55,506.61,506.46,506.24,505.50,503.82,501.07,498.00,494.88,492.62,491.38,490.94,490.35,489.41,487.80,485.28,482.54,479.55,476.32,472.97,469.78,466.87,465.02,465.05,467.97,471.29,474.37,477.56,481.88,489.26,493.15,495.48,497.22,498.37,498.06,497.07,495.41,492.87,490.25,487.57,484.86,482.10,479.09,475.45,471.05,465.83,460.15,457.51,456.50,455.83,454.98,454.11,453.19,452.27,452.00,453.78,455.93,457.96,459.85,461.67,463.57,465.38,467.20,469.08,471.10,473.25,475.44,477.65,479.79,481.39,482.88,484.37,485.90,487.38,488.85,490.49,492.31,494.25,496.24,498.19,500.11,501.96,503.82,505.69,507.54,509.55,512.30,515.29,518.29,521.10,523.45,525.74,528.07,530.81,534.24,537.92,541.33,544.53,547.54,550.25,552.34,554.38,556.43,558.49,560.76,563.46,566.13,568.35,569.73,570.36,570.53,570.38,569.76,567.78,566.61,565.89,565.09,564.28,562.79,561.09,559.65,559.23,559.61,560.61,561.77,562.60,562.91,563.51,564.60,566.26,568.40,570.96,573.87,576.84,579.10,579.59,579.64,579.62,579.55,579.22,578.36,577.03,575.40,573.78,572.12,570.13,567.57,564.16,560.88,558.80,558.36,559.58,561.20,562.67,562.69,561.02,557.67,553.34,549.67,546.75,544.76,544.64,545.75,547.73,550.36,553.18,555.83,558.57,561.44,564.43,567.44,570.70,574.73,579.78,584.99,588.66,590.40,590.45,589.07,585.53,582.32,580.13,579.42,580.57,582.29,582.73,581.49,579.72,577.41,579.17,584.73,592.14,597.46,600.10,601.39,602.13,602.90,605.10
463.48,467.73,472.15,476.27,479.96,483.15,486.18,489.30,492.40,496.72,501.14,505.11,508.54,512.17,515.77,518.98,521.35,523.08,524.28,524.95,524.98,524.32,522.85,520.79,518.23,515.18,512.70,509.75,506.56,503.35,499.68,496.20,492.62,488.78,484.78,481.30,479.25,478.02,476.66,475.31,474.02,473.44,474.14,476.25,478.55,481.63,485.41,489.24,492.96,496.72,499.75,501.39,502.68,503.89,505.14,506.22,506.49,506.72,506.91,506.97,506.79,506.50,505.78,504.20,501.55,498.44,494.90,492.02,490.18,489.44,488.80,488.00,487.02,485.61,483.02,480.47,477.59,474.33,471.30,468.44,465.77,464.48,466.51,469.95,473.25,476.37,480.08,486.24,490.74,493.57,495.36,496.81,496.48,495.48,493.97,491.71,489.09,486.43,483.75,480.96,477.84,474.29,469.17,463.34,458.69,456.23,455.13,454.49,453.84,453.01,452.13,451.52,451.79,454.06,456.44,458.67,460.72,462.57,464.46,466.30,468.13,470.00,471.93,473.91,475.89,477.86,479.80,481.34,482.83,484.37,485.95,487.51,489.09,490.77,492.58,494.47,496.39,498.32,500.23,502.09,504.06,506.03,508.01,510.14,512.81,515.56,518.42,521.26,523.79,526.07,528.33,530.93,534.15,537.87,541.20,544.29,547.22,549.98,552.20,554.34,556.50,558.66,561.03,563.79,566.57,568.99,570.57,571.64,572.28,572.57,572.38,571.01,570.38,569.91,568.94,567.99,566.63,565.03,563.57,563.00,563.64,564.90,566.18,566.97,567.24,567.66,568.30,569.22,570.59,572.12,574.18,576.50,578.20,578.78,578.90,578.90,578.90,578.89,577.75,576.12,574.36,572.65,570.85,568.73,566.08,562.73,559.65,557.29,556.04,556.35,558.28,560.23,560.64,559.14,555.57,551.49,548.01,545.12,543.07,543.02,544.42,546.58,549.08,551.44,553.63,556.01,558.67,561.75,565.65,569.75,574.31,579.35,583.94,587.09,588.33,587.81,585.73,582.56,580.07,578.40,577.73,579.12,580.70,581.24,580.28,578.05,576.01,577.87,583.16,589.96,594.71,597.18,598.43,599.11,599.84,601.45
460.62,464.48,468.85,473.35,477.49,480.96,484.12,487.04,489.13,493.11,497.50,501.53,504.98,508.12,511.36,514.48,516.93,518.76,519.89,520.49,520.46,519.57,517.97,515.76,512.98,509.76,508.10,505.98,503.43,500.66,497.31,494.02,490.51,486.67,482.81,480.16,478.66,477.59,476.23,474.92,473.66,472.78,472.91,475.30,478.32,481.78,485.47,489.02,492.58,496.29,499.46,501.42,502.91,504.23,505.47,506.48,506.81,507.06,507.25,507.30,507.11,506.73,505.94,504.40,501.94,498.97,495.14,491.74,489.28,488.02,487.09,486.27,485.78,485.49,483.45,481.37,478.83,475.77,472.89,470.12,466.88,464.41,465.02,468.42,471.89,475.14,478.57,483.19,488.17,491.59,493.55,495.26,494.93,493.91,492.51,490.55,487.95,485.31,482.63,479.78,476.49,472.82,467.03,460.78,457.32,454.98,453.70,453.01,452.56,451.82,451.05,450.88,451.78,454.28,456.81,459.19,461.34,463.19,465.03,466.88,468.74,470.59,472.45,474.31,476.12,477.91,479.71,481.27,482.83,484.44,486.07,487.69,489.37,491.11,492.91,494.77,496.62,498.51,500.44,502.36,504.45,506.54,508.68,510.97,513.58,516.15,518.93,521.85,524.66,527.03,529.23,531.57,534.38,537.92,541.14,544.12,546.97,549.75,552.05,554.28,556.51,558.77,561.22,563.93,566.68,569.19,570.89,572.39,573.50,574.22,574.49,573.98,574.05,573.96,573.03,572.08,570.88,569.38,567.86,567.16,567.95,569.24,570.39,570.96,571.08,571.35,571.58,571.72,572.17,572.56,573.60,575.07,576.16,576.86,577.06,577.08,577.17,577.57,576.37,574.63,572.87,571.13,569.27,567.10,564.49,561.39,558.58,556.02,553.95,553.16,555.17,557.54,558.37,557.10,553.44,549.68,546.36,543.48,541.45,541.51,543.07,545.18,547.38,549.31,551.24,553.66,556.51,559.83,564.62,569.49,574.35,579.03,582.75,585.16,585.82,584.77,582.22,579.77,578.09,576.85,576.16,577.65,579.05,579.58,578.73,576.14,574.58,576.65,581.57,587.38,591.43,593.78,595.13,595.91,596.84,597.93
457.27,460.44,464.53,470.00,474.82,479.04,482.59,485.26,487.14,489.67,492.87,496.78,501.29,504.47,507.32,509.89,511.84,513.50,514.50,514.92,514.65,513.48,512.06,510.49,508.73,506.75,505.33,503.21,500.67,498.00,494.90,491.72,488.19,484.38,481.02,479.28,478.18,477.15,475.87,474.61,473.40,472.25,471.71,473.58,477.58,481.56,485.05,488.52,492.10,495.83,499.11,501.38,503.10,504.60,505.85,506.72,507.10,507.35,507.54,507.59,507.33,506.83,505.94,504.45,502.26,499.78,496.12,492.42,489.23,486.97,485.25,484.12,483.65,483.85,483.56,482.00,479.77,477.15,474.27,471.60,468.45,465.24,463.55,466.36,469.75,473.12,476.64,480.67,485.50,489.33,491.94,493.83,493.60,492.55,491.16,489.37,486.87,484.25,481.51,478.51,474.96,470.58,464.63,458.80,455.80,453.56,452.14,451.34,450.99,450.58,450.16,450.59,452.09,454.57,457.07,459.38,461.47,463.32,465.12,466.96,468.82,470.67,472.53,474.43,476.20,477.89,479.63,481.37,483.13,484.85,486.51,488.15,489.83,491.60,493.43,495.28,497.09,498.97,500.97,503.10,505.28,507.44,509.69,512.13,514.79,517.36,520.16,523.15,526.11,528.64,530.87,533.04,535.43,538.36,541.42,544.39,547.23,549.92,552.06,554.23,556.44,558.67,561.11,563.63,566.11,568.41,570.30,571.85,573.37,574.89,576.21,577.00,577.66,577.99,577.74,577.35,576.19,574.41,572.56,571.85,572.29,572.79,573.19,573.50,573.21,572.75,572.13,571.44,571.13,571.12,571.47,572.07,572.68,573.05,573.19,573.26,573.55,574.64,574.09,572.68,570.92,569.00,567.00,564.88,562.53,559.79,557.15,554.52,552.05,550.51,551.82,554.20,555.63,555.18,552.04,548.50,544.96,541.95,540.16,540.17,541.59,543.36,545.10,546.88,549.31,552.70,556.56,560.44,565.44,570.33,574.79,578.58,581.15,582.64,582.67,581.47,579.67,577.92,576.40,575.24,574.82,575.99,577.23,577.38,576.05,573.76,572.95,575.55,580.34,585.09,588.48,590.44,591.59,592.37,593.62,595.15
454.06,456.84,460.70,466.33,471.64,476.48,480.54,483.41,485.23,486.99,489.34,492.62,496.96,500.45,503.34,505.70,507.43,508.90,509.78,510.10,509.74,508.61,507.41,506.29,505.18,503.91,502.58,500.46,497.92,495.31,492.37,489.16,485.63,481.99,479.09,477.71,476.79,476.01,475.37,474.35,473.10,471.67,470.64,471.95,476.42,480.85,484.50,488.06,491.88,495.71,499.04,501.41,503.23,504.88,506.15,506.94,507.33,507.61,507.81,507.85,507.59,507.09,506.19,504.80,502.89,500.80,497.57,493.81,490.10,487.14,484.66,482.68,481.67,482.07,482.78,481.95,480.23,477.94,475.17,472.58,469.55,465.86,462.32,464.39,467.60,470.98,474.53,478.28,482.73,486.66,489.75,492.01,492.31,491.47,490.02,488.09,485.63,483.04,480.17,476.88,473.09,467.83,462.00,456.88,454.05,452.01,450.72,450.02,449.81,449.63,449.74,450.64,452.40,454.72,457.15,459.43,461.50,463.35,465.15,467.00,468.85,470.70,472.56,474.48,476.33,478.12,479.86,481.62,483.43,485.22,486.94,488.61,490.31,492.12,493.99,495.84,497.64,499.56,501.61,503.83,506.06,508.29,510.65,513.25,515.96,518.63,521.49,524.52,527.56,530.26,532.52,534.61,536.79,539.40,542.47,545.53,548.46,551.14,553.23,555.17,557.08,558.97,560.95,563.14,565.38,567.55,569.51,571.11,572.78,574.67,576.76,578.65,579.81,580.44,580.72,580.59,579.65,578.14,576.58,576.02,576.18,576.13,575.92,575.70,574.69,573.42,572.05,570.60,569.18,568.73,568.70,568.87,569.19,569.39,569.50,569.66,570.18,571.75,571.80,570.65,568.76,566.75,564.68,562.60,560.40,557.98,555.50,552.88,550.23,548.23,548.72,551.29,553.21,553.32,550.86,547.54,543.85,540.69,538.96,538.79,539.94,541.41,543.01,545.35,548.41,552.48,557.02,561.44,566.54,570.97,574.76,577.80,579.56,580.29,579.85,578.58,577.15,575.74,574.40,573.49,573.44,574.43,575.39,575.17,573.53,571.49,571.40,574.50,579.26,583.28,586.10,587.59,588.45,589.29,590.90,592.98
451.06,453.74,457.43,462.36,467.92,473.23,477.90,481.44,483.35,485.11,487.00,489.16,491.99,496.01,499.40,501.93,503.75,505.04,505.83,506.12,505.84,505.08,504.14,503.25,502.33,501.13,499.78,497.67,495.16,492.56,489.69,486.34,482.83,479.51,477.00,475.39,474.40,474.14,474.71,474.12,472.74,471.04,469.72,470.47,474.88,479.66,483.82,487.68,491.96,495.99,499.29,501.53,503.30,505.03,506.36,507.11,507.51,507.82,508.03,508.10,507.90,507.52,506.73,505.51,503.87,502.01,499.47,495.93,491.91,488.59,485.41,482.05,479.90,480.22,481.03,481.15,480.16,478.08,475.58,473.04,470.14,466.21,461.35,462.52,465.46,468.79,472.27,476.02,479.88,483.57,486.95,489.80,491.06,490.67,489.10,486.69,484.21,481.66,478.58,474.88,470.85,464.60,459.12,455.00,452.08,450.33,449.46,449.11,449.06,449.01,449.80,451.08,452.69,454.72,457.06,459.34,461.44,463.30,465.14,467.00,468.85,470.71,472.57,474.50,476.56,478.62,480.42,482.04,483.76,485.53,487.29,489.06,490.83,492.68,494.58,496.43,498.27,500.25,502.36,504.54,506.77,509.06,511.56,514.30,517.08,519.93,522.89,525.93,528.99,531.84,534.16,536.25,538.45,541.12,544.32,547.60,550.71,553.49,555.62,557.18,558.49,559.73,560.77,562.49,564.55,566.65,568.53,570.18,571.74,573.54,576.10,578.87,580.40,581.25,581.83,581.63,581.10,580.44,579.82,579.59,579.54,579.24,578.62,577.54,575.53,573.40,571.39,569.29,566.39,565.43,565.33,565.50,565.75,565.97,566.10,566.36,567.14,568.94,569.53,568.56,566.45,564.42,562.34,560.25,558.14,555.97,553.64,551.09,548.48,546.32,545.86,548.84,551.13,551.48,549.86,546.79,543.03,539.72,537.86,537.34,538.14,539.37,541.17,544.79,548.58,553.00,557.85,562.76,567.85,571.38,574.23,576.70,577.99,578.12,577.42,576.16,574.64,573.18,572.07,571.59,572.02,572.98,573.54,572.98,571.21,569.35,569.95,573.52,578.32,581.96,584.30,585.23,585.78,586.73,588.74,591.45
448.85,451.31,454.70,459.27,464.36,469.50,474.29,478.33,481.26,483.31,485.11,486.95,489.14,492.22,495.25,497.96,500.18,501.49,502.20,502.47,502.30,501.75,500.99,500.22,499.38,498.23,496.85,494.82,492.33,489.52,486.48,483.36,480.33,477.50,474.97,472.98,472.08,472.26,473.21,472.83,471.44,469.81,468.78,469.89,474.18,479.09,483.78,488.33,492.73,496.72,499.83,501.66,503.26,504.90,506.28,507.20,507.60,507.89,508.11,508.23,508.15,507.87,507.34,506.52,505.26,503.41,501.19,498.19,494.47,490.44,486.44,482.39,479.19,477.87,478.10,478.64,478.32,476.91,475.20,473.03,470.39,466.40,460.79,460.95,463.54,466.94,470.61,474.18,477.76,481.30,484.71,487.67,489.46,489.27,487.68,485.26,482.76,479.90,476.56,472.62,467.83,461.69,456.62,452.98,450.55,449.24,448.56,448.35,448.64,449.29,450.46,451.88,453.48,455.25,457.25,459.23,461.19,463.15,465.11,467.10,469.11,471.18,473.38,475.62,477.79,479.74,481.28,482.68,484.18,485.83,487.61,489.40,491.70,493.80,495.55,497.33,499.06,500.98,503.06,505.20,507.39,509.87,512.61,515.54,518.36,521.16,524.08,527.12,530.23,533.21,535.75,538.09,540.56,543.48,546.95,550.42,553.69,556.59,558.47,559.62,560.47,561.31,561.97,563.01,564.27,565.70,567.41,568.89,570.43,572.33,575.11,578.85,580.95,582.00,582.65,582.56,582.19,581.76,581.38,581.16,580.97,580.48,579.44,577.55,575.10,572.62,570.03,567.12,563.68,562.31,562.02,562.19,562.38,562.58,562.74,563.08,563.92,565.61,566.69,566.56,565.08,562.59,560.13,557.93,555.87,553.75,551.50,549.04,546.45,544.01,542.80,545.05,547.65,549.20,548.68,545.90,542.32,538.96,536.64,535.94,536.70,538.18,540.50,544.49,548.63,553.40,558.50,563.40,568.23,571.38,573.73,575.57,576.06,575.93,575.18,573.92,572.36,570.94,570.11,569.98,570.61,571.31,571.55,570.72,568.83,567.18,568.87,572.51,576.70,580.08,582.07,582.70,583.25,584.66,587.43,590.77
446.99,449.21,452.23,456.45,460.88,465.61,470.32,474.70,478.71,481.24,483.23,485.12,487.00,488.92,491.36,494.14,496.72,498.10,498.74,498.98,498.91,498.55,497.94,497.23,496.41,495.28,493.84,491.89,489.40,486.37,483.23,480.52,478.10,475.72,473.04,470.65,469.92,470.54,471.59,471.24,469.85,468.45,468.03,469.86,474.05,478.99,484.10,489.25,493.60,497.46,500.33,501.76,503.17,504.68,506.11,507.23,507.63,507.89,508.12,508.30,508.34,508.17,507.91,507.48,506.60,504.77,502.75,500.31,497.07,492.39,487.60,483.11,479.03,475.86,475.11,475.48,475.60,475.07,474.30,472.68,470.27,466.30,460.38,459.59,461.86,465.42,469.35,472.69,475.99,479.34,482.63,485.55,487.70,487.66,486.11,483.80,481.25,478.02,474.38,470.14,464.58,458.91,454.30,451.02,449.25,448.34,447.84,447.80,448.47,449.85,451.27,452.78,454.37,455.92,457.55,459.20,461.02,463.14,465.26,467.43,469.64,471.95,474.49,477.05,479.23,480.94,482.20,483.40,484.69,486.19,487.94,489.76,492.68,495.09,496.73,498.37,499.91,501.71,503.70,505.80,507.96,510.65,513.66,516.78,519.67,522.37,525.20,528.22,531.39,534.52,537.34,540.02,542.85,546.08,549.81,553.47,556.83,559.71,561.29,562.10,562.63,563.17,563.64,564.04,564.45,565.13,566.56,567.78,569.25,571.27,574.30,578.85,581.47,582.73,583.41,583.44,583.14,582.76,582.37,582.00,581.63,580.98,579.58,576.96,574.20,571.50,568.44,564.86,561.35,559.53,558.92,558.97,559.09,559.23,559.42,559.84,560.73,562.37,563.90,564.68,564.02,561.02,557.95,555.54,553.54,551.43,549.19,546.84,544.29,541.72,539.97,541.27,544.04,546.77,547.41,545.00,541.68,538.29,535.46,534.57,535.45,537.38,540.23,544.29,548.60,553.64,558.93,563.69,568.19,571.15,573.16,574.33,574.09,573.78,573.03,571.77,570.22,568.86,568.30,568.48,569.15,569.53,569.40,568.28,566.38,565.27,568.05,571.61,575.00,578.01,579.68,580.23,580.99,582.99,586.61,590.60
445.57,447.68,450.23,453.61,457.50,461.64,465.96,470.35,474.31,477.84,480.83,483.23,485.10,486.93,489.03,491.34,493.59,495.02,495.58,495.74,495.71,495.55,495.13,494.41,493.48,492.33,490.71,488.67,486.12,483.12,480.62,478.64,476.65,474.34,471.49,468.87,468.48,469.61,470.56,469.79,468.21,467.34,468.20,470.98,475.25,480.11,485.14,489.99,493.93,497.56,500.32,501.67,503.01,504.43,505.91,507.17,507.58,507.85,508.05,508.21,508.32,508.35,508.15,507.79,507.14,505.75,503.75,501.57,498.82,494.24,488.97,484.16,479.88,476.19,473.52,471.77,471.35,472.02,472.16,471.38,469.03,465.05,460.01,458.77,460.96,464.82,469.13,472.16,474.92,477.71,480.56,483.37,485.72,485.91,484.51,482.19,479.45,476.11,472.02,467.08,461.40,456.23,452.28,449.64,448.35,447.40,447.43,448.03,448.99,450.40,451.95,453.51,455.02,456.47,457.94,459.54,461.45,463.84,466.26,468.67,471.06,473.45,475.84,478.30,480.21,481.65,482.93,484.15,485.43,486.82,488.42,490.32,493.60,496.41,498.24,499.56,500.90,502.40,504.14,506.23,508.39,511.25,514.49,517.84,520.93,523.65,526.36,529.24,532.49,535.89,539.04,542.08,545.25,548.76,552.71,556.47,559.65,561.80,563.36,564.23,564.73,565.19,565.48,565.71,565.96,566.35,567.17,568.04,569.10,571.00,574.87,579.26,581.89,583.37,584.24,584.24,583.95,583.62,583.17,582.39,581.59,580.79,579.28,576.24,573.02,569.91,566.70,563.39,560.58,558.17,556.68,556.06,556.02,556.03,556.19,556.69,557.90,560.35,562.14,563.21,562.99,559.99,555.71,552.87,551.04,548.92,546.61,544.27,542.01,539.98,538.49,539.54,541.79,544.33,545.98,544.15,541.14,537.76,534.61,533.29,534.63,537.07,540.14,544.16,548.38,553.33,558.55,563.26,567.47,570.45,572.18,572.64,572.38,571.82,570.93,569.76,568.39,567.11,566.73,567.01,567.54,567.58,566.69,565.17,563.81,564.53,568.01,571.28,573.86,575.98,577.21,578.32,579.88,582.48,586.83,591.40
444.16,446.02,448.14,450.78,454.07,457.59,461.35,465.38,469.18,473.30,477.23,480.61,483.18,485.20,487.10,489.02,490.84,492.14,492.58,492.66,492.66,492.67,492.41,491.69,490.61,489.36,487.54,485.39,482.96,480.37,478.47,476.97,475.26,473.00,470.03,467.20,466.77,467.93,468.84,467.93,466.69,466.70,468.82,472.62,476.98,481.60,486.21,490.40,493.97,497.40,500.09,501.49,502.80,504.14,505.63,506.99,507.45,507.73,507.93,508.08,508.24,508.39,508.25,507.95,507.44,506.35,504.40,502.39,499.94,495.56,489.99,485.04,480.79,476.98,473.04,469.73,468.34,468.82,469.12,468.89,466.83,463.30,459.46,457.97,460.02,464.09,468.79,471.76,474.19,476.58,479.09,481.69,484.01,484.38,483.17,480.84,477.81,474.34,469.65,463.81,458.43,453.80,450.49,448.42,447.40,446.75,447.26,448.31,449.46,450.87,452.50,454.08,455.57,457.01,458.47,460.18,462.25,464.76,467.31,469.84,472.33,474.75,477.03,479.31,481.04,482.34,483.63,484.86,486.13,487.45,488.95,491.11,494.72,497.78,499.66,500.73,501.90,503.14,504.64,506.65,508.80,511.83,515.33,518.95,522.24,525.00,527.69,530.58,533.96,537.57,540.91,544.15,547.56,551.55,555.62,559.30,562.23,563.92,565.38,566.26,566.76,567.11,567.29,567.43,567.60,567.87,568.36,569.10,570.00,571.81,575.93,579.81,582.30,583.98,585.08,585.02,584.67,584.22,583.58,582.47,581.34,580.05,578.04,574.73,571.53,568.49,565.47,562.59,560.35,557.57,555.22,553.64,553.02,552.92,553.07,553.56,554.87,557.88,560.10,561.56,561.69,558.78,553.82,550.55,548.56,546.33,544.05,541.89,540.00,538.42,537.16,538.13,540.03,542.35,544.62,543.35,540.59,537.12,533.53,531.96,533.63,536.45,539.70,543.72,547.89,552.70,557.73,562.23,566.16,569.22,570.85,570.88,570.55,569.73,568.68,567.53,566.35,565.32,565.15,565.52,565.90,565.54,564.11,562.40,561.56,563.76,567.66,570.68,572.63,574.09,575.51,577.37,579.75,582.97,587.62,592.48
442.69,444.02,445.81,448.00,450.52,453.38,456.38,459.54,463.15,467.08,471.68,476.74,481.20,483.64,485.55,487.29,488.66,489.51,489.79,489.85,489.86,489.91,489.81,489.09,487.85,486.38,484.33,482.07,480.04,478.50,476.94,475.51,473.84,471.65,468.66,465.65,464.45,464.82,465.80,465.32,465.40,466.80,470.03,474.89,479.35,483.44,487.14,490.27,493.58,496.90,499.61,501.22,502.51,503.78,505.22,506.61,507.19,507.54,507.75,507.90,508.06,508.22,508.17,507.97,507.49,506.37,504.55,502.60,500.17,495.99,490.42,485.56,481.59,478.11,474.17,470.63,467.71,465.63,464.79,464.55,463.22,460.93,458.57,457.11,458.86,462.93,468.06,471.39,473.90,476.27,478.64,480.90,482.85,483.24,482.22,479.93,476.46,472.80,467.29,460.34,455.81,451.77,449.05,447.36,446.27,446.57,447.44,448.50,449.71,451.20,452.81,454.43,456.01,457.60,459.23,461.26,463.56,465.92,468.29,470.71,473.13,475.53,477.87,479.96,481.68,483.09,484.33,485.52,486.75,488.00,489.54,492.26,496.19,499.23,500.87,501.80,502.87,503.99,505.31,507.09,509.21,512.41,516.21,520.20,523.68,526.47,529.31,532.47,536.10,539.78,543.09,546.21,549.67,554.50,558.57,561.87,564.45,566.27,567.45,568.23,568.68,568.84,568.99,569.10,569.22,569.51,570.25,571.26,572.49,574.34,577.54,580.51,582.71,584.52,585.92,585.79,585.25,584.42,583.33,582.12,580.87,578.50,575.27,571.90,569.56,567.45,565.16,562.72,560.71,557.98,554.90,551.98,550.09,549.92,550.14,550.48,551.44,554.39,557.36,559.50,559.94,557.15,552.54,548.88,546.16,543.65,541.56,539.91,538.45,537.07,535.82,536.85,538.82,541.16,543.40,542.58,540.00,536.22,532.00,530.56,532.25,535.17,538.64,542.72,546.97,551.63,556.28,560.32,563.95,567.16,569.01,569.07,568.48,567.39,566.14,564.91,563.88,563.40,563.54,563.98,564.23,563.38,561.89,560.36,559.89,562.75,566.66,569.50,571.15,572.40,575.12,577.94,581.11,584.94,589.18,593.83
441.54,441.97,443.18,445.04,447.07,449.65,452.44,455.30,458.59,462.34,467.05,472.67,478.26,481.78,484.02,485.59,486.72,487.36,487.57,487.58,487.53,487.51,487.35,486.53,485.17,483.57,481.29,479.05,477.41,476.54,475.36,474.02,472.42,470.22,466.93,463.67,462.27,462.63,464.06,464.67,465.82,468.02,471.71,476.89,480.89,484.25,487.19,489.63,492.55,495.66,498.51,500.65,501.96,503.14,504.40,505.62,506.40,506.99,507.37,507.60,507.73,507.88,507.87,507.62,506.99,505.75,504.16,502.45,500.19,496.17,490.68,486.25,482.76,479.54,475.72,471.91,468.17,464.77,462.50,461.41,460.25,458.73,457.13,456.56,458.23,461.83,466.70,470.54,473.20,475.59,477.99,480.25,481.75,481.99,480.89,478.21,474.47,470.22,464.57,458.02,453.65,450.25,447.95,446.52,445.84,446.64,447.68,448.75,449.96,451.50,453.11,454.74,456.37,458.03,459.77,461.93,464.30,466.63,468.97,471.35,473.75,476.14,478.50,480.47,482.18,483.70,485.06,486.28,487.50,488.78,490.43,493.35,497.29,500.16,501.63,502.70,503.78,504.88,506.10,507.63,509.79,513.27,517.30,521.36,524.91,527.93,531.04,534.41,538.02,541.61,544.94,548.38,552.38,557.30,561.08,564.11,566.59,568.47,569.61,570.46,571.11,571.49,571.73,571.88,572.15,572.63,573.33,574.23,575.41,577.15,579.80,582.01,583.86,585.50,586.60,585.91,584.87,583.69,582.39,580.92,578.91,575.90,572.51,569.63,567.62,566.01,564.37,562.54,560.63,557.74,554.36,550.89,548.04,547.42,547.42,547.69,548.64,551.17,554.04,556.31,557.19,555.48,551.68,548.00,544.74,541.74,539.76,538.34,537.05,535.76,534.54,535.65,537.68,539.99,542.19,541.92,539.51,535.53,530.94,529.54,530.88,533.63,537.15,541.07,545.41,550.02,554.54,558.53,562.25,565.36,567.01,566.86,566.13,565.03,563.69,562.40,561.71,561.75,562.07,562.44,562.53,561.55,559.99,558.80,558.94,561.78,565.17,567.91,570.15,572.64,576.35,579.76,583.23,587.06,591.00,595.15
440.70,440.06,440.60,442.13,443.77,446.18,448.97,451.85,454.88,458.56,463.19,468.81,475.04,479.79,482.47,483.91,484.91,485.44,485.63,485.60,485.47,485.31,484.97,483.99,482.47,480.76,478.27,476.18,474.93,474.53,473.69,472.43,470.82,468.54,464.89,461.56,460.48,461.32,463.32,465.21,467.19,469.81,473.56,478.59,481.89,484.46,486.74,488.69,491.15,493.99,497.00,499.75,501.18,502.32,503.37,504.35,505.31,506.20,506.85,507.23,507.32,507.46,507.44,507.08,506.19,504.81,503.48,502.08,500.03,496.12,490.82,486.96,484.05,481.06,477.49,473.41,469.25,465.21,461.53,459.23,457.89,456.81,455.51,456.13,457.81,460.71,464.93,469.28,472.17,474.63,477.11,479.50,480.55,480.54,479.17,475.98,472.11,467.23,461.82,456.36,451.82,449.06,447.09,445.82,445.74,446.78,447.91,449.02,450.23,451.81,453.42,455.04,456.67,458.38,460.20,462.39,464.75,467.07,469.44,471.82,474.22,476.62,479.00,480.92,482.62,484.23,485.78,487.07,488.32,489.69,491.48,494.41,498.14,500.75,502.11,503.45,504.61,505.75,506.90,508.23,510.49,514.29,518.50,522.49,526.06,529.38,532.77,536.27,539.77,543.23,546.65,550.54,555.22,559.84,563.23,566.09,568.62,570.48,571.72,572.75,573.70,574.53,574.96,575.29,575.82,576.62,577.21,577.89,578.86,580.33,582.52,584.04,585.46,586.66,587.04,585.59,583.96,582.47,581.02,579.19,576.26,572.90,569.81,567.57,565.61,564.32,563.28,562.09,560.16,557.04,553.58,549.99,546.44,545.16,544.81,545.08,546.17,548.17,550.51,552.60,553.94,553.70,550.90,547.39,543.75,540.27,538.38,537.01,535.74,534.47,533.29,534.45,536.50,538.83,541.00,541.30,539.00,534.85,530.16,528.73,529.61,532.03,535.47,539.11,543.44,548.07,552.64,556.85,560.88,563.72,564.95,564.50,563.68,562.70,561.37,560.06,559.76,560.22,560.64,560.88,560.78,559.86,558.25,557.47,558.32,560.86,563.63,566.45,569.70,574.00,578.42,582.18,585.68,589.19,592.84,596.32
440.85,439.47,439.39,440.25,441.15,442.82,445.19,448.27,451.95,456.35,461.43,467.11,473.14,477.90,480.71,482.21,483.05,483.48,483.61,483.58,483.44,483.14,482.61,481.34,479.44,477.25,474.81,473.27,472.52,472.25,471.61,470.11,467.99,465.27,462.01,460.12,460.79,462.94,465.08,467.29,469.24,471.62,474.97,479.30,482.03,484.16,486.04,487.56,489.54,491.97,494.73,497.59,499.77,501.20,502.27,503.20,504.12,505.04,506.03,506.79,506.90,506.98,506.90,506.39,505.25,503.90,502.67,501.35,499.33,495.37,490.66,487.30,484.73,482.09,479.22,475.10,470.71,466.51,462.61,459.61,457.67,456.18,454.69,455.35,456.95,459.25,462.48,466.80,470.15,472.88,475.29,477.49,478.34,477.87,476.12,472.96,469.38,465.00,460.12,455.09,450.73,448.34,446.56,445.33,445.44,446.62,447.94,449.27,450.69,452.25,453.83,455.41,457.01,458.69,460.63,462.82,465.10,467.33,469.59,471.92,474.31,476.79,479.34,481.32,483.08,484.75,486.31,487.74,489.18,490.72,492.62,495.49,498.50,500.67,502.06,503.57,505.02,506.33,507.55,508.94,511.43,515.43,519.72,523.72,527.32,530.66,534.00,537.42,541.00,544.69,548.33,552.33,556.88,561.12,564.49,567.43,570.00,571.79,573.24,574.47,575.66,576.95,578.02,579.01,580.16,581.49,582.65,583.65,584.38,585.06,586.09,587.07,587.63,587.49,586.36,584.61,582.85,581.04,579.08,576.76,573.88,570.69,567.56,564.90,562.91,562.18,561.76,560.85,558.59,555.36,551.86,548.29,544.79,542.78,542.25,542.67,543.84,545.68,547.63,549.44,550.86,551.26,549.13,545.87,542.36,539.34,537.56,536.01,534.53,533.14,531.99,532.85,534.93,537.54,539.84,540.51,537.98,533.68,529.48,528.07,528.89,531.04,534.05,537.39,540.89,545.51,550.73,555.59,559.90,562.33,563.08,562.45,561.58,560.70,559.66,558.66,558.28,558.73,559.14,559.24,558.86,557.96,556.55,556.16,557.42,560.00,563.58,567.35,571.46,576.35,580.65,584.34,587.66,590.77,593.78,596.51
441.53,439.50,438.75,438.87,439.00,439.86,441.71,444.93,449.58,454.82,460.36,466.06,471.63,476.01,478.77,480.32,481.11,481.54,481.63,481.59,481.42,480.99,480.21,478.62,476.33,473.71,471.28,469.96,469.34,468.99,468.52,466.99,464.65,461.85,459.50,459.41,462.02,465.43,467.46,469.57,471.35,473.44,476.28,479.63,481.79,483.53,485.06,486.26,487.70,489.57,491.90,494.72,497.55,499.50,500.94,502.05,502.93,503.91,505.21,506.31,506.49,506.51,506.36,505.67,504.33,503.01,501.81,500.42,498.26,494.31,490.32,487.45,485.16,482.83,480.60,476.64,472.21,467.97,463.95,460.38,457.86,455.92,454.18,454.40,455.84,457.71,460.07,463.95,467.63,470.69,473.17,475.06,475.73,474.91,472.94,470.07,467.00,463.34,458.92,454.03,449.92,447.79,446.13,444.95,445.19,446.56,448.10,449.66,451.27,452.82,454.37,455.90,457.45,459.10,461.05,463.15,465.30,467.44,469.59,471.92,474.37,476.93,479.63,481.65,483.48,485.22,486.81,488.38,490.01,491.74,493.76,496.44,498.73,500.52,502.00,503.64,505.32,506.81,508.13,509.60,512.41,516.56,520.88,524.86,528.50,531.82,535.05,538.40,542.10,546.01,549.80,553.75,557.98,561.88,565.29,568.36,570.95,572.69,574.35,575.79,577.24,578.95,580.76,582.46,584.25,586.17,587.91,589.26,589.93,590.09,590.12,590.40,589.78,588.13,585.63,583.56,581.68,579.58,577.13,574.47,571.77,568.77,565.54,562.38,560.09,559.62,559.52,558.69,556.21,553.08,549.74,546.35,543.03,540.57,539.85,540.29,541.47,543.14,544.80,546.42,547.93,548.85,547.29,544.34,541.08,538.48,536.70,535.02,533.39,531.92,530.71,531.20,533.21,536.05,538.51,539.36,536.69,532.45,528.76,527.37,528.23,530.14,532.65,535.69,538.46,542.82,548.32,553.77,558.41,560.71,561.24,560.51,559.61,558.84,558.10,557.40,556.91,557.24,557.54,557.47,556.84,555.95,554.85,555.00,556.83,559.63,564.04,568.66,573.39,578.49,582.59,586.19,589.33,591.96,594.22,596.02
443.18,440.57,439.02,438.37,437.81,438.00,439.27,442.41,448.41,454.35,460.12,465.67,470.52,474.06,476.37,477.90,479.00,479.65,479.82,479.71,479.40,478.83,477.69,475.72,473.15,470.46,467.75,465.51,463.86,462.94,462.71,461.95,460.51,458.87,458.52,460.52,464.72,468.82,470.24,471.60,473.23,475.23,477.52,479.41,480.92,482.23,483.42,484.53,485.28,486.21,487.85,490.50,493.30,496.30,498.95,500.85,501.83,503.08,504.56,505.78,506.11,506.16,505.84,504.98,503.51,502.14,500.89,499.10,496.44,492.79,489.63,487.27,485.21,483.02,480.97,477.61,473.61,469.34,464.93,460.85,458.04,456.05,454.17,453.13,454.20,456.09,458.11,460.69,464.12,467.69,470.69,472.13,472.57,471.77,470.14,468.03,465.84,462.88,458.60,453.42,449.56,447.46,445.81,444.73,445.26,446.98,448.79,450.48,452.09,453.64,455.19,456.70,458.21,459.79,461.51,463.27,465.15,467.21,469.31,471.83,474.51,477.20,479.82,481.83,483.70,485.56,487.32,489.00,490.75,492.69,494.85,496.93,498.82,500.55,502.18,503.87,505.56,507.16,508.56,510.04,513.38,517.61,521.82,525.70,529.42,532.72,535.91,539.26,543.08,547.05,550.68,554.29,558.15,561.87,565.31,568.42,571.03,572.86,574.61,576.28,578.04,580.14,582.67,584.91,587.25,589.76,591.80,593.23,594.38,595.13,595.00,594.04,591.54,588.41,585.38,582.65,580.44,578.11,575.53,572.98,570.31,567.25,563.95,560.63,557.30,556.05,555.41,554.31,552.09,549.62,547.01,544.15,541.00,538.91,537.87,537.87,538.93,540.20,541.79,543.54,545.35,546.84,545.76,543.32,540.38,537.56,535.40,533.84,532.43,530.99,529.56,529.61,531.29,534.05,536.68,537.25,534.94,531.27,527.85,526.49,527.42,529.13,531.19,533.98,536.71,540.09,544.49,550.12,555.13,558.25,559.40,558.75,557.80,557.16,556.59,556.01,555.59,555.78,555.75,555.37,554.63,553.78,553.13,554.26,557.32,560.70,565.17,569.85,574.61,579.46,583.53,587.29,590.32,592.31,593.70,594.07
444.70,441.49,439.16,438.02,436.98,436.79,437.86,441.13,447.83,453.86,459.30,464.29,468.56,471.73,473.84,475.34,476.62,477.56,477.97,477.88,477.34,476.68,475.52,473.66,471.24,468.55,465.78,463.14,460.85,459.23,458.52,457.99,457.64,457.76,459.06,462.29,466.76,470.56,471.65,472.63,473.96,475.50,477.02,478.19,479.34,480.34,481.19,482.00,482.36,482.90,484.16,486.55,489.36,492.83,496.22,499.01,500.75,502.28,503.83,505.14,505.71,505.88,505.53,504.58,503.02,501.50,499.84,497.58,494.66,491.37,488.78,486.65,484.69,482.75,480.94,477.88,474.11,469.89,465.25,460.97,458.07,456.07,454.08,452.37,452.71,454.07,455.77,457.78,460.80,464.28,467.34,468.56,469.45,469.32,468.25,466.42,464.59,462.20,458.19,452.96,449.32,447.25,445.58,444.44,444.83,446.94,449.17,451.12,452.76,454.33,455.92,457.49,459.03,460.61,462.20,463.82,465.52,467.39,469.31,471.87,474.65,477.41,480.01,482.03,483.92,485.82,487.70,489.55,491.66,493.92,496.14,497.94,499.81,501.44,502.88,504.44,506.05,507.63,509.17,511.02,514.57,518.60,522.58,526.39,530.08,533.31,536.44,539.80,543.76,547.87,551.39,554.68,558.08,561.47,564.84,567.99,570.69,572.61,574.43,576.24,578.19,580.49,583.39,586.13,589.05,592.17,594.80,596.44,597.62,598.37,598.23,597.10,593.51,589.16,585.41,581.91,579.36,576.92,574.35,571.85,569.10,566.01,562.68,559.17,555.24,553.00,551.62,550.35,548.45,546.48,544.33,541.96,539.38,537.51,536.14,535.63,536.35,537.45,539.07,541.04,543.15,544.91,544.39,542.46,539.78,536.76,534.13,532.43,531.05,529.66,528.27,528.17,529.82,532.62,535.12,535.50,533.45,530.25,527.16,525.48,526.43,528.13,529.93,532.20,534.89,537.91,541.78,547.15,552.25,555.91,557.52,556.97,555.99,555.33,554.81,554.38,554.18,554.32,554.09,553.48,552.59,551.75,551.95,554.09,557.96,561.77,566.17,570.90,575.66,580.10,584.06,587.76,590.52,591.92,592.48,591.82
446.15,442.28,439.21,437.80,436.44,436.14,437.34,440.90,447.68,453.27,457.92,462.04,465.86,469.07,471.22,472.71,474.07,475.31,476.12,476.10,475.26,474.53,473.60,472.23,470.32,467.69,465.05,462.44,459.85,457.45,455.74,455.05,455.93,458.19,460.79,464.49,468.14,470.85,471.86,472.75,473.66,474.43,475.07,476.10,477.13,477.92,478.45,478.80,479.10,479.73,480.93,483.00,485.91,489.33,493.04,496.75,499.70,501.51,503.06,504.43,505.29,505.65,505.40,504.46,502.82,501.07,498.76,495.99,492.97,490.08,487.79,485.64,483.68,482.06,480.49,477.49,473.80,469.69,465.00,460.81,458.00,456.04,454.00,452.06,451.39,451.79,453.14,455.13,457.62,460.57,463.33,464.60,466.46,467.48,467.13,465.22,463.31,461.34,457.72,452.64,449.17,447.13,445.44,444.08,444.00,446.56,449.33,451.61,453.29,454.91,456.57,458.25,459.91,461.52,463.08,464.68,466.29,467.90,469.58,472.04,474.81,477.61,480.19,482.25,484.13,486.01,487.96,490.05,492.69,495.36,497.61,499.40,501.53,503.08,504.05,505.34,506.79,508.23,509.94,512.43,515.92,519.51,523.18,526.93,530.48,533.62,536.68,540.05,544.14,548.45,551.91,554.89,557.78,560.72,563.95,567.13,569.94,571.97,573.85,575.74,577.76,580.11,583.09,586.32,589.82,593.55,597.01,598.91,599.78,600.05,599.99,599.54,595.53,590.22,585.59,581.26,578.39,575.96,573.52,571.01,568.12,565.01,561.67,557.94,553.80,550.47,548.20,546.83,545.26,543.60,541.73,539.80,538.11,536.31,534.62,533.59,533.73,534.84,536.61,538.85,541.28,543.07,543.16,541.72,539.23,536.02,532.88,530.81,529.30,527.99,526.84,526.87,528.71,531.63,533.76,534.05,532.16,529.34,526.60,524.39,525.30,527.12,528.82,530.41,533.06,536.26,540.06,544.87,549.81,553.72,555.63,555.20,554.18,553.37,552.82,552.56,552.71,552.87,552.54,551.75,550.68,549.89,551.25,554.40,558.72,562.83,567.03,571.81,576.59,580.48,584.27,587.66,589.99,590.83,590.61,589.24
447.83,442.95,439.26,437.61,435.91,436.02,437.59,440.74,446.73,451.61,455.58,459.09,462.65,465.96,468.77,470.99,472.42,473.45,474.53,474.63,473.44,472.43,471.42,470.17,468.47,466.12,463.75,461.34,458.84,456.28,454.06,454.35,456.25,459.04,461.86,464.75,467.47,469.62,470.72,471.50,472.08,472.46,472.80,473.54,474.22,474.80,475.29,475.82,476.87,478.27,480.13,482.69,485.90,489.15,492.53,495.97,499.01,501.03,502.63,503.98,504.98,505.48,505.35,504.50,502.90,501.04,498.57,495.62,492.42,489.39,486.86,484.43,482.26,480.51,478.53,475.58,472.25,468.55,464.05,460.54,458.31,456.69,454.73,452.37,450.89,450.39,450.90,452.25,454.34,457.25,460.41,462.58,464.81,466.28,466.32,464.50,462.65,460.68,457.13,452.24,449.00,447.01,445.32,443.81,443.42,446.78,449.83,452.09,453.82,455.49,457.18,458.88,460.55,462.13,463.68,465.27,466.87,468.46,470.29,472.78,475.48,478.11,480.46,482.47,484.38,486.29,488.26,490.49,493.33,496.35,499.14,501.33,503.63,505.16,505.96,506.99,508.25,509.59,511.24,513.62,516.76,519.95,523.38,527.05,530.41,533.50,536.55,539.89,543.94,548.15,551.53,554.38,556.99,559.52,562.39,565.38,568.27,570.71,572.69,574.68,576.80,579.18,582.12,585.72,589.65,593.77,597.98,599.72,600.33,600.48,600.32,599.58,595.60,589.94,584.33,580.18,577.41,575.01,572.60,570.05,567.09,563.97,560.63,556.87,552.81,549.39,546.74,544.71,542.67,541.08,539.65,538.25,536.83,535.17,533.40,531.90,531.25,532.05,534.19,536.94,539.73,541.65,541.97,540.63,538.06,534.72,531.46,529.09,527.34,526.02,524.96,525.63,527.84,530.66,532.45,532.62,530.92,528.23,525.37,523.62,524.56,526.26,527.86,529.37,532.06,535.45,539.50,544.39,549.23,552.73,554.26,553.65,552.44,551.51,551.05,551.04,551.32,551.40,550.91,549.98,548.99,549.01,551.35,555.04,559.36,563.39,567.38,572.42,577.59,581.24,584.51,586.75,588.03,588.26,587.35,585.36
449.68,443.77,439.40,437.36,435.45,436.03,437.91,440.49,445.35,449.46,452.85,455.98,459.56,463.06,466.54,469.39,470.77,471.63,472.97,473.25,471.85,470.41,469.13,467.84,466.33,464.29,462.10,459.79,457.42,455.00,452.80,454.17,456.77,459.50,462.12,464.05,465.97,467.76,468.97,469.69,469.98,470.18,470.45,470.95,471.36,471.89,472.65,473.77,475.69,477.90,480.45,483.52,486.99,490.01,492.89,495.77,498.56,500.66,502.26,503.56,504.64,505.28,505.30,504.58,503.07,501.20,498.80,495.81,492.43,489.19,486.33,483.58,481.14,479.15,476.75,473.80,470.78,467.59,463.62,460.88,459.22,457.91,456.03,453.30,451.06,449.61,449.15,449.68,451.36,454.26,457.89,461.12,463.54,465.24,465.56,463.87,462.11,459.93,456.35,451.73,448.79,446.85,445.15,443.53,442.92,447.00,450.24,452.47,454.25,455.97,457.69,459.40,461.07,462.65,464.20,465.80,467.40,469.03,471.10,473.62,476.20,478.63,480.74,482.71,484.64,486.57,488.59,491.01,494.05,497.43,500.81,503.48,505.90,507.43,508.15,508.96,510.11,511.41,512.93,514.90,517.47,520.23,523.40,526.95,530.05,533.04,536.10,539.45,543.40,547.50,550.82,553.56,555.96,558.18,560.68,563.44,566.35,569.18,571.36,573.48,575.70,578.08,580.87,584.67,588.87,593.28,597.98,599.69,600.28,600.45,600.01,598.67,594.84,589.09,582.66,578.99,576.41,574.04,571.61,569.00,566.01,562.88,559.55,555.86,551.96,548.71,545.86,543.19,540.60,538.92,537.81,536.84,535.54,534.04,532.26,530.42,529.05,529.46,531.77,534.75,537.68,539.82,540.55,539.39,536.81,533.41,530.20,527.55,525.49,524.02,523.02,524.40,526.92,529.59,531.16,531.11,529.49,526.82,523.85,522.90,523.93,525.52,527.12,528.75,531.51,535.07,539.34,544.38,549.14,552.04,553.01,552.18,550.82,549.76,549.36,549.49,549.76,549.72,549.08,548.14,547.54,548.61,551.73,555.69,559.85,563.82,567.79,573.05,578.43,581.79,584.34,585.32,585.53,585.19,583.74,581.35
451.92,445.20,439.80,436.89,435.26,435.94,437.69,439.79,443.14,446.49,449.63,452.98,457.47,461.50,464.96,467.36,468.20,469.56,471.23,471.90,470.85,468.75,466.66,465.16,464.00,462.30,459.67,456.90,454.46,452.78,452.06,453.75,456.03,458.11,459.98,461.62,463.41,465.11,466.30,467.04,467.30,467.57,468.12,468.78,469.41,470.56,472.44,475.10,477.50,479.93,482.49,485.35,488.76,491.44,493.86,496.27,498.59,500.37,501.80,503.05,504.15,504.95,505.11,504.56,503.28,501.66,499.65,496.83,493.44,490.25,487.26,484.31,481.62,479.41,477.20,474.04,470.94,468.31,465.91,463.68,462.05,460.63,458.67,456.05,452.94,450.31,448.88,448.52,449.56,452.11,455.82,459.77,462.39,464.19,464.63,463.06,461.39,458.65,454.93,450.90,448.41,446.53,444.78,443.13,442.51,446.63,450.04,452.43,454.29,456.10,457.90,459.68,461.42,463.11,464.72,466.33,467.93,469.60,471.91,474.30,476.65,478.90,480.98,482.94,484.88,486.85,489.04,491.94,495.48,499.26,502.89,505.99,508.41,509.91,510.69,511.43,512.81,514.30,515.62,516.72,518.18,520.31,523.13,526.36,529.01,531.74,534.83,538.31,542.19,546.38,549.70,552.35,554.59,556.77,559.09,561.64,564.41,567.32,569.93,572.30,574.57,576.86,579.26,582.69,586.77,591.22,595.58,598.16,599.57,599.93,598.75,596.62,592.88,587.43,581.01,577.86,575.35,572.94,570.47,567.75,564.77,561.65,558.41,554.96,551.17,548.05,545.23,542.50,539.88,537.80,536.36,535.32,534.23,532.85,531.17,529.34,527.76,527.81,529.28,531.18,533.31,535.97,538.17,538.00,535.86,532.69,529.77,526.90,524.27,522.23,521.39,523.08,525.61,528.13,529.97,529.34,527.26,524.47,521.88,522.04,523.37,525.14,527.06,528.94,531.82,535.40,539.55,544.31,549.03,551.25,551.65,550.80,549.52,548.35,547.72,547.55,547.50,547.26,546.52,546.05,546.77,549.02,552.40,556.07,559.88,564.26,568.96,574.00,578.52,581.16,582.50,582.77,582.49,581.73,580.18,578.23
453.96,446.82,440.55,436.80,434.88,435.28,436.65,438.18,440.44,443.11,446.45,450.64,455.66,459.97,463.10,464.88,465.40,467.24,469.26,470.23,469.38,466.77,464.09,462.25,461.09,459.66,456.73,453.82,451.75,451.17,452.06,454.13,456.18,457.77,459.10,460.49,462.03,463.52,464.66,465.48,465.98,466.52,467.27,468.11,469.06,470.78,473.43,476.88,479.36,481.75,484.22,486.83,489.92,492.25,494.32,496.38,498.36,499.96,501.28,502.45,503.54,504.41,504.70,504.33,503.26,501.94,500.32,497.86,494.73,491.67,488.66,485.67,482.96,480.78,478.75,476.00,473.46,471.55,469.93,467.66,465.68,463.92,461.87,459.12,455.24,451.55,449.04,447.89,448.27,450.33,453.92,458.41,461.32,463.19,463.64,462.17,460.47,457.46,453.75,450.08,447.68,445.82,444.13,442.58,442.05,446.12,449.68,452.25,454.17,456.05,457.94,459.79,461.60,463.41,465.09,466.75,468.41,470.15,472.52,474.80,476.99,479.14,481.24,483.27,485.27,487.33,489.71,492.99,496.84,500.87,504.79,508.26,510.84,512.45,513.33,514.07,515.64,517.34,518.67,519.33,520.08,521.54,523.56,525.93,528.10,530.60,533.65,537.15,540.90,544.98,548.32,551.02,553.29,555.52,557.76,560.15,562.79,565.71,568.60,571.16,573.49,575.70,577.88,580.78,584.52,588.85,592.67,595.62,597.42,597.83,596.27,593.95,590.29,585.27,579.61,576.79,574.26,571.73,569.15,566.40,563.46,560.37,557.18,553.88,550.32,547.28,544.46,541.70,539.16,536.93,535.18,533.87,532.86,531.58,530.02,528.23,526.55,526.21,527.06,528.23,529.76,532.50,535.50,536.39,535.13,532.22,529.48,526.49,523.50,521.00,520.02,521.67,524.03,526.39,528.31,527.33,524.98,522.28,520.32,521.33,523.01,524.98,527.12,529.21,532.28,535.91,539.86,544.09,548.42,550.11,550.10,549.16,548.01,546.83,546.04,545.59,545.17,544.71,544.05,544.22,546.31,549.54,553.44,557.21,560.90,565.41,570.04,574.41,577.96,579.74,580.23,580.01,579.44,578.49,576.95,575.31
455.68,448.64,441.72,437.25,434.26,433.89,434.60,435.40,437.14,439.28,443.37,449.15,454.15,458.37,460.82,461.87,462.36,464.59,467.00,468.16,467.21,464.35,461.39,459.06,457.45,456.22,453.20,450.63,449.48,450.42,452.95,455.56,457.59,458.97,460.11,461.21,462.29,463.37,464.46,465.43,466.50,467.50,468.35,469.33,470.71,472.88,475.77,478.93,480.98,483.06,485.36,487.78,490.21,492.19,494.06,495.94,497.76,499.40,500.70,501.78,502.78,503.60,504.01,503.81,502.96,501.95,500.68,498.79,496.31,493.46,490.53,487.70,485.27,483.44,481.51,480.01,478.91,477.87,475.92,472.97,470.15,467.79,465.67,462.45,457.93,453.29,449.61,447.82,447.54,448.97,452.19,457.05,460.36,462.25,462.62,461.19,459.30,456.43,452.96,449.33,446.48,444.61,443.11,441.84,441.52,445.47,449.20,451.96,453.89,455.81,457.78,459.72,461.63,463.52,465.29,467.05,468.82,470.69,472.87,475.06,477.22,479.39,481.54,483.72,485.88,488.09,490.66,494.20,498.04,502.13,506.40,510.20,513.12,515.04,516.10,516.88,518.59,520.50,522.09,522.91,523.53,524.27,524.96,525.75,527.42,529.75,532.69,536.04,539.59,543.24,546.62,549.60,552.12,554.49,556.76,559.06,561.56,564.48,567.41,570.08,572.48,574.65,576.81,579.10,582.23,586.19,589.34,591.89,593.45,593.74,592.30,590.61,586.97,582.53,578.55,575.81,573.16,570.40,567.59,564.92,562.08,559.02,555.83,552.59,549.38,546.40,543.49,540.68,538.31,536.30,534.30,532.49,531.42,530.25,528.76,527.04,525.35,524.56,525.19,526.24,527.53,529.72,532.54,534.53,534.66,532.06,529.32,526.32,523.25,520.49,519.00,520.14,522.15,524.29,526.05,525.04,522.73,520.40,519.31,520.81,522.88,525.06,527.26,529.50,532.86,536.59,540.26,543.66,547.19,548.51,548.30,547.21,546.17,545.13,544.30,543.61,542.81,542.14,541.77,542.79,546.16,550.10,554.91,559.36,563.25,567.47,570.90,574.12,576.64,577.44,577.55,577.10,576.43,575.57,574.12,572.57
457.00,450.27,443.64,438.90,435.47,433.82,433.19,433.22,434.19,436.51,440.73,446.32,451.17,454.81,456.73,457.76,459.17,462.23,464.80,465.76,464.54,461.56,458.50,455.96,453.97,452.20,449.59,448.88,449.95,452.42,455.71,458.36,460.35,461.78,462.89,463.84,464.69,465.54,466.43,467.33,468.29,469.25,470.16,471.13,472.69,474.87,477.48,480.12,481.97,483.85,485.85,487.89,489.81,491.54,493.25,495.01,496.75,498.42,499.87,501.11,502.13,502.88,503.35,503.32,502.65,501.78,500.72,499.03,496.75,494.20,491.69,489.23,487.05,485.34,483.55,482.27,481.45,480.79,479.35,477.23,474.99,472.59,469.60,465.56,460.32,455.08,450.84,448.21,446.93,447.80,450.94,455.88,459.64,461.40,461.50,460.17,457.88,455.01,451.71,448.26,445.46,443.29,441.80,440.86,440.97,444.85,448.76,451.71,453.64,455.57,457.54,459.50,461.47,463.42,465.29,467.17,469.08,471.03,473.14,475.20,477.44,479.87,482.05,484.33,486.57,488.92,491.73,495.00,498.41,502.35,506.95,511.11,514.70,517.36,519.01,520.02,521.81,523.90,525.70,526.62,527.00,527.26,527.37,527.54,528.60,530.47,533.06,536.10,539.31,542.53,545.69,548.66,551.35,553.88,556.24,558.59,561.11,564.07,567.09,569.78,572.11,574.12,576.17,578.18,580.79,584.09,586.98,589.34,590.65,590.75,589.48,587.93,585.14,581.58,577.83,574.73,571.67,568.59,565.60,563.00,560.40,557.48,554.32,551.13,548.06,545.04,542.14,539.47,537.21,535.19,533.12,531.23,530.12,528.89,527.41,525.75,524.07,522.89,523.15,524.16,525.73,528.02,530.73,532.89,533.57,531.73,529.16,526.21,523.13,520.13,517.64,518.61,520.58,522.55,524.08,523.23,521.06,519.03,518.50,520.43,522.85,525.29,527.72,530.29,533.75,537.39,540.75,543.51,546.45,547.21,546.52,545.11,544.07,543.29,542.64,541.95,541.01,540.16,540.37,542.23,546.17,550.51,555.86,560.53,564.16,567.98,570.78,572.98,574.47,574.80,574.61,574.02,573.28,572.39,570.99,569.31
458.09,451.69,445.62,440.82,437.21,434.29,432.25,431.47,431.63,434.24,438.28,443.03,447.58,450.46,451.96,453.31,455.92,459.87,462.47,463.11,461.56,458.53,455.43,452.78,450.49,448.26,446.60,448.18,451.58,455.36,458.97,461.53,463.52,465.11,466.20,467.02,467.74,468.40,469.04,469.81,470.47,471.23,472.20,473.13,474.74,476.71,478.82,480.86,482.60,484.29,485.96,487.58,489.09,490.63,492.23,493.88,495.60,497.31,498.96,500.43,501.51,502.20,502.72,502.81,502.32,501.52,500.59,498.97,496.76,494.54,492.50,490.44,488.50,486.85,485.25,483.85,482.90,482.35,481.60,480.68,479.39,477.20,473.27,468.45,462.53,456.83,452.29,448.81,446.48,446.78,449.79,454.60,458.80,460.45,460.30,459.03,456.39,453.48,450.29,447.01,444.37,441.95,440.48,439.91,440.51,444.37,448.40,451.49,453.41,455.34,457.28,459.25,461.24,463.25,465.19,467.20,469.24,471.25,473.32,475.33,477.72,480.44,482.65,484.97,487.27,489.72,492.70,495.55,498.43,502.17,507.07,511.60,515.94,519.38,521.70,523.02,524.93,527.17,529.13,530.13,530.31,530.24,530.08,530.01,530.52,531.89,534.08,536.78,539.64,542.45,545.30,548.16,550.98,553.68,556.15,558.59,561.16,564.13,567.22,569.88,572.05,573.87,575.79,577.67,579.86,582.50,585.28,587.50,588.56,588.48,587.39,585.78,583.99,581.28,577.27,573.67,570.11,566.66,563.50,560.95,558.64,555.87,552.77,549.66,546.67,543.70,540.94,538.50,536.30,534.19,532.04,530.12,528.96,527.63,526.13,524.49,522.81,521.30,521.15,522.13,524.02,526.58,529.22,531.30,532.23,531.24,528.94,526.07,523.04,519.82,516.31,517.10,519.07,520.94,522.23,521.57,519.60,517.83,517.78,520.15,522.90,525.61,528.32,531.28,534.78,538.25,541.28,543.52,545.91,546.04,544.79,543.05,541.87,541.36,540.91,540.25,539.35,538.64,539.67,542.37,546.56,551.02,556.58,561.17,564.37,567.62,570.00,571.30,571.85,571.93,571.50,570.80,569.99,569.04,567.63,565.71
458.85,452.34,446.31,441.78,438.09,435.02,432.53,430.90,430.60,432.53,435.91,440.00,443.57,445.68,447.24,449.25,452.67,456.93,459.39,459.72,457.90,454.95,451.84,448.93,446.64,445.83,447.12,450.20,454.09,457.98,461.27,463.98,466.27,468.01,468.77,469.39,469.90,470.34,470.79,471.60,472.23,472.95,473.93,475.02,476.46,477.98,479.48,480.93,482.51,483.99,485.38,486.72,488.01,489.49,491.08,492.73,494.52,496.35,498.15,499.72,500.82,501.55,502.10,502.22,501.75,501.13,500.23,498.73,496.75,494.71,492.76,490.88,489.19,487.83,486.52,485.26,484.25,483.49,482.64,481.74,480.66,478.83,475.28,470.60,464.34,458.29,453.54,449.57,446.58,446.11,448.29,452.39,456.76,458.80,458.83,457.39,455.03,452.18,448.89,445.41,442.54,440.68,439.72,439.56,440.65,444.56,448.42,451.34,453.23,455.16,457.09,459.04,461.02,463.07,465.06,467.11,469.16,471.17,473.17,475.64,478.36,481.04,483.27,485.52,487.79,490.20,492.90,495.51,498.26,501.94,506.95,511.89,516.72,520.37,522.76,524.71,526.93,529.26,531.24,532.34,532.63,532.53,532.34,532.29,532.79,534.05,536.04,538.50,541.11,543.67,546.37,549.17,552.02,554.82,557.44,559.95,562.43,565.14,568.02,570.46,572.43,574.14,576.00,577.83,580.00,582.60,585.14,587.14,588.04,587.91,586.94,585.24,583.45,580.86,576.91,572.94,568.90,565.05,561.66,559.15,556.95,554.28,551.32,548.46,545.79,543.43,541.27,539.20,537.00,534.74,532.16,529.69,528.25,526.93,525.34,523.59,521.82,520.15,519.83,520.44,521.91,524.42,527.11,529.44,530.79,530.27,528.35,525.65,522.72,519.54,515.71,515.70,517.33,519.27,520.43,519.78,517.96,516.58,517.20,520.06,523.14,526.14,529.14,532.33,535.85,539.10,541.83,543.84,545.49,544.96,543.33,541.39,539.72,539.25,538.63,537.69,537.34,538.45,541.04,544.56,548.63,552.43,557.09,560.99,563.59,565.63,567.55,568.38,568.46,568.40,567.93,567.16,566.29,565.25,563.64,561.28
459.81,453.25,447.19,442.77,438.93,435.85,433.12,430.78,429.99,431.07,433.56,436.80,439.27,440.67,442.40,445.07,448.98,453.07,455.11,455.10,453.16,450.31,447.45,444.91,443.42,444.55,448.23,452.33,456.36,460.15,463.23,466.10,468.54,470.20,470.70,471.19,471.62,471.96,472.29,473.13,473.85,474.58,475.46,476.42,477.42,478.36,479.32,480.52,482.03,483.37,484.56,485.71,486.87,488.35,490.04,491.87,493.82,495.79,497.73,499.38,500.38,501.09,501.65,501.74,501.25,500.75,499.81,498.38,496.59,494.66,492.78,491.04,489.57,488.48,487.39,486.27,485.23,484.27,483.27,482.27,481.27,479.77,476.78,472.34,466.03,459.78,454.78,450.51,447.03,445.64,446.73,450.29,454.39,456.65,456.99,455.63,453.64,450.83,447.42,443.79,440.92,439.62,439.17,439.43,440.97,444.86,448.50,451.26,453.13,455.07,457.02,458.96,460.92,462.95,464.94,466.97,469.03,471.09,473.25,476.16,479.09,481.65,483.89,486.06,488.31,490.65,493.11,495.57,498.20,501.81,506.85,512.15,517.34,521.08,523.47,525.87,528.32,530.77,532.91,534.28,534.79,534.73,534.55,534.52,534.99,536.21,538.08,540.38,542.80,545.20,547.84,550.64,553.54,556.42,559.11,561.62,564.01,566.49,569.13,571.33,573.15,574.82,576.57,578.34,580.60,583.40,585.80,587.55,588.28,588.15,587.35,585.63,583.61,580.83,576.86,572.66,568.42,564.26,560.57,558.12,555.96,553.37,550.52,547.88,545.58,543.74,542.03,540.25,538.12,535.73,532.85,529.96,528.13,526.65,524.80,522.80,520.93,519.16,518.59,518.86,519.96,522.20,524.80,527.27,528.94,528.94,527.46,525.00,522.17,518.95,514.84,514.28,515.69,517.66,518.61,517.86,516.19,515.31,516.72,520.03,523.34,526.61,529.95,533.44,536.96,539.90,542.28,544.05,544.76,543.67,541.78,539.65,537.51,536.91,536.20,535.48,536.33,539.00,542.77,546.84,550.57,553.49,556.90,559.94,562.03,563.09,564.39,564.83,564.65,564.49,564.04,563.18,562.14,560.89,558.91,556.36
461.36,454.95,448.87,444.13,439.97,436.81,433.98,431.23,429.82,429.95,431.25,433.17,434.51,435.29,437.30,440.51,444.36,447.40,448.50,448.11,446.36,443.61,441.55,440.72,441.64,445.24,449.50,453.81,457.86,461.49,464.71,467.77,469.94,471.03,471.48,472.03,472.66,473.20,473.52,474.36,475.27,476.08,476.66,476.79,476.86,477.05,477.69,479.35,480.95,482.28,483.43,484.54,485.69,487.29,489.31,491.63,493.89,496.03,498.13,499.80,500.47,501.06,501.52,501.53,500.95,500.40,499.31,497.84,496.12,494.21,492.48,490.87,489.52,488.58,487.51,486.46,485.45,484.46,483.45,482.44,481.48,480.18,477.72,473.43,467.56,461.48,456.11,451.79,448.06,445.50,445.14,448.73,451.71,453.68,454.49,453.78,452.16,449.32,445.80,442.23,439.94,438.98,438.88,439.57,441.51,445.14,448.62,451.32,453.20,455.18,457.17,459.13,461.06,462.97,464.85,466.79,468.83,471.13,473.94,477.04,479.88,482.29,484.49,486.65,488.87,491.17,493.58,495.99,498.45,501.87,506.85,512.39,517.74,521.55,523.94,526.34,528.74,531.44,534.07,536.06,536.89,536.94,536.80,536.75,536.93,538.13,540.02,542.27,544.58,546.96,549.69,552.63,555.66,558.63,561.16,563.53,565.88,568.29,570.66,572.68,574.47,576.18,577.70,579.36,581.86,585.14,587.64,589.12,589.66,589.59,589.08,587.52,585.05,581.67,577.38,573.24,569.36,565.14,561.02,558.63,556.45,553.89,551.11,548.53,546.63,544.91,543.21,541.49,539.63,537.16,534.35,531.52,529.15,527.08,524.61,522.17,520.18,518.39,517.29,517.35,518.51,520.08,522.29,524.49,526.27,527.03,526.05,523.94,521.19,517.69,513.14,512.76,514.34,516.21,516.77,515.72,514.20,514.00,516.47,520.04,523.40,526.87,530.64,534.63,538.17,540.64,542.47,543.94,543.36,541.91,539.96,537.57,535.19,534.11,533.66,534.32,537.57,540.68,544.62,548.62,551.68,553.51,555.31,557.31,559.15,559.85,560.28,560.34,560.16,559.94,559.60,558.59,557.20,555.44,552.76,550.66
462.59,457.69,451.77,446.61,442.05,438.51,435.37,432.30,429.96,429.23,429.62,430.59,431.16,431.44,433.13,436.14,439.69,441.95,442.51,442.02,440.71,438.71,438.29,439.20,441.45,445.56,449.63,454.03,458.35,462.14,465.51,468.58,470.61,471.56,472.20,472.85,473.53,474.10,474.40,475.07,475.54,475.85,475.98,475.72,475.39,475.07,475.26,477.00,478.97,480.64,482.00,483.18,484.75,486.87,489.27,491.78,494.14,496.41,498.53,500.10,500.61,501.12,501.44,501.36,500.81,500.30,499.33,497.90,496.11,494.14,492.27,490.60,489.26,488.35,487.38,486.45,485.53,484.59,483.59,482.61,481.65,480.48,478.43,474.19,468.69,462.83,457.29,453.05,449.16,445.73,444.10,446.99,449.44,451.26,452.24,451.90,450.31,447.42,444.03,440.90,439.23,438.50,438.67,439.68,441.79,445.38,448.78,451.47,453.41,455.40,457.39,459.35,461.26,463.12,464.97,466.85,468.91,471.41,474.67,477.86,480.61,482.85,484.94,487.02,489.16,491.42,493.90,496.38,498.92,502.30,507.06,512.23,517.56,521.49,524.03,526.50,528.93,531.95,535.15,537.70,538.76,538.93,538.87,538.83,538.94,540.22,542.16,544.38,546.68,549.15,552.01,555.03,558.02,560.76,563.18,565.49,567.84,570.25,572.35,574.25,576.01,577.66,579.35,581.30,583.99,587.22,589.20,590.22,590.56,590.50,590.19,589.08,586.25,582.31,577.93,574.11,570.67,566.85,562.98,560.49,558.12,555.43,552.53,549.75,547.78,546.07,544.33,542.52,540.67,538.17,535.44,532.68,530.01,527.40,524.46,521.67,519.49,517.75,516.34,516.04,516.93,518.28,520.11,522.01,523.78,524.99,524.73,523.01,520.09,516.01,511.56,511.47,513.32,515.17,515.10,513.62,512.39,512.95,516.28,520.16,523.76,527.48,531.51,535.74,539.07,541.16,542.41,543.01,541.92,540.10,537.89,535.41,532.95,531.58,531.69,533.75,538.42,541.64,544.95,548.12,550.44,551.44,552.23,553.19,554.16,554.41,554.52,554.66,554.75,554.62,554.38,553.52,552.22,550.52,548.30,546.79
463.42,460.92,455.44,449.86,444.86,440.84,437.37,434.08,430.70,429.00,428.55,428.76,428.80,428.66,429.70,432.01,435.12,436.75,437.04,436.71,436.05,435.32,436.98,439.49,442.35,445.76,449.21,453.64,458.32,462.44,465.96,468.87,470.80,471.87,472.86,473.58,474.22,474.71,474.96,475.34,475.02,474.52,474.13,473.75,473.37,472.69,472.38,473.99,476.42,478.62,480.35,481.74,483.95,486.81,489.62,492.13,494.47,496.84,498.89,500.30,500.77,501.24,501.41,501.24,500.78,500.37,499.71,498.38,496.48,494.39,492.22,490.38,488.95,487.95,487.09,486.27,485.47,484.64,483.68,482.74,481.78,480.69,478.94,474.68,469.50,463.91,458.37,454.26,450.29,446.20,443.44,445.16,447.43,449.18,450.13,449.94,448.26,445.34,442.25,439.77,438.69,438.14,438.51,439.75,441.92,445.60,449.00,451.69,453.68,455.69,457.65,459.58,461.50,463.35,465.21,467.07,469.17,471.86,475.39,478.62,481.25,483.32,485.27,487.22,489.25,491.49,494.10,496.71,499.48,502.94,507.37,511.85,516.99,521.05,523.83,526.43,528.93,532.33,536.09,539.16,540.42,540.75,540.82,540.84,541.01,542.42,544.41,546.63,549.00,551.63,554.61,557.66,560.49,562.86,565.17,567.50,569.88,572.34,574.18,575.99,577.74,579.29,581.36,583.78,586.61,589.39,590.53,590.99,591.13,591.09,590.88,590.36,587.28,582.90,578.54,575.18,572.15,568.98,565.75,563.08,560.44,557.57,554.47,551.35,549.01,547.20,545.40,543.40,541.37,538.86,536.22,533.55,530.75,527.66,524.37,521.30,518.90,517.25,515.66,514.90,515.26,516.58,518.03,519.68,521.41,522.88,523.43,522.14,518.93,514.16,510.14,510.38,512.48,514.35,513.58,511.64,510.78,512.10,516.09,520.25,524.22,528.23,532.43,536.74,539.73,541.48,542.13,541.55,540.40,538.20,535.66,533.18,530.77,529.30,530.14,533.49,538.81,541.91,544.15,546.08,547.61,548.01,548.21,548.21,548.00,547.81,547.91,548.36,548.82,548.84,548.70,548.19,547.28,546.03,544.99,544.27
462.44,462.41,459.00,453.63,448.45,444.80,441.94,439.03,435.31,431.16,428.61,427.85,427.25,426.92,427.62,429.31,431.57,432.80,432.98,433.06,433.72,435.38,438.06,441.05,444.05,447.03,450.46,454.76,459.30,463.46,467.02,469.41,470.98,472.06,473.11,473.70,474.12,474.43,474.58,474.51,473.89,473.11,472.40,471.88,471.37,470.46,469.90,471.55,473.98,476.37,478.51,480.56,483.29,486.40,489.37,492.01,494.39,496.88,498.96,500.34,500.80,501.22,501.43,501.35,500.98,500.67,500.22,499.33,497.86,495.64,493.30,491.10,489.26,487.93,486.63,485.63,484.83,484.12,483.37,482.61,481.73,480.63,478.78,474.48,469.62,464.48,459.30,455.22,451.27,446.87,443.23,443.50,445.46,447.05,447.86,447.72,446.32,443.80,441.21,439.14,438.11,437.87,438.45,439.80,442.13,445.98,449.32,451.91,453.89,455.93,457.92,459.84,461.74,463.63,465.53,467.43,469.57,472.35,475.87,479.03,481.53,483.40,485.25,487.13,489.09,491.28,493.95,496.65,499.64,503.19,507.43,511.69,516.29,520.17,523.19,525.89,528.51,532.18,536.34,539.86,541.47,542.26,542.67,542.87,543.25,544.55,546.53,548.91,551.46,554.18,557.07,559.94,562.59,564.91,567.22,569.60,572.07,574.60,576.59,578.22,579.79,581.59,583.59,586.03,588.49,590.47,591.20,591.45,591.57,591.58,591.36,591.00,588.38,584.23,579.63,576.33,573.21,570.10,567.11,564.55,561.98,559.36,556.50,553.21,550.37,548.26,546.22,543.95,541.60,539.07,536.48,533.88,531.16,528.00,524.54,521.36,518.98,517.34,515.68,514.30,513.55,513.83,514.98,516.80,518.89,520.81,521.82,520.87,517.84,513.15,509.47,509.65,511.57,513.28,512.50,510.47,509.89,511.50,515.42,519.49,523.81,528.36,532.99,537.21,539.83,541.04,541.09,540.00,538.32,535.97,533.41,530.93,528.65,527.74,529.14,532.63,537.19,539.97,541.73,542.99,543.85,544.04,544.03,543.85,543.53,543.30,543.08,543.18,543.40,543.39,543.37,543.27,542.94,542.48,542.69,543.68
