382.92,383.07,383.22,383.38,383.53,383.77,384.12,384.58,385.04,385.51,385.99,386.50,386.99,387.46,387.92,388.35,388.68,389.05,389.34,389.73,390.33,391.12,391.69,392.01,392.29,392.83,393.58,394.16,394.59,394.98,395.50,397.90,401.21,405.03,409.31,411.34,412.46,413.32,414.17,415.21,416.32,417.32,418.13,418.83,420.40,421.54,422.04,422.36,422.54,423.88,425.95,428.23,430.31,431.65,433.10,434.95,436.85,438.55,439.03,438.34,436.70,434.16,429.77,423.98,417.24,410.80,405.13,400.29,396.66,395.36,395.76,397.37,400.27,404.91,410.75,417.21,423.97,429.78,431.72,433.44,434.43,434.69,434.43,434.25,434.83,436.27,438.37,439.95,442.08,444.36,446.56,448.62,450.28,452.13,453.85,455.04,456.23,457.61,459.06,460.55,462.05,463.33,464.20,464.82,465.50,466.64,467.99,469.25,470.34,471.60,472.85,474.06,475.49,477.53,478.88,480.22,481.62,483.05,484.76,486.59,488.78,491.45,494.32,497.18,500.35,504.28,509.33,512.99,516.24,519.92,524.51,529.73,533.43,536.57,539.39,541.50,543.33,545.12,546.91,548.72,550.54,552.59,554.77,556.96,558.92,560.10,560.92,561.57,562.05,562.43,563.04,563.92,565.00,565.85,566.84,567.61,568.10,568.54,568.82,568.78,568.56,568.25,567.74,566.86,565.92,565.02,563.87,562.54,560.96,559.10,557.01,555.67,554.72,553.65,552.08,549.91,547.93,546.24,545.08,545.12,546.22,548.23,551.24,555.48,559.44,562.94,566.18,569.05,571.00,573.06,575.17,577.38,579.68,581.30,582.63,583.75,584.49,584.63,584.45,584.24,584.00,583.52,583.29,585.20,588.30,591.05,593.51,595.97,598.44,600.83,602.88,604.52,606.07,607.67,609.35,611.31,613.99,616.83,619.28,621.45,623.81,626.29,628.88,631.70,634.87,638.15,641.25,643.87,646.11,648.12,650.15,652.36,654.73,657.05,659.51,662.24,665.28,668.15,670.73,673.10,675.33,677.47,679.96,682.79,685.85,688.73,691.47,693.94,696.17,698.25,700.55,703.37,706.63,710.24,713.91,716.88
383.04,383.19,383.35,383.50,383.66,383.86,384.18,384.64,385.11,385.58,386.05,386.54,387.06,387.55,388.01,388.47,388.93,389.43,389.88,390.56,391.71,393.37,394.60,395.43,396.18,397.42,399.01,400.29,401.21,401.93,402.90,404.88,407.51,410.19,411.82,412.81,413.71,414.59,415.42,416.44,417.53,418.51,419.32,420.09,421.49,422.61,423.32,423.99,424.44,425.94,427.91,429.69,431.36,432.83,434.41,436.10,437.49,438.89,440.20,441.00,440.60,439.39,436.13,431.01,424.19,416.51,409.65,403.88,399.66,398.13,397.63,398.17,400.28,404.71,410.42,416.82,423.50,429.35,431.75,433.70,435.31,436.26,436.11,435.95,435.73,436.27,437.87,439.12,440.84,442.88,445.09,447.24,448.94,450.65,452.24,453.53,454.97,456.60,458.36,460.20,461.88,463.63,465.29,466.74,467.77,468.91,470.22,471.46,472.69,474.60,476.54,478.25,479.89,481.86,483.45,484.76,485.95,487.18,488.53,489.92,491.60,493.78,496.48,499.31,502.84,506.96,511.17,514.46,517.70,521.35,525.61,530.03,533.58,536.75,539.56,541.53,543.27,544.97,546.65,548.30,550.08,552.07,554.13,556.10,557.87,559.31,560.24,560.78,561.14,561.42,561.86,562.68,563.97,565.32,567.05,568.23,568.76,569.25,569.72,570.27,570.57,570.22,569.54,568.61,567.56,566.41,565.16,563.74,562.17,560.56,559.12,558.14,557.05,555.69,553.90,551.48,549.31,547.75,547.00,547.13,547.08,548.32,550.97,554.72,558.09,561.27,564.35,567.30,570.01,572.25,574.37,576.60,579.09,580.90,582.50,584.15,585.71,586.44,586.79,587.02,587.03,586.37,585.57,586.23,588.06,590.37,592.88,595.54,598.37,601.31,604.06,606.22,608.02,609.59,610.96,612.62,615.43,618.41,620.56,622.25,624.27,626.53,629.03,631.97,635.31,638.63,641.83,644.81,647.25,649.47,651.75,654.17,656.58,659.04,661.93,665.15,668.30,671.34,674.26,676.98,679.38,681.54,683.64,686.04,688.70,691.12,693.54,695.96,698.35,700.83,703.97,707.68,711.66,715.71,719.56,722.15
383.21,383.37,383.51,383.67,383.82,384.00,384.27,384.71,385.21,385.72,386.23,386.75,387.28,387.80,388.28,388.75,389.31,390.14,391.34,392.71,394.25,396.13,397.92,399.72,401.49,403.12,404.91,405.98,406.56,407.03,407.77,409.06,410.66,412.31,413.53,414.38,415.20,415.92,416.47,417.31,418.10,418.80,419.42,420.05,421.36,422.62,423.68,424.71,425.55,426.91,428.47,429.86,431.38,432.75,434.48,436.53,438.21,439.54,440.92,442.17,442.67,441.86,439.83,436.83,432.30,424.76,416.46,409.18,403.84,401.54,400.60,400.19,401.26,405.06,410.16,416.38,422.83,428.46,431.42,433.76,435.86,437.39,437.69,437.60,437.45,437.66,438.38,439.06,440.36,442.10,444.10,446.15,447.73,449.25,450.77,452.27,453.95,455.68,457.51,459.38,461.00,462.74,464.65,466.64,468.53,470.16,471.78,473.34,474.90,476.86,478.97,481.09,483.17,485.14,487.18,488.40,489.17,490.00,490.88,492.09,493.79,496.06,498.70,501.52,504.92,508.69,512.26,515.38,518.56,521.99,525.80,529.83,533.18,536.20,538.91,540.95,542.68,544.27,545.84,547.45,549.20,551.11,553.04,554.90,556.54,558.02,558.91,559.43,560.03,560.39,560.71,561.34,562.63,564.66,567.06,568.59,569.19,569.84,570.56,571.33,571.78,571.46,570.87,569.99,568.94,567.73,566.33,564.83,563.44,562.23,561.22,560.27,559.22,557.75,555.61,553.19,550.98,549.74,549.50,549.61,549.03,549.28,550.61,553.00,555.97,558.85,561.66,564.57,567.76,570.63,573.11,575.41,577.91,580.13,581.93,583.68,585.59,587.37,588.52,589.39,589.85,589.19,588.34,588.06,588.48,589.75,592.17,595.04,597.97,600.93,604.25,607.24,609.57,611.34,612.89,614.41,617.05,619.85,621.87,623.51,625.26,627.19,629.47,632.49,635.73,639.03,642.32,645.57,648.37,650.88,653.31,655.75,658.26,661.25,664.53,667.90,671.11,674.30,677.30,680.05,682.56,684.97,687.18,689.30,691.36,693.34,695.65,698.12,700.79,703.89,707.53,711.46,715.53,719.59,723.37,726.22
383.37,383.52,383.68,383.83,383.99,384.14,384.38,384.80,385.35,385.92,386.49,387.05,387.59,388.14,388.65,389.22,390.07,391.33,393.15,395.10,397.00,399.06,401.33,403.83,406.22,407.82,409.44,410.23,410.54,410.79,411.25,411.90,412.63,413.45,414.47,415.21,415.90,416.49,416.90,417.66,418.26,418.78,419.29,419.82,421.03,422.36,423.62,424.83,425.95,427.20,428.44,429.59,430.98,432.35,434.25,436.65,438.73,440.19,441.63,443.11,444.25,443.90,442.88,441.57,439.12,432.84,424.19,415.59,408.62,405.20,403.78,402.63,402.75,405.60,409.92,415.78,421.95,427.43,431.01,433.76,436.28,438.32,439.14,439.20,439.21,439.25,439.28,439.52,440.46,441.83,443.44,445.17,446.66,448.08,449.54,451.13,452.94,454.75,456.62,458.46,460.02,461.66,463.70,466.12,468.72,470.81,472.73,474.61,476.47,478.45,480.71,483.19,485.68,487.77,490.04,491.21,491.75,492.31,492.88,494.06,495.82,498.10,500.66,503.43,506.58,509.89,512.99,516.00,519.10,522.34,525.78,529.42,532.53,535.37,537.97,540.12,541.85,543.39,544.90,546.51,548.26,550.07,551.87,553.62,555.16,556.44,557.15,557.57,558.29,558.78,559.18,559.94,561.51,564.05,566.92,568.78,569.58,570.40,571.32,572.22,572.78,572.63,572.11,571.24,570.18,568.95,567.47,566.04,564.90,564.04,563.25,562.27,561.23,559.73,557.43,555.09,553.04,552.16,552.37,552.42,551.64,551.15,551.30,552.37,554.63,556.80,559.08,561.76,565.04,568.42,571.37,573.94,576.50,579.11,581.16,583.06,585.26,587.81,589.73,591.32,592.39,592.06,591.39,590.49,589.79,590.00,591.89,594.62,597.50,600.48,604.23,607.93,610.77,612.83,614.62,616.18,618.60,621.16,623.12,624.80,626.38,628.07,630.10,632.95,636.03,639.27,642.67,646.22,649.44,652.22,654.77,657.26,659.96,663.38,666.95,670.40,673.70,677.04,680.07,682.82,685.38,687.97,690.32,692.27,693.88,695.54,697.82,700.38,703.29,706.88,710.79,714.70,718.71,722.80,726.62,729.83
383.48,383.64,383.79,383.95,384.10,384.26,384.50,384.93,385.56,386.22,386.88,387.51,388.06,388.65,389.20,390.05,391.63,393.47,395.43,397.52,399.76,402.22,404.78,407.19,409.05,409.80,410.63,411.32,411.82,412.15,412.46,412.69,413.00,413.44,413.90,414.28,414.68,415.21,415.99,416.92,417.69,418.39,419.07,419.68,420.73,421.88,422.96,423.89,425.04,426.32,427.59,428.79,430.03,431.67,433.80,436.32,438.76,440.74,442.47,444.06,445.38,445.99,445.42,444.24,442.54,439.55,433.20,423.96,414.35,409.24,407.04,405.57,405.02,406.42,409.69,414.82,420.63,426.25,430.54,433.69,436.53,438.96,440.34,440.70,440.74,440.70,440.74,440.92,441.61,442.47,443.37,444.38,445.85,447.38,448.80,450.15,451.89,453.76,455.68,457.51,459.02,460.59,462.72,465.35,468.13,470.44,472.53,474.58,476.66,478.78,481.31,484.06,486.83,489.29,491.18,492.44,493.31,493.96,494.56,495.97,497.69,499.60,501.98,504.61,507.38,510.25,513.18,516.13,519.15,522.32,525.62,528.72,531.53,534.18,536.70,538.88,540.70,542.31,543.88,545.56,547.32,549.03,550.68,552.28,553.77,554.39,554.59,554.73,555.19,555.79,556.77,558.44,560.96,563.63,566.51,568.66,569.95,570.91,571.89,572.87,573.65,573.91,573.31,572.32,571.16,569.92,568.63,567.56,566.78,566.10,565.15,564.06,562.93,561.50,559.53,557.36,555.87,555.44,555.81,555.87,555.38,554.80,554.45,554.63,555.36,555.93,557.08,559.17,561.69,565.13,568.68,571.96,574.78,577.63,580.09,582.43,584.93,587.49,589.98,592.37,594.32,595.06,594.88,594.00,592.88,592.23,592.63,594.39,596.97,600.19,604.05,608.10,611.34,613.75,615.75,617.69,619.94,622.23,624.25,626.02,627.65,629.29,631.06,633.20,636.02,639.18,642.69,646.70,650.41,653.33,655.96,658.67,661.75,665.26,668.88,672.44,675.91,679.31,682.38,685.17,687.71,690.22,692.62,694.60,696.16,697.78,700.13,702.78,705.81,709.53,713.30,716.88,720.74,725.09,729.25,732.82
383.64,383.79,383.94,384.10,384.25,384.41,384.62,384.99,385.65,386.35,387.03,387.68,388.28,388.92,389.60,390.71,392.71,394.81,396.84,398.99,401.30,403.63,406.25,408.58,410.20,410.62,411.02,411.42,411.71,411.78,411.81,411.77,411.92,412.30,412.74,413.07,413.53,414.20,415.16,416.13,416.98,417.76,418.48,419.13,420.12,421.15,422.11,422.97,424.15,425.42,426.69,427.93,429.17,430.96,433.26,435.92,438.44,440.63,442.51,444.32,446.22,447.50,447.62,447.05,446.05,444.61,439.96,431.94,422.34,415.01,411.39,409.14,407.77,407.79,409.74,414.20,419.49,424.77,429.63,433.46,436.87,439.68,441.21,441.95,442.12,442.13,442.22,442.51,443.14,443.82,444.44,445.00,446.00,447.07,448.21,449.51,451.09,452.88,454.75,456.54,458.03,459.56,461.64,464.23,467.07,469.54,471.72,473.82,475.97,478.14,480.72,483.60,486.63,489.44,491.17,492.50,493.65,494.64,495.62,497.09,498.67,500.35,502.68,505.19,507.71,510.31,513.09,515.96,518.86,521.86,524.95,527.73,530.34,532.84,535.22,537.36,539.31,541.11,542.84,544.54,546.26,547.87,549.39,550.77,551.83,552.12,552.08,552.04,552.45,553.75,555.87,558.59,561.66,564.40,567.07,569.13,570.49,571.50,572.50,573.51,574.44,575.03,574.60,573.66,572.60,571.49,570.41,569.58,568.84,568.02,566.91,565.76,564.61,563.25,561.47,559.59,558.58,558.50,558.96,559.03,558.76,558.25,557.72,557.41,557.30,557.08,557.39,558.51,559.98,562.77,566.30,569.88,572.62,575.54,578.38,581.13,583.88,586.84,589.96,593.00,595.70,597.50,597.91,597.28,596.12,594.95,594.63,595.43,597.17,599.96,603.95,608.16,611.58,614.18,616.47,618.68,620.92,623.15,625.28,627.23,628.91,630.52,632.16,633.94,636.40,639.41,643.12,647.67,651.35,654.25,656.94,659.78,663.08,666.61,670.27,674.00,677.69,681.16,684.32,687.24,689.97,692.46,694.88,696.92,698.57,700.31,702.66,705.29,708.25,711.76,715.29,718.82,722.71,727.11,731.47,735.41
383.81,383.96,384.12,384.27,384.43,384.58,384.74,385.01,385.65,386.34,387.00,387.65,388.32,389.00,389.85,391.16,393.31,395.47,397.52,399.66,401.87,403.72,406.22,408.50,410.08,410.55,410.78,410.78,410.57,410.17,409.88,409.73,409.88,410.41,411.18,411.71,412.47,413.41,414.38,415.30,416.16,416.94,417.63,418.27,419.25,420.23,421.13,422.10,423.30,424.56,425.81,427.09,428.46,430.30,432.70,435.46,437.86,440.06,442.01,444.13,446.83,448.57,449.55,449.88,449.52,448.41,445.06,439.45,431.63,422.03,416.63,413.27,410.96,409.74,410.20,413.89,418.45,423.10,428.39,433.04,437.19,440.38,441.84,442.98,443.39,443.53,443.75,444.23,444.94,445.66,446.27,446.61,446.86,447.17,447.87,449.19,450.53,452.14,453.86,455.55,457.04,458.57,460.48,462.86,465.67,468.24,470.45,472.54,474.64,476.83,479.31,482.20,485.43,488.58,490.36,491.77,493.18,494.65,496.16,497.61,499.01,500.58,502.91,505.31,507.68,510.11,512.76,515.54,518.28,521.08,523.92,526.52,529.02,531.38,533.59,535.63,537.75,539.83,541.75,543.44,545.07,546.58,548.00,549.13,549.53,549.72,549.67,549.61,550.19,552.54,556.10,559.88,563.25,566.01,568.32,570.01,571.16,572.17,573.18,574.18,575.19,576.04,575.91,575.23,574.36,573.47,572.63,571.95,571.06,569.92,568.62,567.42,566.29,564.96,563.30,561.78,561.21,561.37,561.88,562.01,561.89,561.52,561.02,560.52,560.05,559.60,559.31,559.27,559.57,561.24,564.27,567.75,570.20,573.10,576.25,579.35,582.36,585.95,589.69,593.27,596.59,599.42,600.49,600.36,599.44,598.05,597.58,597.43,597.97,599.88,603.93,608.16,611.58,614.27,616.88,619.31,621.65,623.97,626.25,628.44,630.16,631.75,633.38,635.05,637.06,639.90,643.88,648.95,652.26,655.04,657.77,660.67,664.07,667.54,671.27,675.21,679.13,682.69,685.97,689.12,692.12,694.67,697.11,699.26,701.12,703.04,705.33,707.85,710.60,713.69,716.89,720.59,724.63,728.93,733.37,737.64
383.94,384.09,384.25,384.40,384.55,384.71,384.86,385.10,385.67,386.32,386.97,387.64,388.33,388.99,389.69,390.70,392.41,394.58,396.63,398.73,400.85,402.40,404.69,406.90,408.60,409.43,409.66,409.33,408.61,407.81,407.84,407.91,408.16,408.78,409.92,410.90,411.84,412.74,413.56,414.26,415.00,415.73,416.37,417.01,418.00,419.02,420.07,421.37,422.75,424.18,425.63,427.10,428.54,430.32,432.46,434.83,437.06,439.20,441.46,444.02,447.00,449.30,451.00,451.92,451.84,450.89,448.69,444.65,438.44,429.85,423.26,418.59,415.40,413.65,412.85,414.41,417.41,421.53,426.74,431.82,436.62,440.37,441.98,443.44,444.44,445.07,445.48,445.99,446.67,447.43,448.10,448.42,448.47,448.54,448.90,449.76,450.76,452.03,453.33,454.63,456.13,457.66,459.38,461.45,464.09,466.62,468.83,470.91,473.00,475.27,477.73,480.53,483.66,486.86,489.36,491.21,492.78,494.41,496.00,497.46,498.86,500.41,502.68,504.92,507.16,509.47,512.00,514.67,517.35,520.02,522.69,525.20,527.53,529.70,531.75,533.75,536.02,538.32,540.40,542.02,543.47,544.87,546.16,547.14,547.35,547.57,548.11,548.98,550.33,553.46,557.52,561.61,565.17,567.99,569.80,571.07,572.10,573.10,574.11,575.11,576.12,576.99,577.22,577.01,576.42,575.59,575.12,574.60,573.74,572.48,570.85,569.27,567.98,566.66,565.14,563.92,563.67,564.01,564.54,564.76,564.74,564.43,563.91,563.31,562.80,562.20,561.68,561.37,561.38,562.02,563.57,565.83,568.35,570.95,574.12,577.52,580.96,584.81,588.72,592.53,596.21,599.64,601.57,602.65,602.80,601.71,601.37,600.50,600.01,600.92,604.11,608.16,611.61,614.40,617.17,619.83,622.36,624.81,627.20,629.52,631.37,633.03,634.65,636.25,638.01,641.04,645.25,650.00,653.08,655.78,658.50,661.38,664.66,668.04,671.88,676.08,680.13,683.83,687.40,690.79,693.86,696.69,699.42,701.90,704.04,705.92,707.99,710.17,712.54,715.32,718.44,722.21,726.31,730.56,734.97,739.10
384.07,384.22,384.38,384.53,384.68,384.84,384.99,385.20,385.68,386.28,386.94,387.63,388.32,388.92,389.43,390.05,391.20,393.11,394.98,396.96,399.00,400.43,402.50,404.52,406.20,407.24,407.49,407.07,406.20,405.29,405.74,406.11,406.50,407.20,408.58,409.99,411.10,411.94,412.57,413.06,413.68,414.36,415.02,415.78,416.92,418.13,419.39,420.93,422.45,424.02,425.66,427.31,428.81,430.52,432.40,434.40,436.49,438.57,441.10,444.00,447.05,449.75,452.00,453.47,453.81,453.06,451.81,448.96,444.18,437.40,430.36,424.50,420.38,418.23,416.33,415.77,417.01,420.27,425.22,430.51,435.80,440.07,441.93,443.71,445.30,446.48,447.11,447.64,448.31,449.07,449.79,450.16,450.25,450.26,450.38,450.80,451.54,452.48,453.38,454.31,455.70,457.09,458.51,460.23,462.62,465.05,467.24,469.30,471.41,473.84,476.38,479.15,482.18,485.37,488.59,490.81,492.47,494.12,495.66,497.13,498.53,500.06,502.18,504.27,506.39,508.60,510.99,513.53,516.16,518.79,521.36,523.80,525.96,527.97,529.90,531.88,534.24,536.69,538.90,540.53,541.87,543.13,544.35,545.38,545.78,546.25,547.49,549.32,551.53,555.22,559.41,563.52,567.14,569.84,571.20,572.15,573.11,574.10,575.10,576.10,577.08,577.92,578.44,578.71,578.46,577.79,577.65,577.30,576.52,575.22,573.30,571.38,569.86,568.46,567.07,566.06,566.10,566.58,567.13,567.43,567.48,567.19,566.67,566.01,565.45,564.72,564.11,563.80,563.76,563.61,563.73,564.61,566.89,569.11,572.12,575.71,579.64,583.68,587.59,591.45,595.29,599.06,601.78,604.15,605.63,605.37,605.33,604.12,602.98,603.07,605.11,608.55,611.81,614.63,617.48,620.31,623.01,625.59,628.06,630.46,632.49,634.29,635.93,637.50,639.37,642.70,646.98,651.02,653.88,656.50,659.21,662.09,665.23,668.52,672.43,676.78,680.91,684.75,688.59,692.25,695.49,698.64,701.72,704.55,706.95,708.72,710.48,712.33,714.37,716.91,720.04,723.86,727.92,732.02,736.27,740.18
384.26,384.39,384.55,384.70,384.86,385.01,385.17,385.35,385.67,386.26,386.94,387.62,388.25,388.74,389.14,389.55,390.13,390.91,392.00,393.58,395.63,397.39,399.28,400.76,401.72,402.23,402.43,402.72,402.89,402.90,403.51,404.13,404.77,405.56,406.77,408.26,409.62,410.62,411.09,411.50,412.08,412.78,413.65,414.92,416.76,418.56,420.08,421.34,422.71,424.25,425.88,427.50,429.04,430.79,432.72,434.77,436.86,438.94,441.42,444.20,447.01,449.59,451.88,453.98,455.53,455.31,454.40,452.10,448.34,443.38,437.88,431.49,426.13,423.43,420.84,419.27,418.80,420.04,424.44,429.55,434.87,439.35,441.69,443.79,445.78,447.30,448.16,448.90,449.65,450.36,451.00,451.50,451.96,452.13,452.27,452.74,453.48,454.35,455.19,455.99,456.86,457.54,458.40,459.67,461.64,463.85,465.99,468.09,470.32,473.05,475.97,479.00,482.13,485.41,488.70,490.85,492.35,493.88,495.38,496.74,498.03,499.41,501.16,503.14,505.18,507.28,509.48,511.81,514.43,517.17,519.86,522.19,524.29,526.27,528.20,530.16,532.41,534.83,537.14,539.06,540.62,541.71,542.97,544.63,546.20,547.63,549.38,551.60,554.40,558.14,561.94,565.68,569.05,570.91,572.15,573.18,574.15,575.10,576.06,577.07,578.04,578.77,579.36,579.91,580.19,580.15,580.12,579.96,579.30,578.03,576.10,574.17,572.31,570.62,569.24,568.27,568.54,569.14,569.66,570.00,570.07,569.81,569.33,568.65,567.78,566.87,566.32,566.29,566.28,566.05,565.76,565.68,566.33,568.09,570.62,574.07,578.55,582.80,586.52,590.03,593.52,597.10,600.23,603.54,606.63,608.60,609.17,608.72,608.19,608.11,608.73,610.27,612.48,615.14,617.99,620.75,623.46,626.11,628.66,631.11,633.36,635.40,637.21,638.89,641.82,645.65,649.43,652.17,654.64,657.17,659.93,662.94,666.00,669.27,673.04,677.20,681.34,685.18,689.12,693.14,697.05,700.56,703.89,706.96,709.49,711.04,712.43,714.15,716.18,718.56,721.93,725.72,729.47,733.08,736.83,740.66
384.57,384.66,384.78,384.91,385.02,385.16,385.31,385.48,385.69,386.26,386.94,387.59,388.10,388.49,388.83,389.15,389.42,389.59,390.12,391.18,392.71,394.13,395.75,397.06,397.88,398.10,398.39,399.10,399.93,400.67,401.58,402.30,402.89,403.53,404.49,405.90,407.39,408.65,409.36,409.79,410.45,411.37,412.61,414.45,416.80,418.96,420.67,421.79,423.05,424.49,426.00,427.51,428.98,430.63,432.47,434.41,436.33,438.62,441.17,443.84,446.42,448.81,451.36,454.18,456.78,457.39,456.95,455.06,451.89,448.00,443.56,437.74,432.33,428.97,425.86,423.55,421.89,421.53,424.28,428.79,434.01,438.73,441.63,444.01,446.22,447.94,449.00,449.88,450.71,451.44,452.09,452.70,453.33,453.74,454.06,454.52,455.34,456.25,457.08,457.78,458.28,458.51,458.95,459.80,461.27,463.33,465.40,467.46,469.73,472.63,475.78,478.96,482.13,485.35,488.57,490.64,492.03,493.37,494.75,496.02,497.26,498.56,500.04,501.86,503.80,505.83,507.96,510.09,512.57,515.32,518.18,520.66,522.79,524.77,526.70,528.67,530.71,532.96,535.26,537.41,539.33,540.90,542.75,545.08,547.39,549.46,551.67,554.18,557.20,560.67,564.05,567.32,570.24,571.69,572.94,574.08,575.13,576.09,577.03,578.04,579.02,579.84,580.59,581.38,582.04,582.43,582.47,582.52,582.02,580.85,579.01,576.89,574.79,572.94,571.53,570.58,570.87,571.46,571.97,572.33,572.47,572.28,571.86,571.25,570.17,569.13,568.69,568.92,568.94,568.70,568.16,567.46,567.03,567.95,569.68,572.75,577.50,581.89,585.34,588.47,591.62,595.05,598.67,602.78,606.94,610.23,611.38,611.84,611.99,611.92,611.89,612.41,613.78,615.87,618.39,621.07,623.78,626.49,629.14,631.71,634.12,636.36,638.52,640.95,644.67,648.42,651.50,653.54,655.72,658.22,661.07,664.19,667.22,670.39,673.92,677.77,681.77,685.63,689.65,693.94,698.43,702.27,705.79,708.93,711.46,712.94,714.29,715.96,718.15,721.14,724.67,728.16,731.47,734.65,737.95,741.49
385.00,385.02,385.06,385.14,385.17,385.28,385.43,385.59,385.76,386.28,386.94,387.54,387.84,388.15,388.51,388.84,389.07,389.24,389.51,389.90,390.36,390.75,391.96,393.53,394.83,395.04,395.59,396.37,397.36,398.59,399.98,400.59,400.84,401.06,401.72,402.89,404.40,406.01,407.38,407.91,408.81,410.14,411.95,414.38,417.00,419.29,421.07,422.23,423.46,424.73,426.01,427.30,428.58,429.99,431.55,433.19,434.80,437.48,440.25,442.83,445.23,447.40,450.46,454.07,457.51,459.25,459.44,457.87,454.88,451.23,447.25,443.11,438.92,434.84,431.38,428.55,426.31,424.83,424.79,428.23,433.25,438.24,441.78,444.38,446.63,448.43,449.64,450.58,451.48,452.31,453.06,453.78,454.32,455.04,455.70,456.09,457.06,458.09,458.99,459.61,459.89,459.97,460.20,460.67,461.54,463.51,465.47,467.42,469.62,472.56,475.79,478.99,482.07,485.12,488.11,490.13,491.45,492.55,493.74,494.96,496.23,497.53,498.83,500.43,502.25,504.27,506.45,508.40,510.59,513.23,516.31,519.21,521.47,523.47,525.42,527.39,529.15,531.13,533.31,535.57,537.98,540.76,543.77,546.77,549.30,551.66,554.23,557.00,559.82,562.73,565.63,568.35,570.67,572.19,573.57,574.85,576.02,577.08,578.03,579.01,580.05,581.14,582.17,583.19,584.06,584.60,584.70,584.98,584.67,583.68,582.03,579.53,577.29,575.43,573.94,572.99,573.06,573.51,574.01,574.40,574.69,574.60,574.27,573.79,572.61,571.53,571.22,571.68,571.75,571.52,570.86,569.92,569.06,568.74,569.38,571.80,576.47,580.91,584.05,586.77,589.62,593.03,597.18,601.92,606.58,610.14,611.84,613.27,614.14,614.27,614.42,614.95,615.72,616.81,618.69,621.25,623.99,626.75,629.51,632.25,634.78,637.19,639.87,643.73,647.87,650.93,653.15,655.15,657.14,659.68,662.66,665.89,668.92,671.91,675.09,678.53,682.25,686.14,690.22,694.71,699.60,703.73,707.38,710.47,712.85,714.42,716.09,717.78,720.33,724.73,728.30,731.23,733.98,736.80,739.73,742.76
385.46,385.46,385.48,385.51,385.56,385.62,385.70,385.80,385.92,386.34,386.82,387.23,387.51,387.84,388.19,388.50,388.73,388.92,389.14,389.39,389.62,389.74,390.38,391.34,392.17,392.34,392.89,393.64,394.62,395.88,397.22,397.95,398.23,398.40,399.12,400.41,401.97,403.60,405.07,406.07,407.56,409.44,411.62,414.11,416.61,418.84,420.59,421.59,422.70,423.74,424.74,425.81,427.09,428.14,429.41,431.07,432.92,435.57,438.31,440.91,443.35,445.63,448.75,452.65,456.87,459.65,460.41,459.51,457.27,453.84,450.25,446.83,443.30,439.51,436.32,433.35,430.71,428.56,427.24,428.67,432.81,437.95,441.77,444.56,446.94,448.87,450.22,451.15,452.07,452.95,453.81,454.66,455.34,456.08,456.82,457.53,458.54,459.45,460.23,460.80,461.08,461.21,461.42,461.74,462.32,463.83,465.60,467.46,469.54,472.38,475.48,478.52,481.40,484.07,486.75,488.78,490.29,491.52,492.69,493.91,495.16,496.43,497.65,499.10,500.80,502.74,504.94,506.91,509.00,511.48,514.46,517.51,520.04,522.20,524.18,526.17,527.97,529.89,532.18,535.05,538.07,541.42,544.91,548.24,550.83,553.25,555.81,558.47,561.07,563.62,566.20,568.71,570.93,572.63,574.10,575.45,576.71,577.92,579.01,580.15,581.36,582.61,583.78,584.87,585.88,586.65,586.95,587.40,587.38,586.73,585.28,582.77,580.23,578.03,576.40,575.39,575.27,575.59,576.08,576.50,576.85,576.92,576.76,576.33,575.22,574.27,574.11,574.76,574.96,574.97,574.50,573.56,572.27,571.29,571.10,572.38,575.68,579.69,582.66,585.29,588.12,591.70,596.05,600.64,605.09,608.81,610.92,612.75,614.27,615.40,616.50,617.36,617.99,618.65,619.85,621.81,624.12,626.67,629.47,632.54,635.61,638.65,641.97,646.35,650.07,652.79,654.92,656.90,658.96,661.59,664.73,668.14,671.05,673.83,676.68,679.77,683.39,687.22,691.42,696.01,700.86,705.12,708.80,712.05,714.73,716.54,718.49,720.93,724.25,728.75,732.06,734.78,737.50,740.32,742.63,744.95
385.94,385.94,385.94,385.94,386.01,386.04,386.05,386.07,386.14,386.45,386.73,386.93,387.22,387.55,387.87,388.15,388.39,388.63,388.85,389.11,389.37,389.47,389.61,389.81,390.01,390.14,390.58,391.22,392.06,393.13,394.19,394.98,395.41,395.73,396.64,398.15,399.79,401.38,402.81,404.23,406.30,408.69,411.17,413.59,415.87,417.96,419.65,420.50,421.47,422.29,423.05,423.90,425.14,425.84,426.84,428.55,430.75,433.26,435.92,438.61,441.20,443.75,446.85,450.95,455.84,459.60,460.84,460.66,459.28,456.19,452.94,449.90,446.84,443.64,440.85,437.89,435.04,432.50,430.49,429.86,432.89,437.87,441.78,444.72,447.23,449.29,450.75,451.67,452.60,453.52,454.46,455.43,456.30,456.99,457.76,458.84,459.84,460.58,461.22,461.78,462.12,462.38,462.61,462.87,463.28,464.25,465.77,467.50,469.45,472.13,475.00,477.84,480.49,482.81,485.22,487.30,489.08,490.59,491.79,493.06,494.35,495.63,496.82,498.13,499.64,501.48,503.83,505.93,507.99,510.33,513.14,516.23,518.92,521.19,523.19,525.21,527.13,529.10,531.61,535.17,538.76,542.40,546.08,549.53,552.10,554.49,556.93,559.39,561.79,564.08,566.45,568.84,571.12,572.98,574.56,575.98,577.35,578.73,580.01,581.35,582.74,584.10,585.35,586.50,587.61,588.60,589.13,589.72,589.97,589.65,588.45,586.18,583.47,580.96,579.13,578.01,577.70,577.92,578.46,579.02,579.48,579.72,579.65,579.12,578.05,577.23,577.24,578.07,578.42,578.71,578.48,577.57,575.91,574.47,573.58,573.62,575.17,578.43,581.25,583.93,586.88,590.66,595.03,599.22,603.23,607.01,609.45,611.52,613.63,615.82,617.93,619.31,620.13,620.66,621.29,622.60,624.42,626.65,629.38,632.75,636.45,640.19,644.12,648.68,651.85,654.41,656.68,658.72,660.97,663.68,666.93,670.50,673.31,675.94,678.56,681.44,685.00,688.75,693.01,697.59,702.21,706.53,710.22,713.66,716.78,718.97,721.28,724.57,728.64,732.82,735.88,738.59,741.45,744.37,746.22,747.96
386.40,386.40,386.40,386.41,386.48,386.50,386.50,386.51,386.54,386.73,386.93,387.08,387.25,387.39,387.58,387.81,388.09,388.37,388.58,388.82,389.09,389.22,389.31,389.46,389.63,389.72,389.95,390.22,390.58,391.06,391.54,391.98,392.50,393.24,394.46,396.16,397.98,399.71,401.20,402.40,404.41,406.95,409.71,412.20,414.38,416.29,417.88,418.93,419.77,420.57,421.30,421.96,422.75,423.25,424.06,425.51,427.74,430.23,432.96,435.83,438.79,441.83,445.40,449.82,455.00,459.47,461.09,461.25,460.41,458.23,455.21,452.38,449.72,447.02,444.32,441.58,439.07,436.83,434.67,433.16,434.79,438.52,442.10,445.04,447.63,449.71,451.10,452.12,453.11,454.05,454.99,455.94,456.89,457.76,458.66,459.66,460.57,461.33,462.03,462.65,463.11,463.50,463.76,463.98,464.33,464.94,466.03,467.49,469.34,471.69,474.28,476.87,479.38,481.77,484.20,486.49,488.58,490.36,491.63,493.16,494.78,496.33,497.59,498.64,499.73,501.47,504.58,507.09,509.14,511.39,514.23,517.20,519.41,521.36,523.32,525.45,527.38,529.50,532.36,536.37,540.17,543.75,547.19,550.32,552.68,554.94,557.29,559.69,562.03,564.33,566.65,568.96,571.14,573.02,574.76,576.42,578.01,579.54,581.03,582.55,584.04,585.42,586.76,588.05,589.21,590.17,590.94,591.66,591.95,591.71,590.89,589.49,587.56,585.33,583.11,581.57,581.06,581.40,582.36,583.46,584.30,584.61,584.25,583.07,581.63,580.77,580.91,581.95,582.48,582.83,582.60,581.63,579.79,578.00,576.61,575.70,575.67,577.39,579.81,582.75,586.15,589.90,594.00,597.75,601.29,604.79,607.36,609.88,612.37,614.73,617.06,619.38,621.13,622.20,622.80,623.97,625.58,627.42,629.63,632.99,637.03,641.20,645.40,649.87,653.10,655.81,658.29,660.69,663.24,665.91,669.04,672.63,675.61,678.36,681.24,684.38,687.85,691.51,695.43,699.58,703.88,708.07,711.83,715.43,718.91,721.95,725.01,728.63,732.62,736.48,739.75,742.90,745.98,748.89,751.47,753.52
386.86,386.88,386.88,386.88,386.95,386.97,386.97,386.98,387.01,387.12,387.27,387.40,387.44,387.45,387.51,387.67,387.93,388.20,388.39,388.60,388.85,389.01,389.12,389.26,389.43,389.51,389.59,389.64,389.69,389.76,389.84,390.01,390.47,391.31,392.58,394.42,396.31,398.06,399.51,400.54,402.28,404.67,407.47,410.05,412.45,414.37,415.82,416.93,417.54,418.26,418.98,419.48,419.96,420.40,421.13,422.47,424.80,427.52,430.49,433.63,436.92,440.41,444.46,449.17,454.47,459.36,461.25,461.73,461.37,459.88,457.32,454.75,452.35,450.03,447.54,445.03,442.78,440.79,438.72,436.76,437.13,439.44,442.47,445.30,447.91,449.98,451.30,452.40,453.45,454.45,455.41,456.39,457.41,458.41,459.38,460.31,461.18,461.99,462.75,463.45,464.02,464.51,464.85,465.12,465.42,465.79,466.53,467.68,469.31,471.40,473.80,476.23,478.62,481.03,483.52,485.99,488.33,490.35,491.81,493.55,495.41,497.18,498.63,499.85,501.07,502.94,506.31,508.90,511.00,513.25,515.96,518.64,520.39,521.97,523.76,525.88,527.83,530.24,533.47,537.69,541.42,544.80,547.96,550.79,552.98,555.14,557.40,559.74,562.06,564.38,566.69,568.97,571.14,573.10,575.03,576.91,578.70,580.36,582.01,583.67,585.25,586.70,588.11,589.50,590.73,591.74,592.68,593.50,593.88,593.80,593.28,592.50,591.19,589.38,587.26,585.68,585.06,585.34,586.33,587.56,588.50,588.80,588.30,586.89,585.48,584.72,584.89,585.87,586.44,586.77,586.53,585.57,583.71,581.67,579.83,578.15,576.91,577.28,578.97,581.75,585.35,589.10,592.88,596.28,599.45,602.55,605.17,608.04,610.83,613.38,616.04,619.13,621.56,623.10,623.98,625.25,626.72,628.26,630.16,633.59,637.85,642.23,646.53,650.79,654.14,657.05,659.76,662.41,665.15,667.89,671.08,674.77,677.89,680.75,683.78,687.09,690.60,694.24,697.88,701.62,705.58,709.56,713.24,716.89,720.60,724.24,727.90,731.96,736.09,739.69,743.13,746.65,749.98,753.01,756.13,758.57
387.31,387.34,387.34,387.35,387.41,387.44,387.44,387.46,387.57,387.67,387.80,387.91,387.87,387.86,387.84,387.86,387.99,388.17,388.34,388.50,388.68,388.83,388.98,389.10,389.20,389.28,389.35,389.46,389.57,389.65,389.72,389.82,389.97,390.29,391.20,393.04,394.83,396.34,397.56,398.64,399.88,401.66,404.11,406.79,409.92,412.15,413.43,414.32,414.48,415.00,415.66,416.09,416.61,417.12,417.99,419.53,422.16,425.48,428.97,432.48,436.06,439.85,444.31,449.24,454.42,459.30,461.30,462.13,462.21,460.91,459.24,457.06,454.73,452.56,450.52,448.24,446.03,444.05,442.34,440.45,439.82,440.64,442.85,445.41,447.98,450.02,451.30,452.41,453.52,454.61,455.68,456.79,457.86,458.85,459.80,460.78,461.70,462.56,463.38,464.17,464.83,465.33,465.83,466.27,466.54,466.91,467.42,468.20,469.43,471.37,473.78,476.21,478.51,480.78,483.31,485.90,488.37,490.58,492.41,494.26,496.11,497.96,499.79,501.97,504.27,506.70,509.29,511.39,513.66,516.02,518.29,520.41,521.89,523.13,524.48,526.40,528.42,531.28,534.93,539.03,542.27,545.27,548.15,550.80,552.93,555.08,557.27,559.51,561.83,564.14,566.46,568.79,571.11,573.29,575.45,577.51,579.42,581.18,582.92,584.67,586.36,587.92,589.38,590.79,592.14,593.38,594.38,595.24,595.84,596.07,595.73,595.01,593.87,592.59,591.45,590.52,589.98,589.87,590.16,590.65,591.21,591.38,591.07,590.28,589.61,589.26,589.32,589.74,590.11,590.33,590.10,589.27,587.64,585.48,583.25,581.06,579.22,578.75,579.16,581.02,584.34,588.17,591.59,594.82,597.80,600.39,602.94,605.91,608.93,611.90,615.21,618.69,621.27,623.00,624.60,626.26,627.65,629.05,631.09,634.80,639.10,643.41,647.57,651.51,654.91,658.06,661.00,663.69,666.35,669.42,673.03,676.98,680.12,683.01,685.95,689.15,692.91,696.67,700.20,703.66,707.27,710.92,714.29,717.80,721.53,725.19,729.12,733.96,738.78,742.19,745.64,749.33,752.97,756.32,759.44,762.23
387.77,387.81,387.81,387.82,387.86,387.89,387.94,388.01,388.15,388.25,388.34,388.39,388.32,388.28,388.23,388.19,388.25,388.39,388.55,388.69,388.80,388.87,388.98,389.09,389.15,389.24,389.31,389.40,389.49,389.56,389.61,389.68,389.74,389.87,390.41,391.67,393.09,394.43,395.59,396.74,397.85,399.21,400.95,402.89,405.25,407.33,409.06,410.54,411.29,411.78,412.25,412.74,413.18,414.03,415.52,417.68,420.35,423.92,427.80,431.67,435.36,439.21,443.92,449.00,454.06,458.79,461.02,462.30,462.88,461.95,460.71,459.01,457.03,454.97,453.09,450.93,448.80,446.84,445.04,443.14,442.09,442.05,443.17,445.46,447.93,449.94,451.27,452.40,453.55,454.68,455.80,456.93,458.04,459.11,460.16,461.21,462.18,463.08,463.96,464.81,465.56,466.18,466.77,467.28,467.64,468.02,468.44,469.11,470.24,471.87,473.95,476.14,478.32,480.50,483.05,485.66,488.18,490.48,492.43,494.34,496.27,498.24,500.33,503.02,505.88,508.63,510.97,513.00,515.27,517.55,519.61,521.42,522.88,524.17,525.49,527.19,529.21,532.25,536.00,539.83,542.74,545.45,547.96,550.20,552.17,554.33,556.54,558.80,561.24,563.67,566.09,568.49,570.88,573.22,575.60,577.91,580.10,582.08,583.88,585.66,587.40,589.04,590.58,592.02,593.44,594.81,595.97,596.95,597.72,598.17,598.07,597.63,596.81,595.89,595.05,594.20,593.49,593.11,593.06,593.18,593.49,593.63,593.48,593.02,592.75,592.60,592.56,592.68,592.94,593.05,592.79,592.06,590.62,588.75,586.74,584.58,582.43,581.34,580.84,581.74,584.13,587.14,590.13,593.09,595.88,598.37,600.88,603.87,606.98,610.10,613.54,617.51,620.56,622.68,624.68,626.82,628.36,630.08,632.91,636.80,640.51,644.22,648.04,651.87,655.73,659.12,662.09,664.82,667.49,670.91,674.85,678.84,681.97,684.82,687.79,691.13,695.13,698.82,702.20,705.46,708.79,712.16,715.31,718.61,722.17,725.84,730.06,735.41,740.68,744.07,747.54,751.54,755.55,759.16,762.36,765.34
388.21,388.27,388.28,388.28,388.29,388.35,388.44,388.59,388.74,388.83,388.88,388.86,388.78,388.71,388.63,388.59,388.61,388.75,388.89,389.01,389.06,389.03,389.07,389.16,389.24,389.31,389.39,389.42,389.45,389.51,389.53,389.59,389.66,389.77,390.02,390.58,391.61,392.84,393.93,395.09,396.18,397.20,398.14,399.00,399.98,401.68,403.98,406.27,407.99,408.60,408.93,409.60,409.99,411.31,413.58,416.44,419.02,422.56,426.74,430.98,434.72,438.50,443.35,448.53,453.51,458.00,460.55,462.31,463.40,462.99,461.95,460.72,459.19,457.22,455.32,453.21,451.19,449.29,447.24,445.29,444.15,443.63,443.61,445.52,447.81,449.76,451.17,452.35,453.51,454.68,455.82,456.93,458.08,459.27,460.45,461.58,462.60,463.56,464.49,465.40,466.25,467.01,467.66,468.21,468.74,469.19,469.61,470.33,471.51,472.82,474.43,476.26,478.23,480.29,482.77,485.33,487.85,490.20,492.12,494.09,496.11,498.20,500.45,503.40,506.56,509.52,511.88,514.05,516.22,518.35,520.31,521.98,523.53,525.05,526.55,528.05,530.04,533.13,536.80,540.30,542.98,545.41,547.52,549.28,551.01,553.17,555.42,557.78,560.43,563.08,565.67,568.18,570.62,573.06,575.61,578.19,580.69,582.96,584.87,586.67,588.42,590.09,591.71,593.22,594.69,596.13,597.48,598.63,599.55,600.19,600.38,600.32,599.89,599.24,598.43,597.39,596.38,595.74,595.50,595.44,595.57,595.69,595.67,595.45,595.40,595.34,595.24,595.18,595.35,595.34,595.05,594.38,593.09,591.65,590.13,588.28,586.04,584.51,583.32,583.27,584.49,586.36,588.87,591.44,593.99,596.57,599.04,601.99,605.10,608.20,611.51,615.95,619.63,622.26,624.50,627.13,628.99,631.31,635.19,639.12,642.01,644.93,648.33,652.18,656.60,660.19,663.08,665.85,668.58,672.35,676.53,680.48,683.56,686.35,689.45,693.08,697.25,700.77,703.96,707.04,710.14,713.25,716.25,719.33,722.65,726.33,730.80,736.49,742.03,745.54,749.07,753.45,757.84,761.62,764.97,768.07
388.60,388.72,388.75,388.75,388.79,388.88,389.02,389.17,389.33,389.39,389.37,389.29,389.25,389.14,389.04,389.00,389.01,389.11,389.22,389.30,389.31,389.29,389.27,389.34,389.44,389.52,389.56,389.57,389.58,389.61,389.61,389.67,389.75,389.90,390.37,391.51,392.93,394.11,394.61,395.29,395.76,396.31,397.02,397.57,398.29,399.51,401.12,402.75,404.39,405.53,406.55,407.77,408.82,410.55,412.88,415.53,417.94,421.00,425.20,429.82,433.83,437.57,442.28,447.50,452.66,456.93,459.88,461.97,463.38,463.96,463.24,462.06,460.62,458.85,456.77,454.56,452.60,450.93,449.16,447.37,446.21,445.54,445.14,445.83,447.47,449.27,450.76,451.99,453.19,454.42,455.64,456.83,458.06,459.29,460.50,461.65,462.75,463.85,464.91,465.90,466.84,467.68,468.41,469.12,469.93,470.78,471.46,472.32,473.60,475.00,476.54,477.97,479.24,480.62,482.59,484.98,487.44,489.68,491.62,493.60,495.63,497.67,499.82,502.91,506.38,509.62,512.02,514.18,516.31,518.40,520.38,522.03,523.63,525.24,526.84,528.42,530.53,533.60,537.12,540.37,542.78,544.89,546.68,548.16,549.66,551.43,553.65,556.29,559.32,562.41,565.34,568.13,570.79,573.24,575.72,578.26,580.84,583.40,585.74,587.74,589.49,591.11,592.73,594.30,595.84,597.33,598.76,600.13,601.34,602.31,602.81,603.08,602.91,602.64,602.35,601.26,599.92,598.78,598.04,597.79,597.77,597.66,597.64,597.95,598.11,598.15,598.05,597.85,597.80,597.63,597.28,596.61,595.32,593.94,592.53,590.96,589.19,587.66,586.06,585.38,586.00,587.68,589.53,591.37,593.41,595.92,598.29,601.01,603.91,606.88,609.99,614.44,618.58,621.90,624.53,627.35,629.97,633.19,637.50,640.95,643.62,646.27,649.40,653.36,657.65,661.11,663.92,666.69,669.63,673.60,677.82,681.64,684.75,687.66,691.08,695.02,699.06,702.24,705.10,707.90,710.76,713.75,716.66,719.73,723.06,726.70,731.18,736.82,742.39,746.25,750.26,754.96,759.44,763.18,766.66,770.11
388.97,389.13,389.21,389.27,389.47,389.70,389.94,390.17,390.39,390.48,390.38,390.14,389.94,389.66,389.47,389.38,389.42,389.67,389.80,389.75,389.58,389.56,389.50,389.53,389.68,389.85,389.92,389.91,389.85,389.74,389.75,390.07,390.50,391.03,391.94,393.60,395.19,396.15,396.09,396.25,396.11,396.21,396.77,397.16,397.80,398.58,399.45,400.39,401.78,403.31,404.93,406.62,408.28,410.50,412.93,415.37,417.73,420.38,424.44,429.14,433.18,436.78,441.26,446.48,451.85,455.89,459.21,461.55,463.19,464.61,464.38,463.26,461.82,460.19,458.00,455.75,453.87,452.39,450.91,449.33,448.22,447.50,446.94,446.59,447.47,448.90,450.35,451.59,452.83,454.11,455.39,456.64,457.96,459.25,460.48,461.64,462.80,464.02,465.19,466.27,467.31,468.23,469.10,470.00,471.07,472.29,473.30,474.38,475.74,477.29,478.78,479.82,480.48,481.26,482.68,484.72,486.97,489.08,491.04,493.03,495.03,497.00,499.02,502.06,505.71,509.26,511.85,514.01,516.12,518.21,520.23,521.90,523.54,525.21,526.89,528.57,530.76,533.75,537.10,540.13,542.34,544.16,545.71,547.03,548.38,549.85,552.08,555.05,558.48,561.91,565.14,568.21,571.09,573.55,575.97,578.46,581.09,583.88,586.58,588.77,590.55,592.12,593.73,595.35,596.94,598.49,599.98,601.55,603.03,604.30,605.13,605.73,605.87,606.00,606.21,605.30,603.96,602.63,601.62,601.26,601.12,600.81,600.73,601.38,601.66,601.79,601.72,601.41,601.06,600.57,599.96,599.06,597.56,596.11,594.69,593.30,591.91,590.42,588.59,587.49,587.71,589.40,590.80,592.02,593.51,595.72,597.79,600.18,602.91,605.88,608.94,613.29,617.70,621.58,624.61,627.63,631.00,635.00,639.45,642.41,644.96,647.50,650.43,654.44,658.51,661.83,664.61,667.39,670.54,674.62,678.79,682.51,685.72,688.84,692.55,696.67,700.48,703.34,705.93,708.50,711.18,714.10,716.99,720.06,723.41,726.97,731.35,736.83,742.40,746.68,751.20,756.12,760.64,764.35,767.92,771.74
389.24,389.48,389.66,389.90,390.62,391.26,391.82,392.36,392.85,393.14,392.96,392.27,391.32,390.47,389.92,389.69,389.87,390.80,391.15,390.75,389.92,389.80,389.73,389.72,389.91,390.51,390.80,390.76,390.43,389.91,389.94,391.31,393.12,394.95,396.71,397.94,398.61,398.82,398.62,398.38,398.01,397.88,398.12,398.35,398.78,399.32,400.01,401.05,402.23,403.52,404.99,406.70,408.45,411.37,414.43,417.20,419.90,422.65,426.24,430.12,433.35,436.49,440.66,445.81,451.33,455.19,458.63,461.11,462.80,464.42,465.12,464.32,462.75,461.00,459.00,457.01,455.27,453.79,452.29,451.04,450.10,449.41,448.92,448.54,448.55,449.05,450.08,451.25,452.52,453.79,455.04,456.30,457.69,459.07,460.38,461.58,462.75,463.96,465.16,466.30,467.47,468.56,469.69,470.87,472.06,473.33,474.74,476.13,477.52,479.19,480.46,481.26,481.77,482.50,483.47,484.73,486.34,488.34,490.32,492.33,494.28,496.19,498.16,500.65,504.11,507.99,511.17,513.48,515.62,517.76,519.83,521.59,523.28,524.98,526.65,528.33,530.44,533.26,536.38,539.22,541.45,543.15,544.59,545.94,547.42,548.99,551.49,554.87,558.64,561.97,565.26,568.50,571.50,574.06,576.56,579.15,581.87,584.73,587.37,589.61,591.52,593.16,594.74,596.35,597.96,599.56,601.15,602.83,604.43,605.86,607.05,608.02,608.74,609.27,609.59,609.47,609.09,608.62,608.20,607.98,607.78,607.46,607.25,607.47,607.65,607.84,607.84,607.48,606.68,605.41,603.93,602.21,600.00,598.28,596.74,595.23,593.67,592.04,590.42,589.33,589.31,591.06,592.73,593.88,594.86,596.14,597.41,599.33,602.04,605.48,609.00,613.16,617.40,621.38,624.77,628.10,632.01,636.26,640.32,643.00,645.48,648.00,650.87,654.75,658.72,662.06,664.93,667.81,671.09,675.04,679.07,682.80,686.26,689.77,693.56,697.46,700.93,703.62,706.16,708.74,711.42,714.38,717.32,720.39,723.66,727.00,731.11,736.35,741.93,746.77,751.64,756.55,761.05,764.87,768.46,772.61
389.56,390.21,391.03,391.70,392.70,393.55,394.28,394.98,395.61,396.04,396.03,395.50,394.60,393.80,393.30,393.18,393.58,394.54,394.86,394.37,393.28,392.72,392.30,392.32,392.86,393.80,394.18,394.17,393.89,393.50,393.73,395.25,397.02,398.65,400.14,401.01,401.23,401.09,400.83,400.39,399.93,399.64,399.62,399.73,400.04,400.56,401.32,402.38,403.51,404.66,405.90,407.29,408.66,411.80,415.40,418.81,421.94,424.96,428.29,431.60,434.41,437.37,441.66,446.62,451.39,454.76,458.18,460.77,462.56,464.31,465.65,465.18,463.66,461.89,460.02,458.18,456.54,455.13,453.76,452.75,451.90,451.20,450.77,450.41,450.01,449.94,450.46,451.39,452.41,453.51,454.70,455.98,457.37,458.75,460.07,461.30,462.49,463.73,464.95,466.16,467.42,468.71,470.06,471.40,472.72,474.08,475.62,477.14,478.55,480.14,481.34,482.27,483.04,483.77,484.55,485.43,486.59,488.19,489.96,491.84,493.70,495.52,497.41,499.49,502.69,506.71,510.48,512.95,515.08,517.16,519.18,521.00,522.74,524.46,526.17,527.88,529.90,532.53,535.43,538.19,540.56,542.35,543.90,545.39,547.01,548.69,551.45,555.16,559.11,562.34,565.54,568.73,571.77,574.46,577.13,579.90,582.79,585.67,588.30,590.51,592.40,594.09,595.72,597.35,598.98,600.62,602.28,604.01,605.68,607.26,608.69,609.85,610.91,611.76,612.24,612.56,612.96,613.21,613.27,613.30,613.22,613.05,612.90,612.91,612.99,613.11,612.98,612.39,611.25,609.63,607.80,605.69,603.16,600.96,598.87,596.96,595.33,593.70,592.26,591.15,590.90,592.65,594.48,595.76,596.72,597.75,598.64,599.94,602.50,606.41,609.89,613.52,617.40,621.40,625.23,628.96,632.94,636.97,640.58,643.11,645.60,648.17,651.06,654.86,658.72,662.03,664.97,667.99,671.38,675.24,679.18,682.98,686.63,690.34,694.15,697.91,701.17,703.82,706.38,708.98,711.68,714.59,717.51,720.55,723.74,727.00,730.98,736.10,741.69,746.81,751.94,756.84,761.29,765.18,768.86,773.20
389.93,391.31,393.15,394.47,395.56,396.49,397.33,398.12,398.76,399.29,399.63,399.70,399.48,399.21,399.08,399.26,399.91,400.37,400.49,400.10,399.11,397.84,396.80,396.90,397.97,399.18,399.54,399.65,399.70,399.81,400.38,401.28,401.89,402.13,402.46,403.04,403.20,403.03,402.76,402.33,401.87,401.49,401.28,401.30,401.55,402.24,403.24,404.27,405.46,406.58,407.58,408.42,409.04,411.95,415.96,420.19,423.81,427.25,430.48,433.46,436.19,439.26,444.01,448.63,451.98,454.62,457.88,460.53,462.46,464.29,466.00,465.88,464.57,462.86,461.07,459.29,457.72,456.43,455.31,454.45,453.63,452.92,452.54,452.20,451.79,451.44,451.40,451.95,452.53,453.33,454.41,455.69,456.99,458.31,459.60,460.83,462.06,463.34,464.61,465.87,467.19,468.70,470.20,471.65,473.08,474.53,476.01,477.49,478.93,480.30,481.56,482.91,484.23,485.03,485.87,486.69,487.55,488.59,489.94,491.58,493.30,495.03,496.81,498.58,501.48,505.45,509.79,512.44,514.51,516.44,518.33,520.17,521.95,523.73,525.50,527.27,529.19,531.60,534.32,537.08,539.69,541.75,543.56,545.28,547.04,548.85,551.84,555.78,559.79,562.92,565.90,568.90,571.89,574.75,577.65,580.70,583.82,586.68,589.33,591.44,593.23,594.93,596.67,598.33,599.98,601.68,603.37,605.07,606.81,608.52,610.06,611.27,612.50,613.57,614.26,614.77,615.76,616.58,617.02,617.39,617.54,617.64,617.73,617.76,617.75,617.71,617.32,616.34,614.93,613.32,611.51,609.44,606.91,604.07,601.12,598.62,596.96,595.39,594.11,592.96,592.49,594.20,596.09,597.64,598.99,600.31,601.20,601.83,604.13,608.45,611.47,614.31,617.66,621.61,625.93,630.05,633.76,637.18,640.30,642.76,645.31,647.99,650.98,654.74,658.49,661.75,664.76,667.94,671.43,675.23,679.13,683.03,686.80,690.57,694.37,698.04,701.25,703.96,706.57,709.22,711.93,714.73,717.59,720.57,723.70,726.99,730.93,736.04,741.65,746.86,752.13,757.00,761.38,765.29,769.09,773.52
390.74,392.86,395.38,397.28,398.98,400.44,402.00,403.66,404.44,404.84,405.04,405.06,404.91,404.59,404.59,404.95,405.50,405.71,405.70,405.24,404.18,402.75,401.44,401.18,401.95,403.20,403.94,404.47,404.75,404.78,405.13,405.34,405.25,404.93,404.72,405.09,405.17,404.95,404.66,404.25,403.83,403.47,403.24,403.16,403.46,404.11,405.04,406.10,407.27,408.77,410.13,410.94,411.52,413.66,417.02,421.06,424.77,428.35,431.72,434.86,437.91,441.88,446.59,450.56,453.09,455.39,458.27,460.64,462.41,464.16,465.93,466.49,465.81,464.05,462.38,460.72,459.22,457.97,456.97,456.15,455.36,454.68,454.32,453.91,453.43,452.98,452.73,453.03,453.53,454.20,454.97,455.76,456.64,457.85,459.13,460.23,461.42,462.76,464.13,465.49,466.89,468.44,469.96,471.41,472.84,474.27,475.70,477.16,478.65,480.08,481.51,483.08,484.67,485.89,487.00,487.93,488.78,489.67,490.76,492.20,493.77,495.36,496.98,498.57,501.11,504.81,509.36,511.93,513.88,515.72,517.54,519.35,521.17,523.00,524.85,526.67,528.55,530.81,533.42,536.31,539.17,541.37,543.25,545.02,546.77,548.73,551.79,555.67,559.51,562.68,565.61,568.49,571.46,574.58,577.91,581.31,584.64,587.71,590.20,592.20,593.96,595.70,597.48,599.17,600.85,602.55,604.29,606.03,607.78,609.50,611.02,612.33,613.65,614.86,615.81,616.75,618.00,619.01,619.60,619.98,620.14,620.39,620.86,621.55,622.04,622.13,621.60,620.27,618.46,616.61,614.66,612.57,610.19,607.66,604.55,601.43,598.96,597.32,596.05,594.83,594.24,595.84,597.73,599.42,601.01,602.66,604.01,605.10,607.18,610.47,612.88,615.48,618.54,622.12,626.22,630.28,633.72,636.73,639.43,641.52,643.94,646.72,649.90,653.70,657.42,660.81,663.98,667.20,670.77,674.71,678.72,682.63,686.46,690.29,694.11,697.84,701.19,703.91,706.52,709.19,711.94,714.75,717.61,720.57,723.69,726.95,730.88,735.96,741.69,747.31,752.58,756.97,760.95,764.81,768.67,773.16
391.58,394.34,397.38,399.83,402.22,404.34,406.57,408.86,409.71,409.97,409.98,409.85,409.61,409.20,409.30,409.75,410.15,410.21,410.10,409.60,408.53,407.19,405.83,405.21,405.51,406.68,407.74,408.58,408.97,408.80,408.82,408.49,407.98,407.42,406.95,407.18,407.17,406.87,406.56,406.18,405.80,405.48,405.25,405.11,405.44,406.02,406.81,407.97,409.23,411.26,413.18,414.16,414.90,416.23,418.65,422.08,425.60,429.27,432.81,436.18,439.65,444.54,448.96,452.22,454.25,456.37,458.85,460.88,462.46,464.09,465.82,467.05,467.06,465.43,463.87,462.36,460.94,459.68,458.70,457.87,457.09,456.44,456.09,455.57,455.03,454.52,454.16,454.26,454.78,455.36,455.85,456.15,456.60,457.62,458.78,459.68,460.79,462.16,463.63,465.09,466.54,468.04,469.54,470.99,472.37,473.77,475.18,476.65,478.20,479.74,481.34,483.06,484.84,486.52,487.94,489.05,489.98,490.88,491.83,493.11,494.53,496.00,497.44,498.90,501.11,504.45,509.00,511.44,513.31,515.10,516.88,518.64,520.48,522.37,524.27,526.12,527.98,530.10,532.63,535.64,538.64,540.92,542.84,544.61,546.40,548.49,551.49,555.14,558.75,561.99,564.94,567.84,570.89,574.33,578.11,581.83,585.36,588.65,590.95,592.86,594.64,596.43,598.21,599.93,601.63,603.35,605.11,606.87,608.63,610.32,611.78,613.19,614.57,615.88,617.10,618.46,619.85,620.95,621.67,622.03,622.24,622.68,623.56,624.91,625.91,626.16,625.59,624.10,621.92,619.75,617.58,615.39,613.16,611.10,608.15,604.70,601.47,599.58,598.10,596.74,596.01,597.42,599.25,601.05,602.83,604.74,606.58,608.30,610.22,612.38,614.26,616.74,619.64,622.87,626.49,630.22,633.34,636.02,638.37,640.06,642.25,645.07,648.50,652.34,656.06,659.57,662.91,666.18,669.84,673.96,678.12,682.09,685.93,689.75,693.62,697.47,701.02,703.77,706.39,709.09,711.88,714.72,717.57,720.55,723.67,726.90,730.79,735.82,741.67,747.74,752.86,756.72,760.27,764.04,767.95,772.43
392.07,395.09,398.36,401.35,404.26,406.91,409.03,410.26,410.75,411.02,411.16,411.16,411.00,410.90,411.16,411.58,411.90,411.94,411.83,411.49,410.87,409.99,409.08,408.56,408.63,409.49,410.21,410.66,410.81,410.63,410.44,410.14,409.80,409.45,409.19,409.50,409.28,408.76,408.49,408.11,407.81,407.50,407.19,407.00,407.33,407.83,408.60,410.08,411.89,414.61,417.19,418.66,419.54,420.47,422.00,424.23,426.88,430.66,434.28,437.69,441.54,446.62,450.26,452.89,455.04,457.23,459.39,461.23,462.78,464.35,465.97,467.44,468.08,467.24,465.82,464.53,463.18,461.78,460.59,459.62,458.81,458.17,457.70,457.17,456.58,456.03,455.59,455.48,455.99,456.59,457.08,457.42,457.78,458.31,458.89,459.44,460.39,461.70,463.17,464.66,466.03,467.41,468.88,470.34,471.69,473.07,474.57,476.14,477.73,479.28,480.93,482.76,484.74,486.67,488.39,489.72,490.83,491.89,492.97,494.20,495.55,496.94,498.21,499.60,501.62,504.57,508.55,511.12,513.06,514.84,516.60,518.34,520.16,522.03,523.90,525.75,527.61,529.59,531.99,534.99,537.71,539.97,541.93,543.77,545.88,548.07,550.71,553.77,557.10,560.34,563.54,566.85,570.39,574.23,578.29,582.18,585.81,589.23,591.44,593.33,595.20,597.02,598.85,600.59,602.28,603.99,605.72,607.44,609.14,610.76,612.22,613.67,615.07,616.45,617.84,619.33,620.74,622.00,623.01,623.59,624.23,625.12,626.31,627.69,628.61,628.85,628.56,627.59,625.32,622.77,620.17,617.65,615.40,613.44,611.17,608.53,605.59,602.84,600.55,598.69,597.72,598.64,600.32,602.19,604.11,606.03,607.94,609.85,611.82,613.84,615.70,618.02,620.97,624.25,627.21,630.00,632.51,634.92,637.17,638.69,640.40,643.12,646.87,650.75,654.42,657.93,661.37,664.84,668.56,672.85,677.27,681.47,685.21,688.83,692.74,696.83,700.56,703.48,706.22,708.98,711.81,714.62,717.43,720.42,723.62,726.88,730.60,735.49,741.39,747.70,752.25,755.79,759.13,762.71,766.71,771.03
393.15,396.14,399.31,402.46,405.54,408.39,410.31,410.82,411.10,411.49,411.87,412.12,412.13,412.30,412.67,413.08,413.35,413.39,413.30,413.11,412.77,412.23,411.72,411.35,411.30,411.80,412.21,412.32,412.21,411.94,411.67,411.42,411.28,411.26,411.40,411.91,412.30,412.45,412.33,412.06,411.84,411.60,411.31,411.14,411.36,411.59,411.91,412.90,414.92,417.74,420.46,422.30,423.51,424.54,425.69,427.15,429.31,433.34,436.97,440.16,443.82,448.38,451.29,453.46,455.65,457.83,459.76,461.44,462.97,464.51,466.06,467.67,468.79,468.80,467.81,466.73,465.43,463.89,462.59,461.55,460.75,460.07,459.42,458.76,458.10,457.49,457.00,456.74,457.17,457.76,458.33,458.85,459.25,459.54,459.77,460.10,460.93,462.09,463.38,464.67,465.83,466.92,468.25,469.69,471.00,472.43,474.01,475.65,477.25,478.75,480.32,482.16,484.23,486.33,488.45,490.07,491.36,492.55,493.71,494.96,496.29,497.63,498.85,500.34,502.35,504.98,508.28,510.84,512.84,514.63,516.42,518.17,520.00,521.84,523.67,525.50,527.34,529.21,531.45,534.31,536.79,539.04,541.10,543.08,545.28,547.44,549.74,552.43,555.78,559.12,562.89,566.82,570.65,574.53,578.59,582.48,586.15,589.60,591.77,593.69,595.62,597.51,599.37,601.09,602.76,604.42,606.11,607.79,609.43,611.02,612.50,613.95,615.38,616.82,618.31,619.83,621.25,622.60,623.82,624.74,625.79,627.01,628.33,629.56,630.34,630.51,630.42,629.90,628.07,625.63,622.88,620.09,617.69,615.70,613.83,611.72,609.11,606.10,603.37,601.15,599.79,599.95,601.35,603.22,605.18,607.11,609.03,611.02,613.05,615.06,616.99,619.18,621.95,624.99,627.52,629.76,631.86,634.00,636.12,637.59,639.10,641.85,645.89,649.91,653.31,656.65,660.10,663.69,667.48,671.84,676.40,680.75,684.37,687.88,691.78,695.98,699.92,702.99,705.85,708.71,711.60,714.47,717.27,720.26,723.50,726.83,730.46,735.16,740.85,746.96,751.32,754.73,757.91,761.31,765.27,769.41
395.05,397.66,400.32,403.14,405.97,408.56,410.26,410.66,410.97,411.58,412.30,412.94,413.26,413.60,414.02,414.43,414.70,414.73,414.72,414.60,414.32,413.92,413.65,413.48,413.43,413.55,413.74,413.64,413.28,412.80,412.58,412.37,412.42,412.85,413.54,414.42,416.47,418.47,418.65,418.63,418.54,418.43,418.30,418.20,418.19,417.88,417.22,416.62,418.34,420.52,422.66,424.69,426.53,428.24,429.65,430.97,433.16,437.64,441.22,443.85,446.61,449.79,452.06,453.99,456.05,458.14,459.90,461.47,462.97,464.51,466.06,467.70,469.14,469.96,469.77,468.94,467.61,466.01,464.71,463.70,462.94,462.22,461.29,460.37,459.56,458.90,458.39,458.04,458.31,458.87,459.58,460.39,461.01,461.36,461.59,461.91,462.65,463.55,464.44,465.26,466.04,466.62,467.66,469.03,470.32,471.86,473.52,475.18,476.75,478.12,479.49,481.20,483.24,485.38,488.04,490.04,491.51,492.78,493.95,495.26,496.64,498.00,499.27,501.10,503.31,505.74,508.27,510.64,512.63,514.48,516.31,518.14,520.00,521.81,523.60,525.39,527.18,528.98,531.03,533.57,535.93,538.19,540.42,542.61,544.61,546.54,548.59,551.20,554.98,558.53,563.30,568.09,571.91,575.34,579.04,582.76,586.37,589.74,591.92,593.89,595.88,597.85,599.72,601.41,603.02,604.60,606.23,607.87,609.49,611.09,612.61,614.03,615.47,616.95,618.47,619.96,621.37,622.72,624.05,625.39,626.83,628.19,629.38,630.28,630.90,631.01,630.93,630.71,629.98,628.28,625.76,622.83,620.13,617.98,616.06,614.04,611.70,609.24,606.65,604.26,602.35,601.38,602.38,604.13,606.07,607.99,609.86,611.88,613.95,616.02,618.07,620.18,622.44,624.84,627.25,629.51,631.48,633.36,635.24,636.84,638.53,641.49,645.78,650.04,652.94,655.90,659.22,662.82,666.69,670.99,675.52,679.95,683.41,686.91,690.74,694.87,699.06,702.26,705.24,708.22,711.21,714.25,717.09,720.06,723.29,726.75,730.41,734.87,740.00,745.38,750.07,753.55,756.63,759.87,763.61,767.60
397.34,399.56,401.69,404.00,406.60,408.46,409.51,409.88,410.38,411.02,411.79,412.66,413.43,414.10,414.70,415.22,415.57,415.65,415.63,415.54,415.35,415.05,414.88,414.77,414.68,414.65,414.70,414.53,414.17,413.77,413.95,414.18,414.61,415.28,416.13,417.02,418.74,420.43,420.79,420.96,421.04,421.06,421.05,421.04,421.06,420.77,420.21,419.80,420.98,422.55,424.32,426.34,428.27,430.36,432.24,433.94,436.19,439.93,443.13,445.73,448.29,450.76,452.73,454.43,456.03,457.75,459.44,461.03,462.49,463.87,465.46,467.21,468.89,470.25,471.05,470.68,469.55,468.06,466.85,465.95,465.29,464.61,463.63,462.61,461.68,460.83,460.03,459.47,459.62,460.24,461.13,462.10,462.95,463.48,463.82,464.21,464.85,465.63,466.31,466.82,467.21,467.46,468.13,469.16,470.29,471.59,473.10,474.70,476.23,477.53,478.81,480.40,482.39,484.77,487.50,489.64,491.23,492.48,493.73,495.14,496.58,497.99,499.41,501.38,503.66,506.03,508.35,510.70,512.84,514.83,516.72,518.61,520.47,522.30,524.10,525.88,527.65,529.41,531.32,533.56,535.81,538.03,540.32,542.61,544.59,546.50,548.51,551.26,555.64,559.69,564.54,569.19,572.79,575.93,579.24,582.75,586.33,589.63,591.92,593.97,596.00,597.99,599.85,601.54,603.13,604.68,606.26,607.83,609.40,610.98,612.51,613.98,615.47,616.99,618.52,620.00,621.43,622.83,624.23,625.70,627.20,628.65,629.87,630.62,631.22,631.53,631.64,631.51,631.04,629.90,628.20,625.99,623.25,620.74,618.45,616.26,614.04,611.76,609.34,607.03,605.04,603.65,603.64,604.87,606.71,608.58,610.46,612.49,614.59,616.70,618.78,621.17,623.46,625.62,627.89,630.19,632.37,634.37,636.14,637.74,639.89,643.12,647.24,650.96,653.58,656.21,659.17,662.57,666.40,670.54,674.87,679.14,682.68,686.17,689.87,693.88,698.16,701.53,704.62,707.63,710.61,713.75,716.76,719.85,723.10,726.51,730.11,734.31,738.94,743.73,748.51,752.13,755.20,758.22,761.57,765.39
399.66,401.54,403.17,404.90,407.09,408.05,408.38,408.75,409.45,410.10,410.91,411.96,413.18,414.22,415.07,415.75,416.23,416.38,416.33,416.23,416.11,415.88,415.75,415.62,415.49,415.42,415.36,415.18,414.89,414.67,415.27,416.02,416.81,417.62,418.45,419.25,420.06,420.79,421.30,421.64,421.90,422.08,422.19,422.30,422.47,422.43,422.34,422.68,423.33,424.33,425.75,427.61,429.33,431.52,433.77,435.94,438.25,441.02,443.81,446.53,449.13,451.27,453.07,454.50,455.57,456.83,458.49,460.15,461.62,462.86,464.53,466.45,468.39,470.21,471.95,472.18,471.38,470.05,469.00,468.25,467.69,467.08,466.12,465.05,464.01,462.93,461.80,460.96,461.04,461.75,462.80,463.88,464.93,465.66,466.19,466.69,467.23,467.94,468.48,468.73,468.79,468.81,469.13,469.77,470.65,471.58,472.87,474.33,475.78,477.03,478.25,479.72,481.64,484.25,486.86,489.06,490.75,491.99,493.36,494.84,496.33,497.80,499.35,501.36,503.63,506.00,508.33,510.70,513.05,515.25,517.24,519.20,521.09,522.95,524.78,526.57,528.36,530.10,531.89,533.88,536.01,538.18,540.49,542.87,544.92,546.90,549.01,551.97,556.85,561.39,565.97,570.12,573.43,576.35,579.30,582.59,586.12,589.36,591.78,593.92,595.97,597.98,599.89,601.57,603.15,604.70,606.23,607.72,609.22,610.76,612.31,613.84,615.38,616.92,618.46,619.94,621.42,622.88,624.35,625.83,627.30,628.82,630.08,630.77,631.40,631.99,632.34,632.28,631.82,631.14,630.35,629.10,626.54,623.70,620.99,618.51,616.26,614.01,611.75,609.59,607.66,606.13,605.03,605.62,607.29,609.07,610.98,613.01,615.13,617.25,619.33,622.18,624.74,626.85,628.94,631.28,633.76,636.02,637.78,639.40,641.97,645.37,649.12,652.11,654.57,656.95,659.55,662.73,666.47,670.46,674.55,678.58,682.17,685.56,689.11,692.99,697.27,700.79,703.98,706.98,709.88,713.04,716.27,719.54,722.83,726.17,729.67,733.59,737.79,742.08,746.80,750.56,753.69,756.51,759.44,763.03
401.43,403.14,404.59,405.56,406.39,406.60,406.62,406.93,407.65,408.64,409.88,411.30,412.60,413.86,415.10,416.15,416.69,416.99,416.87,416.65,416.47,416.24,416.02,415.84,415.70,415.62,415.55,415.40,415.15,414.97,415.52,416.25,416.98,417.69,418.42,419.25,420.00,420.66,421.28,421.83,422.28,422.69,423.08,423.40,423.88,424.20,424.44,424.97,425.62,426.27,427.09,428.20,429.25,430.59,432.32,434.38,436.55,439.65,442.49,445.05,447.72,450.19,451.76,452.78,453.54,454.47,456.14,457.91,459.56,461.14,462.92,465.20,467.71,470.12,472.19,473.35,473.17,471.95,471.14,470.57,470.09,469.48,468.47,467.29,466.12,464.92,463.67,462.63,462.71,463.47,464.55,465.64,466.72,467.63,468.41,469.07,469.58,470.19,470.56,470.62,470.62,470.58,470.89,471.42,471.90,472.48,473.46,474.61,475.78,476.93,478.03,479.37,481.13,483.49,485.88,488.16,490.13,491.60,493.04,494.49,495.93,497.37,498.88,500.69,502.82,505.13,507.50,509.80,512.40,515.00,517.38,519.63,521.61,523.49,525.35,527.21,529.04,530.85,532.65,534.52,536.52,538.69,541.03,543.50,545.80,548.02,550.50,553.63,558.00,562.53,566.70,570.35,573.42,576.25,579.09,582.19,585.52,588.72,591.25,593.42,595.50,597.64,599.78,601.47,603.00,604.53,605.99,607.41,608.85,610.33,611.87,613.42,614.96,616.52,618.10,619.62,621.14,622.65,624.18,625.73,627.25,628.79,630.05,630.70,631.36,632.02,632.59,632.89,632.78,632.35,631.87,631.09,629.29,626.78,623.96,621.11,618.43,616.10,613.85,611.68,609.65,607.95,606.62,606.76,607.98,609.61,611.46,613.49,615.57,617.65,619.87,623.33,626.38,628.63,630.45,632.75,635.40,637.85,639.77,641.95,644.09,646.88,650.20,652.92,655.46,657.94,660.63,663.92,667.47,671.42,675.55,679.43,682.30,685.24,688.56,692.33,696.46,699.99,703.18,706.12,708.84,711.78,715.13,718.65,722.17,725.50,728.82,732.51,736.47,740.55,744.87,748.72,752.03,754.85,757.67,760.65
402.63,403.98,405.10,405.45,405.21,404.89,404.75,405.01,405.82,407.14,408.79,410.53,411.96,413.42,414.99,416.32,416.88,417.16,416.93,416.63,416.43,416.20,415.94,415.72,415.59,415.57,415.52,415.42,415.23,415.08,415.38,415.92,416.48,417.03,417.67,418.58,419.57,420.47,421.15,421.85,422.38,422.86,423.34,423.72,424.40,424.93,425.31,425.80,426.44,426.88,427.33,427.98,428.55,429.22,430.42,432.14,433.98,437.13,440.01,442.48,444.92,447.29,448.64,449.55,450.46,451.55,453.42,455.41,457.35,459.40,461.48,464.22,467.26,470.08,472.34,474.26,474.77,473.89,473.31,472.92,472.47,471.80,470.75,469.37,468.02,466.73,465.45,464.28,464.37,465.17,466.26,467.36,468.46,469.53,470.50,471.31,471.84,472.37,472.68,472.70,472.69,472.68,473.02,473.46,473.60,473.93,474.51,475.27,476.13,477.20,478.24,479.45,481.00,483.13,485.33,487.50,489.47,491.07,492.56,493.96,495.36,496.78,498.27,499.88,501.79,503.97,506.31,508.59,511.30,514.16,516.95,519.69,521.82,523.72,525.60,527.58,529.52,531.43,533.30,535.16,537.11,539.26,541.63,544.17,546.66,549.13,551.94,555.20,559.01,563.16,566.88,570.15,573.06,575.84,578.65,581.64,584.78,587.90,590.51,592.75,594.90,597.18,599.54,601.26,602.76,604.25,605.65,607.04,608.43,609.85,611.37,612.92,614.48,616.05,617.66,619.23,620.77,622.32,623.87,625.46,627.01,628.56,629.84,630.55,631.24,631.93,632.65,633.30,633.58,633.47,633.27,632.89,631.82,629.71,626.90,623.80,620.75,618.22,615.89,613.68,611.58,609.73,608.29,608.03,608.79,610.30,612.09,614.08,616.11,618.21,620.79,624.74,628.05,630.29,631.95,634.25,637.10,639.85,642.12,644.70,646.40,648.55,651.41,653.95,656.54,659.14,661.97,665.33,668.75,672.65,676.70,680.37,682.68,685.19,688.18,691.67,695.62,699.14,702.33,705.20,707.80,710.54,714.00,717.72,721.38,724.66,727.81,731.25,734.99,738.93,742.90,746.76,750.21,753.13,755.84,758.34
402.80,403.30,403.73,403.79,403.38,403.02,402.86,403.13,404.18,405.74,407.59,409.54,411.28,412.98,414.69,416.08,416.58,416.41,416.06,415.79,415.67,415.50,415.31,415.11,414.99,415.14,415.20,415.15,415.07,414.97,414.75,414.91,415.17,415.51,416.16,417.18,418.79,420.34,420.99,421.67,422.04,422.24,422.36,422.44,423.01,423.45,423.61,423.69,424.19,424.62,425.25,426.25,426.90,427.61,428.53,429.61,430.75,432.96,435.73,438.32,439.93,441.04,442.21,443.71,445.68,447.87,450.37,452.81,455.21,457.86,460.64,463.96,467.32,470.15,472.50,474.75,475.99,475.99,475.58,475.29,474.76,473.97,472.87,471.18,469.56,468.17,466.98,465.86,465.92,466.71,467.86,469.00,470.19,471.35,472.40,473.25,473.87,474.42,474.90,475.20,475.18,475.34,475.69,476.00,476.01,476.24,476.30,476.49,477.10,478.14,479.25,480.34,481.62,483.66,485.76,487.42,488.80,490.21,491.67,493.08,494.50,495.97,497.49,498.96,500.56,502.40,504.64,506.98,509.50,512.28,515.44,519.02,521.39,523.31,525.23,527.40,529.55,531.63,533.66,535.68,537.73,539.88,542.22,544.77,547.31,549.97,552.98,556.28,559.69,562.86,566.11,569.27,572.18,574.92,577.82,580.83,583.86,586.77,589.42,591.84,594.16,596.55,599.09,600.88,602.37,603.78,605.18,606.57,607.96,609.36,610.80,612.38,613.94,615.52,617.14,618.75,620.30,621.85,623.38,624.89,626.43,627.97,629.36,630.34,631.02,631.70,632.47,633.31,633.99,634.40,634.64,634.66,634.06,632.26,629.60,626.56,623.42,620.44,617.93,615.67,613.55,611.62,610.09,609.46,609.83,611.29,613.04,614.92,616.87,619.15,622.54,626.63,629.65,631.54,633.29,635.68,638.83,642.16,645.12,647.57,649.08,650.80,653.11,655.54,658.08,660.75,663.63,666.88,670.37,674.10,677.78,681.05,683.36,685.63,688.08,690.96,694.68,698.28,701.42,704.22,706.84,709.51,713.09,716.86,720.41,723.56,726.58,729.72,733.17,737.10,740.95,744.63,748.12,751.25,753.77,756.15
401.85,402.00,402.20,402.16,401.70,401.17,400.88,401.24,402.62,404.38,406.29,408.26,410.11,411.90,413.69,415.14,415.63,415.30,414.79,414.39,414.17,413.94,413.75,413.57,413.46,413.55,413.58,413.59,413.59,413.53,413.19,413.24,413.48,413.86,414.63,416.17,418.17,419.88,420.46,420.94,421.15,421.21,421.20,421.17,421.51,421.77,421.81,421.74,422.03,422.51,423.28,424.43,425.25,426.04,426.88,427.76,428.73,430.33,432.53,434.71,436.10,437.17,438.54,440.23,442.34,445.07,448.15,451.04,453.72,456.57,459.57,463.10,466.69,469.79,472.20,474.64,476.63,477.78,477.77,477.59,477.02,476.14,475.04,473.29,471.49,469.82,468.41,467.38,467.46,468.23,469.40,470.70,472.05,473.26,474.31,475.16,475.84,476.45,477.06,477.56,477.63,477.84,478.13,478.35,478.30,478.39,478.19,478.09,478.43,479.18,480.19,481.17,482.25,483.89,485.57,486.86,487.97,489.25,490.77,492.24,493.73,495.25,496.78,498.14,499.50,501.09,503.21,505.56,508.01,510.64,513.73,517.59,520.37,522.57,524.62,526.85,529.32,531.60,533.74,535.88,538.02,540.20,542.53,545.02,547.53,550.16,553.29,556.74,559.99,562.75,565.62,568.47,571.14,573.87,576.82,579.82,582.75,585.48,588.09,590.57,593.02,595.58,598.27,600.31,601.93,603.32,604.71,606.07,607.44,608.80,610.18,611.72,613.30,614.88,616.47,618.06,619.62,621.16,622.70,624.19,625.71,627.24,628.71,629.94,630.75,631.50,632.32,633.21,634.05,634.74,635.26,635.55,635.29,634.08,632.00,629.30,626.11,622.92,620.13,617.71,615.57,613.58,612.03,611.23,611.31,612.52,614.13,615.88,617.80,620.27,624.33,628.22,630.87,632.56,634.36,637.09,640.62,644.39,647.76,649.93,651.34,652.96,655.04,657.18,659.58,662.27,665.19,668.34,671.75,675.28,678.62,681.50,683.71,685.85,688.05,690.62,694.14,697.65,700.76,703.54,706.14,708.75,712.22,715.94,719.40,722.10,724.98,727.93,731.11,734.84,738.66,742.24,745.62,748.75,751.47,753.91
400.07,400.19,400.42,400.45,400.00,399.26,398.83,399.37,401.14,403.05,404.94,406.81,408.66,410.45,412.23,413.67,414.19,413.87,413.18,412.53,412.09,411.72,411.46,411.31,411.21,411.09,411.02,411.07,411.15,411.11,410.91,411.07,411.48,412.09,413.07,415.29,417.50,419.08,419.58,419.79,419.87,419.89,419.89,419.90,419.97,420.02,420.02,419.97,420.09,420.63,421.53,422.68,423.75,424.64,425.55,426.53,427.66,428.88,430.30,431.84,433.44,435.12,436.87,438.50,440.19,443.03,446.53,449.79,452.67,455.49,458.42,461.89,465.61,469.07,471.56,474.16,476.92,479.28,479.81,479.76,479.17,478.26,477.19,475.61,473.72,471.75,469.99,469.05,469.11,469.84,471.02,472.48,473.97,475.21,476.22,477.05,477.75,478.42,479.12,479.75,479.97,480.14,480.37,480.53,480.46,480.42,480.15,479.95,480.04,480.35,481.14,482.03,482.95,484.03,485.14,486.18,487.21,488.37,489.95,491.49,493.03,494.61,496.13,497.38,498.58,499.99,501.99,504.33,506.76,509.21,511.90,515.63,518.88,521.51,523.73,525.99,528.82,531.34,533.59,535.82,538.06,540.30,542.61,545.01,547.41,549.88,553.07,556.69,559.97,562.70,565.26,567.68,570.00,572.70,575.65,578.63,581.49,584.06,586.56,589.02,591.58,594.35,597.22,599.60,601.45,602.84,604.23,605.56,606.88,608.20,609.54,611.00,612.57,614.16,615.71,617.27,618.82,620.36,621.91,623.44,624.93,626.46,627.99,629.42,630.45,631.33,632.17,633.03,633.88,634.70,635.40,635.86,635.88,635.39,634.14,631.95,628.73,625.50,622.40,619.77,617.62,615.58,614.07,613.19,613.06,613.91,615.31,616.95,618.87,621.57,626.13,629.55,631.80,633.38,635.21,638.41,642.36,646.45,650.00,651.84,653.23,654.95,656.98,658.75,660.99,663.68,666.63,669.68,672.91,676.24,679.28,681.79,683.86,685.93,688.07,690.53,693.89,697.26,700.32,703.10,705.64,708.20,711.43,715.01,718.35,720.44,723.16,725.97,728.90,732.33,736.16,739.64,742.83,745.84,748.96,751.60
397.24,397.20,397.32,397.53,397.25,396.56,396.38,397.56,399.82,401.79,403.64,405.50,407.38,409.07,410.50,411.53,411.96,411.75,410.69,409.55,408.74,408.22,407.93,407.76,407.62,407.44,407.31,407.23,407.20,407.23,407.40,408.00,408.90,410.02,411.39,413.44,415.45,416.92,417.45,417.91,418.16,418.30,418.43,418.55,418.71,418.83,418.91,419.02,419.36,420.07,421.10,422.37,423.58,424.68,425.81,427.04,428.30,429.34,430.78,432.62,434.66,436.26,437.81,439.30,440.80,442.96,445.72,448.69,451.69,454.64,457.62,460.88,464.29,467.61,470.44,473.70,477.13,480.05,480.99,481.02,480.56,479.86,479.07,478.11,476.72,475.16,473.64,472.46,472.00,472.44,473.51,474.59,475.92,477.13,478.13,478.87,479.50,480.08,480.69,481.26,481.54,481.72,481.99,482.25,482.25,482.25,482.05,481.91,482.03,482.16,482.68,483.45,484.33,485.19,486.16,487.09,487.94,488.80,490.00,491.22,492.54,494.00,495.45,496.70,497.92,499.33,501.25,503.61,505.93,508.08,510.25,513.25,516.46,519.34,521.84,524.33,527.41,530.30,532.86,535.15,537.51,539.88,542.19,544.47,546.74,549.00,552.03,555.69,559.29,562.03,564.40,566.59,568.72,571.08,573.92,576.89,579.77,582.31,584.69,587.07,589.64,592.64,595.95,598.82,600.93,602.32,603.66,604.99,606.30,607.61,608.94,610.39,611.94,613.50,615.05,616.63,618.19,619.75,621.33,622.88,624.43,625.97,627.50,628.96,630.13,631.05,631.90,632.76,633.64,634.47,635.24,635.93,636.38,636.32,635.50,633.68,630.68,627.50,624.59,622.02,619.75,617.60,616.07,615.12,614.82,615.46,616.67,618.17,620.28,623.41,627.67,630.38,632.22,633.74,635.66,639.15,643.30,647.37,650.66,652.50,654.12,655.89,657.79,659.56,661.91,664.64,667.54,670.49,673.55,676.75,679.64,681.99,684.02,686.06,688.13,690.55,693.99,697.51,700.43,702.96,705.36,707.90,711.01,714.25,717.15,719.02,721.34,723.98,726.87,730.03,733.46,736.69,739.73,742.71,745.89,748.91
394.21,394.05,394.06,394.38,394.26,393.75,393.99,395.89,398.59,400.67,402.49,404.30,406.14,407.70,408.61,409.00,409.09,408.84,407.41,405.86,404.83,404.26,403.96,403.81,403.66,403.46,403.32,403.16,403.10,403.30,403.89,405.19,406.78,408.44,410.10,411.76,413.41,414.71,415.26,415.94,416.41,416.75,417.04,417.34,417.67,417.96,418.20,418.51,419.07,420.08,421.34,422.69,423.99,425.17,426.46,427.93,429.43,430.59,432.24,434.42,436.76,438.18,439.49,440.88,442.34,443.86,445.76,448.18,451.01,453.94,456.94,459.99,463.06,466.16,469.33,473.24,477.23,480.51,481.79,482.03,481.78,481.31,480.80,480.39,479.57,478.56,477.47,476.19,475.31,475.43,476.25,476.88,477.94,479.07,480.02,480.65,481.15,481.62,482.13,482.62,482.94,483.13,483.48,483.84,483.95,484.05,483.95,483.93,484.12,484.15,484.41,485.02,485.87,486.58,487.51,488.36,489.07,489.71,490.56,491.49,492.59,493.86,495.15,496.35,497.59,498.98,500.72,502.97,505.14,507.06,508.80,511.05,514.05,517.03,519.75,522.37,525.54,528.80,531.77,534.21,536.67,539.14,541.47,543.64,545.79,547.92,550.74,554.29,558.20,561.08,563.36,565.42,567.43,569.46,572.12,575.05,577.96,580.43,582.67,584.94,587.51,590.66,594.29,597.69,600.25,601.78,603.11,604.44,605.75,607.07,608.41,609.86,611.38,612.93,614.49,616.10,617.66,619.25,620.84,622.38,623.99,625.56,627.08,628.50,629.80,630.77,631.62,632.47,633.38,634.18,635.00,635.87,636.71,637.01,636.64,635.28,632.62,629.58,626.83,624.31,621.94,619.69,618.10,617.04,616.60,617.10,618.22,619.70,622.03,625.44,629.03,631.04,632.50,633.97,636.00,639.66,643.87,647.81,650.83,652.77,654.63,656.47,658.30,660.18,662.66,665.40,668.23,671.10,674.03,677.10,679.88,682.15,684.18,686.21,688.24,690.66,694.26,697.94,700.72,702.98,705.23,707.69,710.66,713.52,715.93,717.67,719.61,722.05,724.85,727.80,730.82,733.76,736.68,739.63,742.71,745.99
391.34,391.28,391.26,391.33,391.28,391.15,392.01,394.65,397.56,399.94,401.81,403.36,404.94,406.31,406.40,405.65,404.77,403.85,402.18,400.71,400.02,399.70,399.50,399.46,399.46,399.30,399.29,399.31,399.58,400.29,401.27,403.90,406.60,408.70,410.22,411.37,412.44,413.32,413.81,414.25,414.87,415.51,416.07,416.63,417.16,417.72,418.28,418.75,419.34,420.97,422.78,424.02,425.26,426.13,427.19,428.78,430.95,432.99,434.94,436.89,438.83,440.26,441.62,443.16,444.88,446.42,447.96,449.50,451.22,453.52,456.41,459.37,462.33,465.39,468.61,472.77,477.03,480.49,482.00,482.90,483.01,482.63,482.21,481.87,481.35,480.82,480.33,479.65,479.13,478.99,479.18,479.51,480.23,481.12,481.88,482.28,482.56,482.98,483.48,483.98,484.34,484.58,484.97,485.41,485.64,485.84,485.92,486.04,486.23,486.25,486.29,486.69,487.38,488.04,488.85,489.65,490.43,491.26,492.16,493.16,494.20,495.21,496.12,497.02,498.10,499.27,500.48,502.20,504.20,506.13,507.85,509.79,512.34,515.06,517.69,520.04,522.80,526.35,529.97,532.82,535.34,537.77,540.10,542.29,544.41,546.64,549.21,552.35,556.26,559.66,562.14,564.19,566.19,568.16,570.50,573.28,576.20,578.41,580.37,582.57,585.14,588.17,591.48,595.53,599.02,601.27,602.64,604.00,605.34,606.67,608.04,609.50,611.06,612.63,614.18,615.75,617.34,618.93,620.48,621.98,623.58,625.15,626.63,628.01,629.45,630.50,631.37,632.17,633.04,633.83,634.67,635.59,636.49,637.25,637.70,637.14,635.01,632.29,629.36,626.65,624.28,622.02,620.28,619.01,618.41,618.94,620.25,622.14,624.66,627.63,629.96,631.47,632.72,634.13,636.27,639.84,643.80,647.53,650.58,652.69,654.65,656.63,658.64,660.72,663.20,665.85,668.60,671.46,674.39,677.30,679.95,682.22,684.29,686.40,688.52,691.05,694.81,698.52,701.18,703.27,705.36,707.53,710.25,712.74,714.71,716.43,718.25,720.34,722.80,725.71,728.44,731.19,734.01,736.86,739.62,742.61
389.75,389.74,389.72,389.69,389.71,389.81,390.95,393.76,396.70,399.23,401.14,402.54,403.83,404.77,404.30,402.93,401.41,399.80,397.84,396.34,395.68,395.42,395.41,395.67,396.17,396.91,397.71,398.21,398.84,399.94,401.11,404.28,407.37,409.48,410.82,411.71,412.50,413.22,413.79,414.21,414.88,415.64,416.35,416.99,417.51,418.07,418.73,419.48,420.63,422.82,424.86,425.77,426.92,427.65,428.46,429.88,432.60,435.34,437.50,439.26,440.94,442.43,443.84,445.45,447.30,448.82,450.10,451.15,452.22,453.88,456.15,458.78,461.71,465.01,468.55,472.81,477.04,480.49,482.13,483.45,484.05,484.02,483.65,483.35,483.02,482.77,482.59,482.25,481.91,481.66,481.59,481.80,482.35,483.09,483.70,483.94,484.10,484.40,484.85,485.34,485.72,486.00,486.44,486.95,487.34,487.63,487.88,488.11,488.28,488.30,488.24,488.43,488.91,489.54,490.35,491.19,492.06,492.99,493.94,494.93,495.90,496.79,497.49,498.19,499.06,500.00,500.92,502.29,504.00,505.73,507.30,509.03,511.14,513.58,516.09,518.21,520.44,523.63,527.36,530.94,533.73,536.20,538.54,540.81,543.03,545.39,547.85,550.58,553.99,557.57,560.25,562.43,564.51,566.66,569.14,571.90,574.65,576.76,578.68,580.90,583.50,586.49,589.65,593.80,597.79,600.75,602.18,603.57,604.97,606.37,607.83,609.32,610.88,612.46,614.00,615.55,617.15,618.74,620.26,621.72,623.27,624.82,626.29,627.67,629.17,630.29,631.19,632.00,632.86,633.67,634.53,635.43,636.32,637.29,638.08,638.00,636.52,634.58,632.05,629.42,626.94,624.73,622.97,621.64,621.01,621.59,622.99,624.98,627.21,629.31,630.68,631.75,632.84,634.22,636.35,639.67,643.34,646.91,650.05,652.32,654.46,656.61,658.79,661.07,663.57,666.13,668.78,671.58,674.46,677.24,679.81,682.11,684.28,686.46,688.66,691.27,695.11,698.84,701.44,703.45,705.45,707.42,709.77,711.89,713.63,715.34,717.07,718.88,720.98,723.58,726.16,728.79,731.51,734.26,736.88,739.69
389.46,389.42,389.39,389.45,389.52,389.72,390.78,393.21,396.02,398.53,400.46,401.82,402.81,403.07,402.30,400.85,399.02,396.72,394.49,392.82,391.93,391.52,391.82,392.57,393.93,396.36,398.60,399.84,400.84,402.18,403.35,406.30,409.01,410.72,411.86,412.75,413.55,414.36,415.18,415.79,416.42,417.13,417.85,418.40,418.69,419.01,419.56,420.72,422.93,425.61,427.50,427.92,428.94,429.73,430.28,431.28,434.40,437.59,439.87,441.50,443.07,444.66,446.11,447.73,449.56,450.99,452.12,453.06,453.97,455.03,456.21,458.26,461.21,465.03,469.16,473.32,477.25,480.50,482.18,483.70,484.88,485.46,485.12,484.87,484.62,484.43,484.30,484.00,483.63,483.44,483.47,483.73,484.28,484.96,485.48,485.65,485.75,485.92,486.24,486.69,487.07,487.39,487.87,488.47,489.02,489.42,489.82,490.14,490.27,490.28,490.22,490.23,490.44,491.08,491.99,492.97,493.93,494.87,495.86,496.77,497.67,498.55,499.25,499.84,500.44,501.12,502.01,503.23,504.55,505.85,507.16,508.77,510.48,512.60,514.97,516.89,518.51,520.71,524.03,528.62,531.88,534.46,536.85,539.23,541.66,544.21,546.66,549.00,551.46,554.84,557.72,560.14,562.43,564.99,568.08,570.95,573.37,575.52,577.64,579.97,582.61,585.64,588.85,592.58,596.61,600.24,601.71,603.15,604.64,606.18,607.76,609.30,610.85,612.40,613.95,615.50,617.10,618.68,620.20,621.61,623.09,624.58,626.04,627.50,628.96,630.14,631.10,631.95,632.86,633.72,634.57,635.41,636.21,637.13,637.82,637.88,637.13,636.36,634.84,632.56,629.88,627.80,626.14,624.91,624.38,625.01,626.36,628.13,629.59,630.44,631.19,631.89,632.88,634.25,636.25,639.18,642.52,645.97,649.25,651.70,654.05,656.40,658.76,661.20,663.73,666.24,668.78,671.46,674.24,676.92,679.46,681.83,684.12,686.37,688.63,691.32,695.16,698.89,701.49,703.50,705.48,707.37,709.22,711.00,712.70,714.39,716.04,717.65,719.38,721.45,723.98,726.57,729.17,731.85,734.54,737.27
389.09,389.07,389.10,389.26,389.44,389.70,390.70,392.91,395.44,397.90,399.69,400.71,401.23,401.12,400.13,398.45,396.22,393.68,392.00,391.01,390.58,390.64,391.72,393.51,395.80,398.39,400.38,401.59,402.71,404.24,405.71,408.10,410.22,411.66,412.77,413.76,414.63,415.46,416.34,417.11,417.82,418.55,419.26,419.71,420.06,420.83,422.01,423.46,426.01,428.25,429.59,430.00,431.11,432.25,433.07,434.13,437.13,439.75,441.74,443.38,445.00,446.63,448.19,449.76,451.38,452.83,453.96,454.92,455.80,456.65,457.51,459.18,461.92,465.84,469.83,473.60,477.11,480.08,481.86,483.47,484.97,486.13,486.54,486.46,486.25,486.09,486.00,485.71,485.37,485.22,485.32,485.65,486.22,486.80,487.21,487.35,487.43,487.57,487.79,488.09,488.48,488.89,489.44,490.08,490.68,491.09,491.53,491.87,492.00,492.01,491.98,491.96,492.09,492.66,493.53,494.60,495.71,496.74,497.75,498.63,499.52,500.39,501.06,501.59,502.05,502.57,503.34,504.29,505.45,506.64,507.82,509.28,510.84,512.65,514.61,516.24,517.69,519.46,522.31,526.81,530.46,533.25,535.81,538.38,540.88,543.25,545.51,547.63,549.66,552.46,555.40,558.28,561.17,564.71,568.25,571.20,573.53,575.72,577.86,580.25,582.94,585.97,589.06,592.29,595.89,599.46,601.38,602.98,604.56,606.18,607.79,609.35,610.89,612.45,614.02,615.57,617.17,618.76,620.29,621.77,623.38,625.01,626.53,627.86,629.25,630.34,631.26,632.12,633.00,633.89,634.72,635.48,636.23,637.07,637.55,637.52,636.99,636.51,635.58,634.00,631.97,630.22,628.70,627.75,627.43,627.83,628.62,629.65,630.50,631.04,631.56,632.24,633.09,634.24,636.09,638.70,641.78,645.18,648.69,651.45,653.89,656.19,658.46,660.80,663.35,665.88,668.40,670.97,673.63,676.19,678.69,681.13,683.49,685.82,688.17,690.93,694.82,698.68,701.28,703.19,705.04,706.83,708.52,710.15,711.74,713.33,714.86,716.26,717.74,719.66,721.93,724.50,727.27,730.19,733.18,736.02
388.75,388.78,388.92,389.15,389.44,389.79,390.76,392.79,395.01,397.36,398.87,399.36,399.37,398.98,397.87,396.01,393.44,391.04,390.13,389.92,390.06,390.72,392.57,395.30,398.32,400.66,402.06,403.13,404.37,406.01,407.79,409.62,411.19,412.44,413.62,414.73,415.69,416.55,417.41,418.32,419.13,419.91,420.60,420.98,421.59,422.98,424.84,426.45,428.98,430.58,431.40,431.98,433.20,434.72,435.94,437.20,439.88,441.73,443.41,445.11,446.78,448.44,450.13,451.70,453.10,454.59,455.76,456.77,457.68,458.50,459.33,460.69,463.08,466.77,470.37,473.68,476.77,479.49,481.42,483.12,484.84,486.51,487.77,487.96,487.87,487.77,487.72,487.42,487.11,487.01,487.17,487.57,488.14,488.61,488.91,489.04,489.13,489.27,489.39,489.56,489.95,490.45,491.07,491.74,492.32,492.74,493.18,493.51,493.63,493.65,493.65,493.64,493.75,494.25,495.03,496.16,497.42,498.58,499.62,500.51,501.39,502.25,502.88,503.37,503.74,504.13,504.74,505.43,506.48,507.63,508.77,510.10,511.62,513.20,514.73,516.08,517.48,519.04,521.52,525.60,529.48,532.56,535.36,538.10,540.58,542.72,544.78,546.77,548.55,550.76,553.67,556.91,560.42,564.91,568.79,571.77,574.09,576.34,578.49,580.93,583.69,586.68,589.63,592.43,595.52,598.79,601.13,602.89,604.56,606.24,607.86,609.43,610.98,612.56,614.17,615.72,617.33,618.92,620.49,622.07,623.85,625.64,627.23,628.43,629.69,630.65,631.50,632.35,633.20,634.10,634.90,635.59,636.27,636.98,637.23,637.09,636.64,636.18,635.63,634.72,633.43,632.07,630.71,630.07,629.98,630.09,630.28,630.55,630.95,631.46,631.90,632.63,633.34,634.22,635.88,638.22,641.10,644.48,648.20,651.25,653.71,655.91,658.02,660.20,662.69,665.24,667.75,670.23,672.76,675.18,677.63,680.17,682.63,685.04,687.48,690.31,694.20,698.19,700.85,702.71,704.40,706.08,707.70,709.24,710.72,712.16,713.55,714.78,716.13,718.00,720.01,722.56,725.53,728.83,732.16,735.19
388.60,388.82,389.07,389.35,389.65,390.23,391.33,393.14,395.20,397.10,397.85,397.45,396.98,396.35,395.44,393.85,391.40,390.17,389.80,389.77,390.01,390.99,392.97,395.52,398.22,400.50,402.10,403.58,405.12,406.79,408.45,410.12,411.66,413.02,414.32,415.53,416.63,417.62,418.48,419.39,420.24,421.04,421.76,422.28,423.59,425.37,427.19,428.60,430.43,431.76,432.70,433.57,434.83,436.38,437.86,439.35,441.38,443.11,444.82,446.52,448.15,449.94,451.78,453.50,455.03,456.38,457.60,458.67,459.67,460.73,461.76,462.93,464.61,467.18,470.30,473.23,476.04,478.72,480.96,482.86,484.74,486.62,488.24,489.00,489.37,489.54,489.52,489.19,488.91,488.85,489.05,489.44,489.98,490.37,490.59,490.70,490.83,490.94,491.05,491.24,491.67,492.19,492.80,493.43,494.02,494.39,494.81,495.14,495.23,495.28,495.29,495.29,495.39,495.83,496.53,497.63,498.98,500.34,501.48,502.39,503.25,504.08,504.75,505.17,505.47,505.76,506.16,506.77,507.66,508.70,509.88,511.28,512.87,514.49,516.02,517.32,518.43,520.14,522.69,526.19,529.81,533.35,536.61,539.45,541.72,543.82,545.83,547.76,549.54,551.59,554.18,557.22,560.83,565.45,569.21,572.12,574.49,576.87,579.21,581.82,584.64,587.55,590.44,593.19,596.03,598.88,601.09,602.86,604.58,606.30,607.98,609.63,611.23,612.84,614.45,616.00,617.61,619.26,620.96,622.66,624.45,626.26,627.90,629.12,630.12,630.97,631.79,632.63,633.44,634.30,635.05,635.68,636.25,636.62,636.73,636.62,636.33,635.93,635.42,634.55,633.37,632.27,631.18,630.72,630.69,630.73,630.82,630.98,631.30,631.79,632.28,632.90,633.50,634.25,635.62,637.75,640.53,643.93,647.77,650.82,653.17,655.30,657.37,659.35,661.58,663.96,666.40,668.82,671.22,673.48,675.87,678.55,681.36,683.85,686.37,689.22,692.86,696.86,699.83,701.94,703.53,705.04,706.52,707.99,709.42,710.74,711.95,713.20,714.65,716.51,718.46,720.93,724.03,727.73,731.42,734.56
388.56,388.94,389.27,389.59,390.03,390.81,391.97,393.58,395.48,396.68,396.68,395.71,394.85,394.00,393.17,391.93,390.06,389.69,389.69,389.75,390.07,391.35,393.49,395.81,398.07,400.22,402.02,403.77,405.53,407.20,408.74,410.33,411.88,413.36,414.81,416.15,417.44,418.62,419.58,420.50,421.37,422.19,422.96,423.71,425.36,427.19,428.83,430.11,431.49,432.75,433.88,434.92,436.16,437.68,439.29,440.91,442.52,444.19,445.93,447.66,449.32,451.29,453.30,455.20,456.90,458.32,459.66,460.87,462.01,463.24,464.38,465.42,466.61,468.34,470.96,473.55,476.14,478.77,481.29,483.40,485.44,487.39,489.01,490.12,490.83,491.26,491.37,491.06,490.85,490.85,491.02,491.29,491.74,492.08,492.29,492.37,492.51,492.59,492.72,492.97,493.43,493.95,494.54,495.15,495.70,496.06,496.47,496.77,496.84,496.90,496.93,496.94,497.05,497.46,498.07,499.19,500.64,502.17,503.41,504.33,505.14,505.93,506.55,506.93,507.19,507.43,507.70,508.24,509.01,510.04,511.34,512.79,514.38,515.99,517.51,518.80,520.00,521.92,524.51,527.69,531.18,534.98,538.41,541.13,543.26,545.33,547.32,549.22,551.06,553.05,555.38,558.13,561.55,565.88,569.45,572.33,574.80,577.32,579.87,582.60,585.47,588.34,591.22,593.97,596.67,599.23,601.25,603.01,604.74,606.49,608.18,609.88,611.53,613.16,614.76,616.32,617.92,619.65,621.51,623.40,625.21,627.00,628.61,629.77,630.58,631.32,632.11,632.94,633.70,634.44,635.10,635.65,636.06,636.18,636.19,636.15,635.97,635.63,635.04,634.20,633.21,632.34,631.49,631.17,631.17,631.16,631.18,631.26,631.50,631.93,632.47,633.02,633.57,634.25,635.43,637.33,639.85,643.08,646.94,650.08,652.36,654.39,656.35,658.18,660.15,662.32,664.65,667.05,669.38,671.58,674.00,676.86,679.98,682.61,685.22,688.05,691.35,695.21,698.39,700.79,702.46,703.88,705.26,706.65,708.02,709.22,710.32,711.61,713.18,715.12,717.11,719.51,722.68,726.69,730.69,733.91
388.66,389.10,389.50,389.87,390.61,391.54,392.65,394.04,395.78,395.98,395.34,394.31,393.23,392.19,391.21,390.34,389.72,389.56,389.68,389.81,390.20,391.82,394.29,396.48,398.28,400.15,401.99,403.77,405.53,407.19,408.69,410.24,411.78,413.34,414.97,416.54,418.07,419.53,420.77,421.69,422.54,423.38,424.27,425.37,426.71,428.08,429.43,430.75,432.18,433.63,434.93,435.95,437.07,438.52,440.12,441.73,443.29,444.91,446.63,448.42,450.27,452.46,454.66,456.75,458.67,460.47,462.07,463.53,464.88,466.10,467.16,468.18,469.29,470.74,472.90,475.19,477.60,480.18,482.91,485.21,487.40,489.28,490.38,491.46,492.24,492.87,493.30,493.10,493.01,493.07,493.16,493.09,493.37,493.73,493.99,494.07,494.16,494.24,494.41,494.73,495.19,495.71,496.30,496.88,497.36,497.75,498.14,498.41,498.48,498.50,498.55,498.61,498.75,499.15,499.69,500.89,502.49,504.12,505.50,506.38,507.10,507.78,508.28,508.63,508.89,509.13,509.39,509.84,510.63,511.78,513.31,514.78,516.24,517.71,519.15,520.47,522.38,524.53,527.05,530.29,533.95,537.70,540.81,543.10,545.19,547.23,549.20,551.12,553.04,555.09,557.27,559.69,562.55,566.07,569.45,572.40,575.00,577.66,580.38,583.19,586.07,588.99,591.91,594.67,597.37,599.89,601.70,603.42,605.13,606.84,608.53,610.24,611.89,613.50,615.12,616.67,618.27,620.10,622.16,624.35,626.25,627.95,629.36,630.32,631.06,631.73,632.46,633.28,633.99,634.51,634.99,635.41,635.62,635.66,635.67,635.64,635.51,635.25,634.44,633.71,633.17,632.44,631.81,631.61,631.63,631.56,631.46,631.40,631.50,631.83,632.35,632.95,633.51,634.19,635.34,636.97,638.96,641.72,645.49,648.88,651.18,653.04,654.81,656.54,658.30,660.23,662.38,664.81,667.15,669.48,672.11,675.19,678.48,681.37,684.11,686.82,689.69,693.20,696.40,699.08,701.13,702.59,703.93,705.24,706.48,707.60,708.68,710.02,711.71,713.83,716.00,718.36,721.53,725.73,729.93,733.21
388.80,389.28,389.74,390.25,391.12,392.13,393.22,394.29,395.17,394.83,394.03,393.06,391.93,390.99,390.20,389.63,389.47,389.51,389.77,390.26,391.23,393.27,396.00,398.14,399.67,401.28,403.10,404.94,406.72,408.37,409.75,411.27,412.85,414.44,416.11,417.76,419.38,420.94,422.35,423.35,424.21,424.94,425.60,426.49,427.57,428.79,430.11,431.63,433.37,435.03,436.36,437.19,438.12,439.47,440.99,442.54,444.10,445.70,447.38,449.17,451.16,453.43,455.71,458.01,460.33,462.64,464.56,466.22,467.70,469.00,470.14,471.21,472.37,473.78,475.80,477.81,479.94,482.37,485.23,487.37,489.13,490.53,491.44,492.54,493.54,494.39,494.97,495.12,495.19,495.30,495.37,495.16,495.18,495.41,495.65,495.73,495.80,495.92,496.15,496.49,496.98,497.51,498.08,498.63,499.09,499.51,499.93,500.21,500.28,500.32,500.38,500.46,500.66,501.22,501.76,502.93,504.52,506.17,507.60,508.47,509.16,509.81,510.27,510.64,510.93,511.19,511.48,511.92,512.70,513.84,515.31,516.77,518.13,519.47,520.78,522.09,524.25,526.67,529.47,532.95,536.65,539.90,542.55,544.65,546.79,548.86,550.85,552.79,554.68,556.74,558.90,561.22,563.87,567.09,570.14,572.90,575.46,578.14,580.93,583.77,586.63,589.48,592.38,595.20,597.93,600.38,602.10,603.79,605.49,607.20,608.94,610.75,612.46,614.11,615.75,617.37,619.06,620.94,623.05,625.31,627.31,628.86,629.99,630.75,631.45,632.12,632.70,633.21,633.68,634.01,634.39,634.80,635.01,634.88,634.72,634.52,634.20,633.63,633.09,632.74,632.52,632.05,631.57,631.41,631.43,631.37,631.25,631.14,631.14,631.36,631.91,632.49,633.19,634.05,635.18,636.67,638.31,640.50,643.58,646.87,649.34,651.38,653.19,654.86,656.53,658.28,660.34,662.94,665.37,667.86,670.62,673.77,677.13,680.22,683.06,685.69,688.27,691.20,694.17,696.96,699.33,701.07,702.44,703.70,704.91,706.01,707.24,708.75,710.59,712.87,715.27,717.76,720.95,725.05,729.04,732.32
388.94,389.44,389.96,390.67,391.56,392.60,393.61,394.30,394.10,393.50,392.76,391.89,390.84,390.13,389.66,389.37,389.30,389.52,389.95,390.89,392.63,395.11,398.02,400.13,401.49,402.92,404.70,406.58,408.41,410.04,411.32,412.84,414.45,416.07,417.71,419.38,420.99,422.55,424.10,425.24,426.10,426.66,426.96,427.40,428.28,429.48,430.94,432.76,434.88,436.70,437.96,438.57,439.33,440.60,442.05,443.53,445.06,446.62,448.22,449.96,452.02,454.28,456.59,459.08,461.87,464.74,466.98,468.79,470.34,471.75,473.04,474.26,475.52,477.00,479.02,480.81,482.65,484.88,487.74,489.56,490.69,491.50,492.34,493.51,494.76,495.81,496.51,497.08,497.34,497.51,497.57,497.36,497.11,497.15,497.31,497.39,497.47,497.66,497.93,498.29,498.81,499.35,499.90,500.43,500.89,501.34,501.80,502.11,502.19,502.26,502.34,502.41,502.65,503.42,504.03,505.13,506.63,508.28,509.70,510.58,511.28,511.93,512.41,512.80,513.14,513.44,513.77,514.21,514.98,516.03,517.34,518.75,520.03,521.23,522.41,523.68,525.83,528.53,531.75,535.54,539.13,541.75,543.91,545.99,548.20,550.32,552.36,554.32,556.16,558.21,560.41,562.74,565.34,568.48,571.16,573.63,576.08,578.70,581.47,584.29,587.10,589.84,592.72,595.63,598.39,600.76,602.44,604.13,605.85,607.59,609.39,611.35,613.15,614.86,616.56,618.25,620.06,622.00,624.06,626.27,628.33,629.70,630.53,631.11,631.74,632.39,632.79,632.88,633.05,633.22,633.54,633.96,634.18,633.84,633.42,632.98,632.37,631.38,631.29,631.41,631.43,631.33,631.04,630.91,630.91,630.90,630.83,630.68,630.59,630.71,631.28,631.86,632.72,633.82,634.95,636.35,637.74,639.35,641.53,644.47,647.16,649.50,651.48,653.11,654.74,656.42,658.50,661.29,663.87,666.51,669.36,672.49,675.86,679.11,682.01,684.58,686.97,689.26,691.89,694.66,697.26,699.34,700.81,702.10,703.34,704.49,705.93,707.65,709.66,712.08,714.72,717.42,720.62,724.47,728.07,731.32
389.02,389.51,390.07,390.91,391.78,392.58,393.17,393.34,392.90,392.28,391.55,390.77,390.11,389.67,389.35,389.20,389.34,389.59,390.22,391.59,393.83,396.45,399.13,401.18,402.71,404.24,406.00,407.77,409.55,411.34,412.92,414.46,416.06,417.71,419.34,420.99,422.58,424.15,425.72,426.98,427.91,428.40,428.48,428.66,429.35,430.70,432.57,434.68,436.89,438.52,439.56,440.23,441.28,442.70,444.18,445.60,447.00,448.21,449.55,451.08,452.86,454.91,457.16,459.81,462.96,466.36,468.84,470.65,472.05,473.32,474.86,476.46,477.99,479.48,481.50,483.34,485.11,487.03,489.35,490.77,491.67,492.40,493.27,494.50,495.77,496.93,497.90,498.74,499.25,499.56,499.68,499.56,499.29,499.13,499.10,499.19,499.26,499.52,499.86,500.24,500.74,501.31,501.89,502.44,502.90,503.32,503.77,504.12,504.27,504.35,504.39,504.43,504.62,505.34,506.17,507.28,508.67,510.30,511.80,512.75,513.50,514.15,514.66,515.07,515.41,515.74,516.10,516.50,517.18,518.19,519.47,520.56,521.73,522.88,524.00,525.23,527.09,529.92,533.48,537.33,540.45,542.79,544.90,547.04,549.31,551.50,553.61,555.64,557.61,559.72,561.98,564.35,566.87,569.74,572.25,574.62,576.98,579.38,581.80,584.38,587.05,589.79,592.90,595.93,598.67,600.97,602.64,604.43,606.27,608.12,610.05,612.08,614.01,615.83,617.53,619.27,621.17,623.17,625.23,627.31,629.11,630.21,630.85,631.32,631.63,631.96,632.15,632.15,632.13,632.22,632.48,632.72,632.51,631.86,631.15,630.45,629.71,628.89,628.90,629.09,629.35,630.02,630.31,630.41,630.44,630.43,630.36,630.13,629.91,629.90,630.41,631.16,632.13,633.26,634.43,635.63,636.91,638.27,639.86,642.17,644.84,647.36,649.46,651.02,652.59,654.64,657.18,660.06,662.76,665.49,668.31,671.32,674.68,677.95,680.81,683.30,685.58,687.73,690.04,692.46,694.83,696.90,698.70,700.34,701.85,703.22,704.84,706.75,708.92,711.38,714.16,717.06,720.18,723.59,727.00,730.26
389.05,389.54,390.11,390.96,391.74,392.26,392.45,392.20,391.71,391.16,390.51,389.86,389.57,389.34,389.12,389.06,389.35,389.59,390.29,391.74,394.04,396.79,399.41,401.50,403.17,404.77,406.52,408.26,410.08,412.08,414.03,415.77,417.48,419.21,420.85,422.49,424.08,425.67,427.27,428.64,429.62,430.11,430.15,430.25,430.80,432.17,434.24,436.60,438.84,440.30,441.22,442.01,443.37,444.96,446.49,447.87,449.12,450.09,451.22,452.56,454.06,455.83,457.95,460.67,464.11,467.82,470.38,472.16,473.50,474.71,476.37,478.19,479.87,481.33,483.34,485.29,487.09,488.81,490.56,491.69,492.52,493.29,494.21,495.46,496.73,497.98,499.19,500.22,500.96,501.44,501.69,501.71,501.51,501.24,501.09,501.19,501.26,501.57,501.94,502.31,502.75,503.31,503.91,504.47,504.93,505.33,505.77,506.15,506.37,506.43,506.44,506.44,506.59,507.25,508.26,509.42,510.75,512.33,513.85,514.91,515.72,516.38,516.97,517.40,517.77,518.13,518.55,518.97,519.64,520.66,521.92,522.73,523.66,524.62,525.60,526.80,528.49,531.45,535.19,538.88,541.44,543.62,545.75,547.96,550.28,552.56,554.75,556.87,558.98,561.12,563.42,565.81,568.28,570.94,573.36,575.69,577.98,580.16,582.22,584.47,586.91,589.60,592.87,596.05,598.88,601.20,602.94,604.83,606.75,608.71,610.74,612.82,614.86,616.77,618.52,620.28,622.21,624.23,626.25,628.18,629.66,630.50,630.96,631.29,631.33,631.36,631.39,631.36,631.22,631.17,631.26,631.23,630.60,629.72,628.79,627.89,627.09,626.43,626.33,626.41,626.74,627.84,628.51,628.84,629.03,629.26,629.41,629.24,628.99,628.99,629.64,630.59,631.65,632.75,633.83,634.83,635.96,637.14,638.42,640.24,642.75,645.28,647.45,649.09,650.72,653.07,655.92,658.80,661.51,664.26,667.06,670.00,673.32,676.58,679.45,681.92,684.11,686.19,688.27,690.38,692.47,694.48,696.54,698.51,700.33,702.04,703.87,705.99,708.34,710.90,713.77,716.81,719.86,722.92,726.18,729.41
389.03,389.48,389.99,390.61,391.08,391.35,391.35,391.05,390.59,390.22,389.86,389.52,389.32,389.14,388.97,388.93,389.18,389.41,389.79,390.41,391.71,394.70,397.93,400.31,401.90,403.38,405.11,407.09,409.25,411.53,413.84,416.22,418.41,420.33,422.02,423.70,425.37,427.03,428.68,430.14,431.11,431.73,432.12,432.53,433.07,434.00,435.58,438.14,440.34,441.92,443.05,444.01,445.51,447.16,448.76,450.17,451.27,452.40,453.58,454.83,456.24,457.60,459.44,462.07,465.58,469.09,471.35,473.13,474.73,476.15,477.50,479.04,480.51,481.81,483.81,485.89,487.92,489.76,491.13,492.32,493.31,494.19,495.15,496.40,497.70,499.00,500.26,501.38,502.24,502.95,503.49,503.70,503.72,503.59,503.53,503.69,503.74,504.03,504.36,504.64,504.94,505.40,505.94,506.47,506.92,507.32,507.76,508.18,508.45,508.45,508.44,508.44,508.59,509.24,510.30,511.56,512.93,514.38,515.81,517.02,517.93,518.59,519.34,519.85,520.32,520.80,521.31,521.86,522.79,523.99,525.20,525.90,526.32,526.69,527.24,528.42,530.41,533.53,537.09,540.16,542.17,544.24,546.42,548.67,551.04,553.39,555.73,558.00,560.14,562.25,564.47,566.84,569.38,572.01,574.49,576.87,579.11,581.11,582.99,584.77,586.73,589.25,592.38,595.79,598.96,601.59,603.54,605.47,607.40,609.37,611.44,613.52,615.59,617.61,619.49,621.18,623.02,624.92,626.82,628.59,629.79,630.39,630.64,630.74,630.69,630.65,630.63,630.60,630.44,630.11,629.75,629.29,628.46,627.55,626.62,625.74,624.95,624.16,623.58,623.25,623.23,623.57,623.95,624.43,625.14,626.22,627.19,627.47,627.51,627.84,629.24,630.39,631.50,632.50,633.13,633.98,634.81,635.85,637.41,639.28,641.39,643.52,645.65,647.79,649.77,652.00,654.54,657.30,659.67,662.33,665.20,668.25,671.47,674.66,677.68,680.36,682.42,684.40,686.49,688.56,690.49,692.44,694.45,696.54,698.73,700.91,703.14,705.48,708.06,711.01,713.85,716.87,719.92,722.95,726.04,729.16
388.83,389.24,389.69,390.13,390.41,390.52,390.44,390.17,389.84,389.58,389.37,389.17,389.02,388.89,388.79,388.80,389.04,389.30,389.51,389.75,390.46,392.84,395.85,398.35,400.28,402.09,404.16,406.49,408.91,411.33,413.82,416.46,418.86,420.88,422.62,424.35,426.07,427.79,429.44,430.85,431.84,432.70,433.58,434.46,435.31,436.14,437.29,439.38,441.29,442.98,444.40,445.59,447.19,448.88,450.53,452.04,453.24,454.47,455.76,457.12,458.50,459.65,461.14,463.41,466.59,469.86,472.03,473.89,475.69,477.27,478.59,479.90,481.13,482.33,484.31,486.40,488.46,490.31,491.52,492.69,493.73,494.72,495.82,497.09,498.34,499.64,501.01,502.29,503.38,504.28,505.02,505.54,505.84,505.92,505.99,506.20,506.21,506.46,506.74,506.97,507.21,507.57,508.03,508.55,509.06,509.50,509.99,510.46,510.76,510.72,510.68,510.67,510.81,511.44,512.46,513.79,515.23,516.67,518.11,519.48,520.57,521.38,522.23,522.84,523.37,523.87,524.38,525.00,526.06,527.29,528.42,529.10,529.36,529.50,529.79,530.74,532.88,535.85,538.91,541.30,542.99,544.86,546.91,549.14,551.62,554.14,556.63,559.00,561.08,563.10,565.30,567.67,570.19,572.83,575.40,577.85,580.10,582.02,583.83,585.46,587.19,589.43,592.34,595.69,598.99,601.88,604.13,606.12,608.05,610.02,612.11,614.22,616.31,618.35,620.23,621.79,623.55,625.26,626.77,627.98,628.88,629.41,629.63,629.57,629.18,628.80,628.48,628.19,627.91,627.58,627.26,626.85,626.12,625.36,624.48,623.60,622.77,621.78,620.72,620.07,619.90,619.90,620.16,620.94,622.16,623.74,625.23,626.04,626.59,627.34,628.97,630.31,631.54,632.63,633.28,633.99,634.69,635.80,637.69,639.85,642.10,644.38,646.63,648.64,650.50,652.38,654.44,656.79,658.73,661.01,663.67,666.63,669.70,672.57,675.54,678.41,680.51,682.49,684.65,686.78,688.70,690.65,692.78,695.07,697.48,699.95,702.71,705.62,708.61,711.60,714.35,717.17,720.11,723.14,726.20,729.28
388.47,388.86,389.24,389.56,389.75,389.76,389.67,389.50,389.37,389.17,388.98,388.81,388.67,388.58,388.58,388.70,388.94,389.24,389.44,389.65,390.12,391.34,393.54,396.05,398.56,400.99,403.63,406.39,409.04,411.44,413.93,416.51,418.90,420.96,422.74,424.50,426.25,427.99,429.62,430.88,431.92,433.08,434.50,435.93,437.33,438.36,439.17,440.35,441.82,443.61,445.34,446.81,448.47,450.17,451.87,453.52,455.00,456.30,457.80,459.39,460.80,461.89,463.03,464.73,467.28,470.28,472.50,474.48,476.40,478.13,479.63,480.80,481.78,482.90,484.82,486.78,488.71,490.49,491.74,492.81,493.84,494.94,496.27,497.53,498.68,499.96,501.48,502.99,504.37,505.45,506.34,507.24,507.87,508.21,508.45,508.70,508.67,508.85,509.10,509.33,509.56,509.84,510.23,510.74,511.32,511.85,512.42,512.93,513.23,513.18,513.11,513.08,513.21,513.78,514.73,516.08,517.61,519.15,520.69,522.20,523.53,524.60,525.51,526.22,526.78,527.23,527.67,528.32,529.38,530.56,531.59,532.30,532.68,532.87,533.02,533.60,535.74,538.32,540.64,542.32,543.88,545.48,547.27,549.42,552.07,554.80,557.46,559.88,561.82,563.72,565.93,568.31,570.76,573.42,576.10,578.64,580.94,582.88,584.69,586.42,588.13,590.06,592.71,595.79,599.02,602.13,604.68,606.75,608.69,610.66,612.76,614.90,617.00,618.99,620.77,622.17,623.81,625.24,626.18,626.55,627.14,627.68,628.00,627.83,626.89,626.01,625.23,624.54,624.06,623.97,624.02,623.98,623.59,623.09,622.31,621.39,620.45,619.21,617.70,616.83,616.71,616.75,617.13,618.32,620.04,621.87,623.62,625.01,626.20,627.38,628.86,630.36,631.78,633.07,634.09,634.69,635.42,636.75,638.99,641.58,644.36,647.19,649.69,651.10,652.49,653.86,655.36,657.14,658.61,660.37,662.57,665.28,668.14,670.50,673.28,676.31,678.56,680.60,682.88,685.16,687.16,689.17,691.55,694.05,696.57,699.17,702.55,706.24,709.73,712.52,715.12,717.67,720.41,723.45,726.59,729.69
