456.60,452.66,446.74,439.10,431.01,425.56,421.81,419.29,417.84,416.58,416.23,417.15,419.07,421.39,425.30,429.36,432.64,434.54,436.00,436.81,436.93,436.18,434.49,432.64,430.69,428.57,426.51,426.65,427.48,428.46,429.44,430.35,431.21,431.86,432.22,432.21,431.73,430.84,429.40,427.19,424.71,422.20,419.75,417.31,414.66,411.94,411.64,414.04,418.56,422.44,425.10,426.91,428.03,428.46,427.91,427.23,426.52,425.53,426.84,429.73,433.45,437.57,441.72,445.88,449.19,451.26,452.68,453.83,454.68,455.37,456.05,456.45,456.56,456.63,456.88,457.27,457.73,458.13,458.48,458.82,458.42,456.84,454.65,452.49,450.34,446.10,441.49,437.84,435.98,435.05,434.46,433.94,433.24,432.13,430.63,428.87,427.01,425.60,424.00,422.43,420.93,419.29,417.25,414.69,411.77,408.58,404.48,400.52,397.00,394.02,391.39,389.25,387.33,385.82,385.49,386.27,386.55,385.99,384.95,385.40,387.37,389.77,392.16,394.45,396.78,399.23,401.87,404.74,407.48,414.79,421.86,426.05,430.20,435.15,440.21,445.06,449.21,450.25,450.28,448.44,443.57,438.36,433.40,428.20,422.88,418.46,414.97,411.58,407.53,402.17,397.36,393.02,390.20,389.43,389.05,388.98,388.93,388.88,388.97,389.05,389.13,389.21,389.32,389.51,389.76,390.23,391.02,391.83,390.72,389.93,389.75,389.67,389.54,389.40,389.28,389.20,389.07,389.05,389.06,389.07,389.13,389.15,389.16,389.18,389.24,389.25,389.26,389.29,389.33,389.34,389.34,389.31,389.19,388.95,388.65,388.34,388.05,387.78,387.56,387.44,387.32,387.15,386.94,386.78,386.62,386.43,386.09,385.44,384.80,384.18,383.56,382.95,382.53,382.70,383.33,384.03,384.70,385.33,385.97,386.63,387.19,387.74,388.28,388.84,389.39,389.89,390.13,389.96,389.19,388.02,386.81,385.76,384.94,384.17,383.38,382.74,382.37,382.44,382.66,382.94,383.21,383.44,383.67,383.91,384.17,384.47,384.79,385.10,385.41,385.75,386.12,386.44,386.74,386.99,387.16,387.25
457.51,453.08,447.14,440.11,433.49,428.90,425.19,422.20,419.94,417.74,416.46,415.95,416.26,417.87,421.17,424.88,428.30,430.97,433.08,434.33,434.89,434.71,433.66,432.06,430.11,427.77,425.15,424.93,425.64,426.57,427.47,428.38,429.21,429.90,430.34,430.37,429.82,428.97,427.64,425.53,423.10,420.65,418.27,415.89,413.26,410.52,410.12,412.37,416.81,420.72,423.05,424.42,425.14,425.04,423.89,422.69,422.04,422.75,425.97,429.85,433.73,437.46,441.13,445.18,448.67,450.95,452.10,452.98,453.48,453.81,454.34,454.39,454.18,454.04,454.22,454.58,455.22,455.80,456.25,456.77,456.89,455.77,453.89,451.86,449.46,444.86,439.73,435.32,432.35,430.65,429.68,429.01,428.22,427.09,425.85,424.48,423.03,421.89,420.83,419.71,418.47,416.97,415.14,412.72,409.96,407.05,403.45,399.77,396.23,392.98,390.26,388.22,386.47,385.05,384.49,384.86,385.02,384.73,384.34,385.47,387.37,389.52,391.77,394.01,396.32,398.72,401.38,404.48,407.48,415.07,422.09,425.80,429.60,434.51,439.64,444.60,448.88,450.11,450.20,448.46,443.85,438.82,433.48,428.16,423.10,418.63,415.15,411.82,407.79,402.28,397.27,392.80,389.94,389.23,389.02,389.06,389.00,388.83,388.85,388.85,388.89,388.99,389.14,389.33,389.50,389.75,390.21,390.93,390.35,389.90,389.77,389.66,389.50,389.37,389.26,389.14,388.99,388.94,388.92,388.93,388.98,388.99,389.00,389.04,389.08,389.08,389.11,389.14,389.18,389.18,389.18,389.16,389.05,388.78,388.48,388.17,387.86,387.56,387.30,387.11,386.96,386.82,386.63,386.46,386.29,386.10,385.83,385.25,384.62,384.00,383.39,382.80,382.57,382.87,383.51,384.20,384.90,385.56,386.21,386.87,387.47,388.05,388.60,389.15,389.67,390.02,390.13,389.84,388.92,387.72,386.44,385.26,384.29,383.47,382.85,382.50,382.42,382.65,382.88,383.15,383.42,383.68,383.91,384.14,384.41,384.72,385.03,385.34,385.67,386.01,386.36,386.67,386.98,387.27,387.51,387.65
458.22,453.46,447.85,441.85,436.86,432.81,429.34,426.05,422.85,419.95,417.77,415.65,414.10,414.99,417.29,420.20,423.53,427.16,430.08,431.70,432.54,432.79,432.54,431.27,429.32,426.78,423.86,423.24,423.75,424.62,425.51,426.51,427.37,428.10,428.62,428.63,427.96,427.05,425.85,424.06,421.70,419.29,416.95,414.63,412.22,409.56,408.94,410.73,414.69,418.80,420.89,421.70,421.82,421.13,419.58,418.05,417.71,420.67,425.63,430.12,433.80,436.89,439.75,443.60,447.40,450.15,451.08,451.74,452.02,452.14,452.44,452.11,451.60,451.26,451.30,451.57,452.40,453.20,453.81,454.45,455.21,454.75,453.33,451.38,448.54,443.70,438.37,433.43,429.07,426.13,424.45,423.49,422.46,421.31,420.46,419.75,419.01,418.25,417.87,417.31,416.30,414.84,413.11,410.85,408.24,405.48,402.38,398.98,395.40,391.94,389.33,387.48,385.83,384.36,383.49,383.46,383.52,383.58,383.99,385.54,387.27,389.15,391.22,393.46,395.77,398.11,400.76,404.09,407.40,415.09,421.99,425.37,428.82,433.79,439.03,444.01,448.29,449.86,450.06,448.36,443.99,439.16,433.37,427.77,422.86,418.44,414.95,411.56,407.46,401.97,396.97,392.56,389.75,389.08,389.11,389.23,389.17,388.96,388.84,388.70,388.69,388.80,389.00,389.18,389.34,389.56,389.82,389.93,389.86,389.80,389.74,389.60,389.45,389.34,389.24,389.08,388.93,388.84,388.80,388.80,388.81,388.81,388.86,388.90,388.91,388.91,388.96,389.00,389.01,389.01,389.01,389.01,388.91,388.61,388.30,387.99,387.69,387.38,387.07,386.78,386.59,386.48,386.32,386.16,385.96,385.77,385.55,385.05,384.45,383.83,383.21,382.63,382.63,383.05,383.69,384.38,385.07,385.77,386.43,387.06,387.74,388.37,388.95,389.50,389.98,390.15,390.07,389.62,388.59,387.38,386.09,384.82,383.69,382.85,382.48,382.47,382.65,382.88,383.12,383.35,383.62,383.90,384.14,384.38,384.65,384.95,385.26,385.58,385.93,386.29,386.60,386.91,387.22,387.53,387.82,388.04
458.83,454.46,450.20,445.70,441.10,437.35,433.91,430.42,426.78,423.25,420.16,417.35,414.92,413.58,414.99,417.24,419.78,422.64,425.60,428.23,429.94,430.53,430.54,429.58,427.57,424.77,421.89,421.34,421.83,422.69,423.74,424.86,425.98,426.80,427.19,427.13,426.54,425.49,424.16,422.52,420.30,418.03,415.83,413.72,411.49,408.42,407.84,409.93,413.58,416.92,418.50,418.55,417.42,416.13,414.44,413.63,414.85,419.47,424.61,428.99,432.48,435.19,437.70,440.64,443.90,447.03,448.90,449.94,450.26,450.10,449.64,448.85,448.00,447.39,447.29,447.70,448.81,450.35,451.90,452.75,453.52,453.48,452.60,450.75,447.47,442.56,437.43,432.59,427.37,422.95,420.24,418.90,418.01,417.31,416.78,416.29,415.76,415.41,415.37,415.06,414.21,412.90,411.20,409.04,406.56,403.91,401.11,397.81,394.20,390.73,388.54,386.79,385.12,383.56,382.47,382.28,382.36,382.75,383.70,385.20,386.84,388.56,390.45,392.69,395.09,397.52,400.16,403.39,406.97,414.89,421.88,425.19,428.56,433.56,438.89,443.94,448.12,449.79,449.94,448.14,443.72,438.69,432.61,426.93,422.13,417.75,414.11,410.59,406.55,401.52,397.24,393.76,391.11,389.59,389.49,389.48,389.34,389.13,388.97,388.78,388.65,388.64,388.80,389.08,389.26,389.41,389.53,389.57,389.61,389.63,389.61,389.53,389.39,389.29,389.18,389.02,388.87,388.78,388.70,388.63,388.64,388.67,388.71,388.75,388.79,388.79,388.81,388.83,388.84,388.88,388.89,388.86,388.75,388.44,388.13,387.82,387.51,387.20,386.89,386.58,386.32,386.13,385.97,385.82,385.64,385.47,385.27,384.85,384.27,383.65,383.03,382.47,382.69,383.25,383.90,384.56,385.25,385.94,386.61,387.24,387.93,388.60,389.24,389.80,390.11,390.19,389.81,389.01,387.85,386.59,385.32,384.06,382.99,382.57,382.51,382.66,382.89,383.12,383.35,383.58,383.82,384.09,384.37,384.61,384.88,385.19,385.50,385.84,386.19,386.53,386.83,387.14,387.48,387.82,388.12,388.39
459.40,455.56,452.56,449.40,445.21,441.69,438.26,434.65,430.78,426.74,422.89,419.53,416.34,412.83,413.12,414.65,416.46,418.44,421.13,424.41,426.80,427.78,428.09,427.54,425.61,422.75,420.10,419.53,419.99,420.91,422.12,423.40,424.72,425.56,425.83,425.69,425.18,424.06,422.61,421.05,419.04,416.94,414.91,412.97,410.87,407.37,406.76,409.10,412.51,415.08,416.10,415.46,413.34,411.61,409.94,409.95,412.56,418.16,423.17,427.28,430.56,433.02,435.35,437.50,440.14,443.35,445.95,447.40,447.85,447.47,446.35,445.08,443.84,442.93,442.63,443.11,444.50,446.82,449.46,450.83,451.80,452.17,451.70,449.82,446.16,441.32,436.51,431.93,426.30,420.71,416.88,414.85,413.99,413.65,413.37,413.02,412.68,412.72,412.93,412.79,412.10,410.96,409.36,407.31,404.99,402.49,399.82,396.58,393.02,389.69,387.83,386.11,384.39,382.76,381.51,381.25,381.45,382.14,383.47,384.86,386.40,387.99,389.70,391.85,394.33,396.87,399.56,402.74,406.52,414.54,421.63,425.09,428.49,433.58,439.04,444.16,448.25,449.84,449.83,447.88,443.34,438.06,432.03,426.36,421.44,417.00,413.13,409.56,405.88,401.70,398.38,395.93,393.52,391.15,390.38,389.87,389.52,389.31,389.13,388.90,388.66,388.55,388.72,388.97,389.14,389.25,389.31,389.34,389.41,389.44,389.44,389.44,389.32,389.24,389.12,388.97,388.83,388.73,388.60,388.48,388.48,388.53,388.56,388.59,388.65,388.65,388.66,388.67,388.68,388.74,388.75,388.71,388.57,388.26,387.95,387.64,387.33,387.02,386.71,386.40,386.10,385.82,385.64,385.47,385.31,385.16,384.97,384.64,384.09,383.48,382.87,382.37,382.77,383.44,384.11,384.74,385.43,386.12,386.79,387.43,388.11,388.74,389.35,389.87,390.06,390.01,389.31,388.21,386.94,385.63,384.40,383.28,382.47,382.46,382.66,382.89,383.12,383.35,383.58,383.82,384.05,384.29,384.58,384.84,385.12,385.42,385.74,386.11,386.45,386.76,387.07,387.39,387.75,388.09,388.40,388.71
459.90,456.60,454.01,451.43,448.44,445.05,441.69,438.21,434.38,430.17,426.03,422.01,417.80,413.17,411.57,412.23,413.86,415.62,417.54,420.02,422.24,423.79,424.82,424.96,423.58,421.26,419.20,418.07,418.44,419.56,420.91,422.36,423.54,424.25,424.46,424.25,423.79,422.80,421.42,419.88,418.19,416.31,414.40,412.50,410.38,406.67,405.68,407.68,411.02,413.40,413.84,412.80,410.75,409.09,407.77,408.26,411.09,416.05,420.90,424.69,427.64,430.13,432.43,434.60,436.91,439.34,441.38,442.98,443.64,443.36,442.13,440.34,438.61,437.31,436.73,436.86,438.48,441.46,445.13,447.91,449.99,450.84,450.36,448.18,444.25,439.72,435.40,431.26,426.17,420.48,415.49,411.87,410.44,409.96,409.70,409.55,409.64,410.00,410.36,410.38,409.91,408.96,407.61,405.81,403.74,401.48,398.61,395.36,392.10,389.21,387.27,385.44,383.66,382.00,380.76,380.58,381.04,381.98,383.35,384.74,386.18,387.63,389.14,390.93,393.37,396.07,398.99,402.37,406.21,413.89,420.98,425.02,428.69,434.07,439.75,444.98,449.01,450.10,449.77,447.61,442.81,437.40,432.34,426.89,421.13,416.37,412.08,408.82,406.25,403.85,401.79,400.13,398.11,395.38,392.61,390.64,389.70,389.47,389.26,388.98,388.69,388.65,388.97,388.85,388.84,389.04,389.31,389.15,389.17,389.21,389.22,389.27,389.24,389.17,389.06,388.92,388.82,388.69,388.55,388.41,388.37,388.37,388.41,388.46,388.48,388.48,388.52,388.55,388.56,388.57,388.58,388.54,388.39,388.08,387.77,387.46,387.16,386.85,386.54,386.23,385.92,385.62,385.36,385.14,384.96,384.81,384.64,384.44,383.92,383.30,382.74,382.45,382.93,383.62,384.29,384.92,385.60,386.30,386.98,387.65,388.29,388.65,388.95,389.29,389.64,389.24,388.29,387.06,385.71,384.40,383.27,382.61,382.51,382.67,382.89,383.13,383.36,383.59,383.82,384.05,384.28,384.52,384.77,385.05,385.35,385.66,385.97,386.34,386.69,386.99,387.31,387.67,388.01,388.33,388.64,388.94
460.19,457.28,454.95,452.69,450.37,447.33,444.17,440.88,437.27,432.98,428.61,424.11,419.20,413.72,410.54,410.05,411.10,412.69,414.24,416.31,418.41,420.22,421.56,422.21,421.48,419.84,418.22,416.84,417.18,418.40,419.80,421.25,422.31,422.90,423.07,422.83,422.38,421.45,420.17,418.69,417.18,415.49,413.70,411.78,409.45,405.75,404.33,405.73,409.09,411.38,411.62,410.48,408.58,406.93,406.13,407.13,410.12,414.55,418.66,421.80,424.31,426.61,428.88,431.36,433.73,435.74,437.38,438.74,439.22,438.69,437.09,435.21,433.52,432.25,431.59,431.58,432.95,435.92,440.05,443.83,446.65,447.93,447.72,445.76,442.20,438.38,434.66,430.83,426.04,420.38,414.76,409.99,407.29,406.32,405.97,406.06,406.65,407.33,407.80,407.97,407.71,406.94,405.79,404.23,402.38,400.29,397.57,394.53,391.52,388.82,386.75,384.79,382.94,381.24,380.01,380.02,380.73,381.84,383.23,384.60,385.94,387.31,388.72,390.30,392.78,395.61,398.65,402.11,405.98,413.09,420.11,425.05,429.32,435.05,440.67,445.59,449.38,450.19,449.59,447.24,442.51,437.60,433.43,428.61,422.94,417.74,413.53,410.60,408.54,406.79,405.20,403.67,401.58,398.50,394.73,391.82,390.16,389.50,389.19,388.88,388.65,388.63,388.83,388.61,388.65,388.90,389.14,388.92,388.94,388.97,388.99,389.06,389.07,389.03,388.96,388.86,388.78,388.64,388.49,388.35,388.28,388.25,388.27,388.31,388.31,388.33,388.38,388.40,388.41,388.43,388.41,388.38,388.25,387.94,387.63,387.32,387.01,386.71,386.39,386.09,385.78,385.47,385.16,384.90,384.68,384.48,384.30,384.15,383.70,383.12,382.62,382.58,383.11,383.79,384.47,385.12,385.79,386.39,386.94,387.45,387.92,388.14,388.29,388.51,388.84,388.14,387.04,385.79,384.51,383.40,382.66,382.43,382.66,382.89,383.13,383.36,383.59,383.82,384.05,384.29,384.52,384.75,384.98,385.28,385.58,385.90,386.24,386.59,386.92,387.23,387.55,387.92,388.25,388.56,388.87,389.19
460.31,457.64,455.45,453.31,451.20,448.68,445.78,442.76,439.50,435.22,430.67,425.84,420.51,414.45,410.02,408.20,408.30,409.66,411.16,413.13,415.17,417.00,418.35,419.35,419.34,418.46,417.15,415.78,416.15,417.39,418.76,420.10,421.01,421.53,421.66,421.42,420.93,420.05,418.87,417.51,416.05,414.50,412.83,410.87,408.17,404.66,402.76,403.34,406.72,408.99,409.33,408.38,406.67,405.06,404.88,406.42,409.53,413.53,416.46,418.74,420.71,422.61,424.84,427.80,430.50,432.43,433.81,434.66,434.64,433.61,431.47,429.83,428.62,427.71,427.13,427.15,427.91,430.36,434.46,438.87,442.08,443.76,444.03,442.75,440.09,437.26,434.21,430.60,425.90,420.38,414.61,409.06,404.56,402.76,402.23,402.55,403.70,404.68,405.25,405.55,405.51,404.92,403.91,402.57,400.92,398.94,396.66,394.01,391.21,388.49,386.25,384.17,382.21,380.47,379.27,379.55,380.49,381.72,383.10,384.44,385.71,387.03,388.43,389.94,392.52,395.45,398.54,401.95,405.81,412.21,419.13,425.17,430.33,436.39,441.71,445.99,449.41,450.14,449.29,446.78,442.39,438.47,435.09,431.24,426.43,420.80,417.06,414.46,412.36,410.37,408.57,406.63,404.09,400.67,396.69,393.29,390.84,389.40,388.97,388.66,388.57,388.55,388.42,388.29,388.57,388.81,388.81,388.68,388.71,388.74,388.76,388.83,388.84,388.83,388.82,388.79,388.72,388.58,388.43,388.30,388.22,388.14,388.12,388.13,388.14,388.20,388.22,388.23,388.25,388.30,388.26,388.23,388.13,387.82,387.51,387.20,386.89,386.58,386.28,385.97,385.66,385.35,385.04,384.74,384.44,384.18,383.96,383.80,383.45,382.95,382.51,382.75,383.30,383.97,384.65,385.31,385.94,386.37,386.67,386.89,387.10,387.26,387.42,387.60,387.73,386.79,385.62,384.45,383.36,382.63,382.52,382.67,382.90,383.13,383.36,383.60,383.83,384.06,384.29,384.52,384.75,384.99,385.22,385.51,385.82,386.14,386.51,386.83,387.14,387.45,387.78,388.15,388.48,388.79,389.10,389.42
460.24,457.83,455.72,453.62,451.53,449.14,446.41,443.60,440.63,436.67,431.96,426.76,421.19,415.53,411.28,408.43,406.79,406.57,407.66,409.60,411.81,413.97,415.66,416.92,417.33,416.90,415.77,414.55,414.93,416.14,417.48,418.75,419.60,420.14,420.35,420.10,419.58,418.73,417.60,416.21,414.86,413.36,411.78,409.92,407.12,403.74,401.32,400.81,403.11,404.97,405.43,404.91,403.82,402.79,403.28,405.29,408.48,412.05,414.72,416.64,418.14,419.51,421.14,423.52,426.15,428.51,429.89,430.53,430.31,429.25,427.44,425.94,424.88,424.10,423.59,423.63,424.36,426.76,430.72,434.80,438.01,440.15,441.04,440.26,438.41,436.12,433.49,430.24,425.76,420.43,414.68,408.79,403.39,400.24,399.07,399.34,400.71,401.94,402.64,403.07,403.21,402.77,401.93,400.84,399.44,397.57,395.61,393.22,390.65,388.13,385.87,383.69,381.62,379.71,378.38,378.90,380.09,381.49,382.94,384.34,385.70,387.07,388.47,390.00,392.63,395.62,398.74,402.08,405.78,411.95,419.00,425.71,431.63,437.42,442.12,445.83,448.98,449.93,449.05,446.54,442.51,438.81,435.57,432.45,429.02,424.81,421.08,418.20,415.88,413.73,411.60,409.13,405.97,401.97,397.78,394.20,391.13,388.97,388.73,388.59,388.65,388.69,388.52,388.27,388.56,388.67,388.45,388.41,388.47,388.50,388.52,388.59,388.60,388.63,388.65,388.65,388.60,388.50,388.39,388.27,388.16,388.04,387.98,387.97,388.00,388.04,388.06,388.07,388.11,388.14,388.12,388.08,387.96,387.65,387.35,387.04,386.73,386.42,386.11,385.80,385.49,385.18,384.88,384.57,384.26,383.96,383.70,383.50,383.22,382.79,382.43,382.88,383.48,384.10,384.67,385.09,385.48,385.76,385.96,386.12,386.24,386.38,386.55,386.70,386.61,385.57,384.38,383.39,382.79,382.55,382.67,382.90,383.13,383.37,383.60,383.85,384.11,384.34,384.57,384.81,385.04,385.27,385.50,385.79,386.08,386.36,386.63,386.93,387.24,387.55,387.87,388.25,388.58,388.90,389.24,389.60
459.96,457.79,455.74,453.67,451.58,449.24,446.66,444.04,441.30,437.67,432.82,427.36,421.80,416.83,413.07,409.46,406.19,404.14,404.27,405.96,408.31,410.87,413.08,414.59,415.32,415.25,414.32,413.27,413.66,414.82,416.12,417.32,418.15,418.76,419.08,418.81,418.25,417.45,416.37,414.97,413.67,412.20,410.69,408.97,406.23,402.99,400.19,398.66,399.51,400.88,401.39,401.24,400.73,400.32,401.60,404.10,407.32,410.46,413.07,414.78,415.89,416.80,417.86,419.52,421.88,424.52,425.87,426.40,426.11,425.18,423.88,422.57,421.57,420.86,420.43,420.47,421.38,423.86,427.70,431.48,434.54,436.99,438.40,438.02,436.79,434.91,432.63,429.75,425.52,420.49,414.81,408.74,402.76,398.35,396.28,396.11,397.46,399.04,399.90,400.51,400.93,400.66,400.02,399.14,397.95,396.24,394.52,392.34,390.00,387.71,385.47,383.24,381.04,379.00,377.51,378.23,379.63,381.17,382.69,384.16,385.64,387.10,388.56,390.19,392.89,395.95,399.09,402.38,405.86,411.96,419.24,426.50,432.90,438.24,442.29,445.42,448.21,449.28,448.46,446.13,442.59,438.98,435.85,433.31,431.15,428.57,424.92,421.73,419.18,416.90,414.43,411.46,407.70,403.11,398.60,394.94,391.50,388.81,388.64,388.68,388.81,388.89,388.71,388.33,388.53,388.51,388.15,388.17,388.24,388.27,388.29,388.36,388.37,388.42,388.47,388.47,388.47,388.42,388.34,388.25,388.10,387.95,387.85,387.82,387.86,387.88,387.88,387.92,387.97,387.98,387.97,387.93,387.79,387.48,387.17,386.86,386.55,386.24,385.94,385.63,385.32,385.01,384.70,384.39,384.08,383.77,383.48,383.23,382.99,382.64,382.39,382.96,383.54,384.07,384.48,384.65,384.81,384.97,385.13,385.28,385.38,385.50,385.69,385.81,385.48,384.40,383.32,382.60,382.51,382.68,382.90,383.14,383.38,383.61,383.84,384.11,384.39,384.62,384.85,385.09,385.33,385.56,385.80,386.08,386.36,386.59,386.77,387.04,387.34,387.64,387.93,388.30,388.62,388.96,389.33,389.76
459.08,457.05,455.09,453.12,451.14,448.90,446.46,444.01,441.38,437.75,432.78,427.60,422.75,418.63,415.05,411.44,407.78,404.31,401.74,402.27,404.38,407.28,410.34,412.18,413.17,413.46,412.91,412.00,412.37,413.48,414.74,415.79,416.68,417.44,417.87,417.53,416.91,416.18,415.26,414.01,412.55,411.06,409.62,408.05,405.67,402.76,400.15,398.18,397.26,398.19,398.45,398.13,397.66,397.51,399.90,403.07,406.18,408.97,411.31,412.80,413.77,414.67,415.84,417.37,419.13,420.84,421.80,422.31,422.19,421.52,420.53,419.54,418.76,418.16,417.79,417.76,418.99,421.63,425.56,430.07,432.82,435.00,436.40,436.16,434.99,433.50,431.59,428.89,424.98,420.46,415.00,408.79,402.57,397.89,394.30,392.47,393.29,395.59,396.68,397.68,398.75,398.84,398.43,397.61,396.47,395.07,393.41,391.39,389.24,387.08,384.88,382.66,380.49,378.43,376.87,377.62,379.05,380.59,382.13,383.60,385.15,386.78,388.51,390.43,393.34,396.51,399.72,402.97,406.26,412.38,420.05,427.81,433.70,438.58,442.14,444.64,446.60,447.16,446.50,444.88,442.29,439.13,436.51,434.36,432.47,430.39,427.44,424.55,421.95,419.56,416.87,413.65,409.57,404.49,399.26,395.71,392.60,389.99,389.18,389.16,389.19,389.03,388.68,388.45,388.40,388.29,388.09,388.02,388.02,388.03,388.06,388.12,388.13,388.19,388.23,388.24,388.29,388.28,388.25,388.20,388.05,387.89,387.78,387.73,387.70,387.70,387.74,387.78,387.80,387.80,387.80,387.75,387.61,387.30,387.00,386.69,386.38,386.07,385.76,385.45,385.14,384.83,384.52,384.21,383.90,383.59,383.29,383.00,382.72,382.51,382.49,382.84,383.16,383.46,383.69,383.80,383.95,384.10,384.26,384.41,384.54,384.65,384.81,384.88,384.34,383.23,382.65,382.57,382.69,382.91,383.14,383.39,383.66,383.90,384.13,384.38,384.63,384.86,385.09,385.36,385.62,385.85,386.09,386.34,386.63,386.94,387.15,387.36,387.59,387.83,388.05,388.33,388.63,388.95,389.31,389.87
457.81,455.94,454.09,452.22,450.25,448.11,445.81,443.50,441.01,437.53,432.81,428.06,423.82,420.25,416.71,413.04,409.06,404.67,400.31,399.40,400.74,403.60,407.00,409.26,410.79,411.62,411.38,410.65,411.04,412.12,413.35,414.31,415.25,416.15,416.69,416.23,415.57,414.88,414.09,413.03,411.56,410.08,408.66,407.19,405.20,402.75,400.47,398.20,395.81,396.02,395.90,395.32,394.79,395.21,398.34,401.85,404.82,407.29,409.32,410.64,411.59,412.61,413.90,415.35,416.68,417.70,418.29,418.72,418.68,418.20,417.46,416.75,416.09,415.55,415.28,415.42,417.07,419.79,423.58,428.65,431.47,433.53,434.79,434.58,433.48,432.24,430.47,427.76,424.16,420.09,414.92,408.79,402.50,397.58,393.03,389.99,389.92,392.39,393.83,395.25,396.74,397.08,396.85,396.08,395.01,393.81,392.24,390.43,388.48,386.43,384.29,382.10,379.97,377.91,376.27,376.94,378.36,379.96,381.58,383.19,384.87,386.64,388.54,390.69,393.72,396.97,400.20,403.42,406.59,412.85,420.81,428.80,434.20,438.60,441.67,443.56,444.66,444.74,444.20,443.08,441.19,438.55,436.40,434.63,433.08,431.41,429.11,426.57,424.04,421.62,419.01,415.62,411.29,405.89,399.86,396.34,393.69,391.43,390.15,389.70,389.44,389.07,388.57,388.45,388.32,388.23,388.14,387.98,387.92,387.86,387.84,387.89,387.90,387.95,388.00,388.01,388.08,388.10,388.10,388.08,387.98,387.83,387.73,387.64,387.56,387.55,387.59,387.63,387.63,387.65,387.65,387.59,387.44,387.13,386.82,386.51,386.20,385.89,385.58,385.27,384.96,384.65,384.35,384.04,383.73,383.42,383.11,382.80,382.51,382.36,382.43,382.59,382.72,382.84,382.94,383.00,383.11,383.24,383.38,383.53,383.69,383.79,383.95,383.97,383.35,382.54,382.41,382.68,382.91,383.14,383.37,383.64,383.93,384.17,384.42,384.66,384.89,385.12,385.35,385.62,385.89,386.13,386.37,386.61,386.92,387.27,387.52,387.71,387.92,388.13,388.29,388.50,388.77,389.08,389.57,390.71
456.07,454.40,452.73,450.93,448.83,446.78,444.62,442.42,440.08,437.05,433.02,428.88,425.03,421.56,417.93,414.04,409.76,405.00,400.24,397.63,397.54,399.85,402.90,405.70,408.13,409.73,409.69,409.17,409.66,410.75,411.95,412.90,413.88,414.89,415.53,414.91,414.23,413.53,412.81,411.98,410.74,409.31,407.86,406.39,404.80,402.98,401.12,398.73,395.25,394.37,393.76,392.86,392.15,393.59,396.95,400.37,403.18,405.38,407.05,408.26,409.34,410.60,411.96,413.32,414.47,415.25,415.53,415.79,415.69,415.27,414.75,414.23,413.56,413.00,412.89,413.50,415.72,418.40,421.72,427.02,430.45,432.60,433.64,433.33,432.37,431.19,429.25,426.33,423.00,419.29,414.50,408.72,402.55,397.30,392.63,389.04,387.68,389.58,391.50,393.36,394.93,395.36,395.23,394.55,393.56,392.42,391.02,389.45,387.72,385.78,383.70,381.59,379.50,377.43,375.73,376.15,377.54,379.26,381.09,383.00,384.89,386.76,388.69,390.96,394.01,397.26,400.49,403.66,406.83,413.35,421.48,429.31,434.32,438.25,440.81,442.11,442.36,442.08,441.56,440.66,439.10,437.06,435.26,433.90,432.84,431.56,429.81,427.64,425.28,422.97,420.81,417.30,412.79,407.28,400.37,396.78,394.69,393.09,391.60,390.29,389.53,388.98,388.40,388.27,388.32,388.36,388.31,388.10,387.96,387.79,387.65,387.66,387.66,387.72,387.76,387.78,387.84,387.86,387.86,387.87,387.89,387.77,387.66,387.57,387.45,387.43,387.44,387.45,387.46,387.52,387.53,387.45,387.26,386.95,386.64,386.33,386.02,385.71,385.41,385.10,384.79,384.48,384.17,383.86,383.55,383.24,382.94,382.63,382.37,382.21,382.17,382.21,382.23,382.25,382.28,382.29,382.31,382.38,382.50,382.65,382.81,382.95,383.11,383.09,382.55,382.50,382.67,382.91,383.14,383.38,383.61,383.88,384.17,384.41,384.69,384.95,385.18,385.41,385.64,385.88,386.13,386.37,386.66,386.90,387.21,387.58,387.87,388.10,388.33,388.54,388.69,388.86,389.08,389.41,390.23,392.50
454.00,452.57,450.84,448.85,446.76,444.68,442.52,440.34,438.10,435.49,432.09,428.50,425.02,421.66,418.13,414.23,409.94,405.23,400.32,396.91,395.62,396.87,400.29,403.61,406.14,407.65,407.86,407.66,408.33,409.53,410.81,411.86,412.87,413.82,414.40,413.89,413.25,412.55,411.82,411.01,409.80,408.34,406.78,405.23,403.74,402.34,400.76,398.38,394.57,392.75,391.88,390.98,390.15,391.62,394.76,398.10,401.03,403.21,404.66,405.80,406.94,408.31,409.85,411.13,412.11,412.70,412.82,412.89,412.70,412.30,411.83,411.37,410.87,410.53,410.61,411.35,413.79,416.79,420.37,425.39,429.16,431.41,432.31,431.88,430.89,429.29,426.99,424.01,421.02,417.70,413.45,408.27,402.43,397.21,392.36,388.09,385.45,386.88,389.12,391.36,393.13,393.65,393.58,393.02,392.14,391.03,389.80,388.38,386.76,384.96,383.11,381.15,379.07,376.92,375.04,375.35,376.72,378.45,380.26,382.19,384.26,386.35,388.50,390.96,394.08,397.38,400.67,403.89,407.03,413.72,422.02,429.65,433.68,436.91,439.15,440.27,440.14,439.46,438.66,437.57,435.89,434.00,432.68,431.75,431.00,430.12,429.01,427.65,426.08,424.30,422.32,419.32,414.71,408.15,400.81,397.54,395.75,394.21,392.60,390.98,389.74,388.85,388.32,388.28,388.50,388.63,388.52,388.27,388.10,387.91,387.75,387.69,387.62,387.56,387.53,387.55,387.61,387.63,387.64,387.68,387.72,387.65,387.58,387.50,387.37,387.32,387.29,387.29,387.32,387.36,387.38,387.30,387.13,386.82,386.51,386.20,385.89,385.58,385.28,384.97,384.65,384.34,384.04,383.70,383.40,383.12,382.84,382.54,382.29,382.14,382.10,382.10,382.10,382.10,382.10,382.10,382.10,382.13,382.19,382.28,382.37,382.46,382.56,382.61,382.43,382.65,382.92,383.15,383.38,383.61,383.87,384.14,384.40,384.64,384.91,385.18,385.44,385.70,385.94,386.17,386.40,386.64,386.91,387.16,387.47,387.84,388.18,388.46,388.70,388.92,389.11,389.29,389.78,390.71,392.31,394.87
451.59,450.39,448.58,446.38,444.35,442.22,439.98,437.76,435.62,433.41,430.54,427.44,424.30,421.12,417.84,414.07,409.89,405.38,400.46,396.57,394.18,394.22,398.22,402.04,404.39,405.50,405.99,406.17,407.06,408.38,409.78,410.95,411.97,412.81,413.28,412.95,412.39,411.69,410.92,410.03,408.77,407.25,405.61,403.94,402.42,401.32,399.92,397.59,393.80,391.22,390.15,389.35,388.47,389.68,392.44,395.70,398.79,400.96,402.25,403.31,404.49,405.93,407.64,408.85,409.66,410.10,410.13,410.02,409.74,409.32,408.86,408.40,408.14,408.12,408.44,409.31,411.80,415.21,419.25,423.82,427.66,429.98,430.82,430.28,429.22,427.07,424.34,421.42,418.75,415.82,412.12,407.53,402.11,397.08,392.13,387.18,383.30,384.25,386.71,389.27,391.27,391.91,391.90,391.46,390.69,389.63,388.53,387.24,385.74,384.10,382.50,380.69,378.62,376.34,374.29,374.53,375.88,377.57,379.28,381.14,383.33,385.65,388.07,390.77,394.01,397.38,400.74,404.03,407.18,414.05,422.44,429.77,432.76,435.28,437.22,438.25,437.86,436.81,435.66,434.28,432.44,430.59,429.68,429.10,428.56,428.09,427.56,427.03,426.36,425.25,423.55,421.25,416.57,408.80,401.18,398.29,396.68,395.02,393.35,391.69,390.06,388.80,388.30,388.39,388.76,388.92,388.74,388.45,388.28,388.12,387.96,387.81,387.67,387.48,387.35,387.36,387.40,387.40,387.43,387.49,387.50,387.49,387.49,387.43,387.30,387.22,387.14,387.13,387.19,387.20,387.21,387.15,387.00,386.69,386.38,386.08,385.77,385.46,385.15,384.84,384.53,384.22,383.91,383.55,383.27,383.03,382.78,382.48,382.23,382.11,382.10,382.10,382.10,382.10,382.10,382.10,382.10,382.10,382.11,382.12,382.13,382.15,382.20,382.32,382.57,382.87,383.14,383.38,383.61,383.85,384.13,384.40,384.64,384.87,385.11,385.38,385.69,385.98,386.23,386.47,386.69,386.93,387.17,387.40,387.70,388.08,388.46,388.78,389.05,389.31,389.63,389.97,390.85,392.51,394.94,397.40
447.99,446.82,445.29,443.42,441.43,439.29,436.88,434.60,432.66,430.66,428.02,425.08,422.15,419.55,416.98,413.71,409.78,405.28,400.57,396.19,392.79,391.88,396.10,400.31,402.56,403.39,404.15,404.85,406.00,407.41,408.84,410.06,411.03,411.74,412.08,411.85,411.42,410.81,409.98,408.81,407.51,406.08,404.46,402.69,401.09,399.98,398.52,396.19,392.69,390.09,388.77,387.87,387.25,388.61,391.13,394.13,397.02,398.79,399.92,400.88,402.00,403.51,405.21,406.38,407.11,407.47,407.48,407.29,406.90,406.43,405.98,405.59,405.50,405.82,406.75,408.27,410.77,414.18,418.29,422.56,425.63,427.76,428.80,428.29,427.26,424.72,421.77,419.02,416.60,414.00,410.44,405.94,400.94,396.43,391.74,386.47,381.57,381.81,384.24,386.97,389.15,390.06,390.10,389.69,389.03,388.15,387.05,385.93,384.71,383.31,381.81,379.99,377.85,375.51,373.47,373.68,374.96,376.53,378.09,379.93,382.14,384.47,386.99,390.13,393.65,397.10,400.46,403.81,407.10,414.29,422.49,429.00,431.89,434.06,435.52,436.00,435.05,433.86,432.62,431.29,429.82,428.36,427.30,426.58,426.16,425.99,425.59,425.14,424.71,424.26,423.87,422.04,417.34,409.35,401.27,398.33,396.81,395.26,393.70,392.18,390.64,389.25,388.42,388.67,389.04,389.15,388.93,388.68,388.50,388.35,388.18,387.99,387.82,387.65,387.50,387.42,387.35,387.23,387.20,387.26,387.26,387.30,387.32,387.30,387.23,387.15,387.05,386.99,387.03,387.07,387.08,387.01,386.83,386.52,386.21,385.90,385.60,385.29,384.98,384.67,384.36,384.05,383.75,383.45,383.19,382.96,382.72,382.42,382.20,382.10,382.10,382.10,382.10,382.10,382.10,382.10,382.10,382.10,382.10,382.10,382.10,382.14,382.20,382.34,382.69,383.00,383.29,383.57,383.85,384.13,384.39,384.64,384.88,385.11,385.34,385.62,385.91,386.18,386.50,386.76,386.99,387.22,387.45,387.69,387.97,388.32,388.71,389.06,389.37,389.84,390.76,391.85,393.21,395.14,397.57,399.55
443.87,442.49,441.02,439.34,437.42,435.45,433.28,431.23,429.51,427.67,425.21,422.52,419.92,417.82,415.84,413.13,409.56,405.16,400.64,395.73,391.51,389.86,394.10,398.45,400.74,401.56,402.44,403.59,405.01,406.52,407.96,409.19,410.06,410.62,410.85,410.73,410.40,409.89,409.05,407.69,406.33,404.91,403.32,401.55,399.93,398.73,397.21,395.03,392.01,389.63,387.98,386.72,386.09,387.55,389.91,392.67,395.28,396.69,397.72,398.65,399.75,401.25,402.82,403.88,404.54,404.85,404.84,404.57,404.12,403.60,403.21,402.93,403.05,403.78,405.34,407.43,409.90,413.20,417.24,421.16,423.57,425.53,426.68,426.18,425.13,422.52,419.54,416.86,414.51,412.06,408.57,404.17,399.61,395.56,391.05,385.62,380.20,379.61,381.91,384.70,386.94,388.10,388.21,387.86,387.30,386.56,385.53,384.56,383.55,382.39,381.00,379.14,376.99,374.67,372.67,372.75,373.91,375.36,376.79,378.62,380.81,383.13,385.74,389.33,393.15,396.74,400.14,403.54,407.02,414.51,422.43,428.05,430.99,432.88,433.90,433.92,432.56,431.21,429.89,428.66,427.52,426.37,425.13,424.19,423.75,423.80,423.50,423.04,422.67,422.71,423.47,422.23,417.79,409.86,401.34,398.30,396.82,395.36,393.92,392.57,391.20,389.87,388.86,389.00,389.30,389.35,389.12,388.91,388.73,388.56,388.39,388.19,388.02,387.86,387.69,387.54,387.38,387.18,387.09,387.11,387.07,387.11,387.13,387.13,387.13,387.08,386.96,386.88,386.88,386.93,386.95,386.86,386.66,386.35,386.04,385.73,385.42,385.11,384.80,384.50,384.21,383.90,383.61,383.37,383.13,382.90,382.66,382.36,382.18,382.10,382.10,382.10,382.10,382.10,382.10,382.10,382.10,382.10,382.11,382.12,382.12,382.18,382.26,382.42,382.78,383.10,383.41,383.72,384.03,384.34,384.60,384.85,385.09,385.34,385.59,385.86,386.14,386.38,386.72,387.01,387.25,387.51,387.75,387.98,388.24,388.56,388.96,389.35,389.81,390.64,392.17,393.88,395.66,397.64,399.73,401.26
439.01,436.99,435.00,433.08,431.27,429.82,428.77,427.63,426.11,424.37,422.11,419.95,418.02,416.10,414.26,412.12,409.20,405.08,400.63,395.19,390.43,388.46,392.38,396.38,398.98,400.31,400.99,402.42,404.08,405.72,407.18,408.37,409.06,409.43,409.60,409.60,409.33,408.89,408.14,406.84,405.37,403.82,402.23,400.65,399.18,397.75,396.28,394.56,392.35,390.43,388.33,386.25,384.95,386.23,388.60,391.18,393.43,394.67,395.75,396.86,398.05,399.34,400.52,401.38,401.96,402.26,402.20,401.85,401.36,400.88,400.63,400.53,401.01,402.26,404.38,406.68,409.06,412.17,415.95,419.37,421.66,423.48,424.49,423.94,422.77,420.64,417.99,415.12,412.55,409.84,406.38,402.30,398.16,394.37,389.75,384.44,379.46,377.85,379.89,382.57,384.65,385.96,386.18,385.95,385.48,384.77,383.99,383.10,382.15,381.14,380.00,378.10,375.99,373.87,371.91,371.70,372.65,373.96,375.28,377.14,379.31,381.63,384.37,388.33,392.46,396.29,399.84,403.29,407.00,414.70,422.25,426.98,430.00,431.64,432.37,432.24,430.94,429.28,427.87,426.69,425.64,424.49,423.18,422.02,421.32,421.45,421.36,420.91,420.44,420.55,421.83,421.53,417.92,410.28,401.42,398.30,396.82,395.37,393.99,392.80,391.67,390.68,389.93,389.43,389.50,389.53,389.30,389.13,388.92,388.74,388.58,388.41,388.26,388.06,387.87,387.71,387.56,387.39,387.25,387.13,386.97,386.90,386.89,386.91,386.96,386.95,386.87,386.80,386.75,386.76,386.77,386.68,386.48,386.17,385.86,385.55,385.25,384.94,384.63,384.37,384.09,383.79,383.55,383.31,383.07,382.85,382.61,382.30,382.15,382.10,382.10,382.10,382.10,382.10,382.10,382.10,382.10,382.10,382.13,382.17,382.18,382.24,382.35,382.53,382.85,383.16,383.47,383.78,384.09,384.40,384.69,384.98,385.28,385.57,385.86,386.13,386.37,386.61,386.87,387.15,387.47,387.80,388.04,388.27,388.51,388.81,389.25,389.64,390.50,391.94,394.00,395.85,397.88,399.61,400.88,402.19
434.81,432.27,429.77,427.52,425.77,424.89,424.49,423.86,422.54,420.86,419.28,417.74,416.20,414.61,412.96,410.97,408.32,404.65,400.49,394.68,389.44,387.10,390.54,393.97,396.72,398.77,400.13,401.71,403.39,405.04,406.42,407.24,407.73,407.99,408.10,408.16,408.03,407.79,407.21,406.00,404.52,403.01,401.52,400.08,398.74,397.32,395.93,394.45,392.68,391.01,388.81,386.33,384.38,384.83,386.94,389.43,391.58,392.87,394.05,395.26,396.45,397.51,398.41,399.09,399.66,400.09,400.16,399.89,399.49,399.12,398.91,398.88,399.58,401.07,403.34,405.74,408.10,410.97,414.31,417.39,419.76,421.57,422.52,422.03,420.90,418.99,416.45,413.47,410.57,407.46,403.98,400.20,396.32,392.62,388.32,383.43,378.56,375.95,377.70,380.44,382.61,383.90,384.19,384.04,383.64,382.97,382.31,381.57,380.80,380.00,379.08,377.23,375.12,372.99,371.05,370.55,371.28,372.48,373.76,375.63,377.82,380.20,383.10,387.35,391.63,395.67,399.48,403.16,407.05,414.80,421.82,425.53,428.51,430.27,430.83,430.34,428.92,427.11,425.69,424.62,423.71,422.60,421.13,419.59,418.34,417.86,417.71,417.27,416.95,417.75,419.97,420.73,417.98,410.69,401.52,398.34,396.97,395.65,394.39,393.26,392.30,391.54,390.96,390.29,390.02,389.80,389.49,389.32,389.13,388.95,388.79,388.61,388.45,388.27,388.08,387.93,387.77,387.60,387.43,387.26,387.06,386.94,386.87,386.82,386.79,386.76,386.72,386.68,386.65,386.60,386.61,386.53,386.31,386.00,385.69,385.38,385.08,384.80,384.52,384.28,384.00,383.72,383.48,383.25,383.02,382.79,382.55,382.24,382.13,382.10,382.10,382.10,382.10,382.10,382.10,382.10,382.10,382.12,382.16,382.20,382.23,382.29,382.42,382.60,382.91,383.22,383.53,383.84,384.14,384.45,384.76,385.08,385.38,385.69,386.02,386.32,386.58,386.83,387.07,387.36,387.67,387.99,388.26,388.54,388.80,389.07,389.52,390.13,391.22,392.85,394.95,396.93,398.96,400.39,401.05,401.69
430.90,428.02,425.10,422.56,420.85,420.44,420.33,419.90,418.80,417.19,416.53,415.66,414.37,413.20,411.75,409.68,407.06,403.92,400.14,394.13,388.51,385.78,388.66,391.44,394.25,397.11,399.66,401.31,402.89,404.42,405.61,405.89,406.18,406.38,406.46,406.54,406.58,406.58,406.24,405.18,403.77,402.41,401.07,399.75,398.50,397.24,395.94,394.55,392.97,391.43,389.33,386.72,384.09,383.34,385.06,387.50,389.73,391.20,392.53,393.78,394.88,395.72,396.40,396.93,397.54,398.19,398.49,398.42,398.20,397.94,397.74,397.72,398.54,400.09,402.24,404.67,407.07,409.65,412.45,415.30,417.85,419.71,420.64,420.29,419.29,417.43,414.91,411.85,408.57,405.02,401.49,397.97,394.24,390.54,386.79,382.46,377.51,374.00,375.45,378.30,380.71,381.89,382.24,382.15,381.80,381.18,380.56,380.03,379.50,378.91,378.21,376.50,374.37,372.16,370.25,369.42,369.89,370.96,372.24,374.10,376.32,378.82,381.93,386.40,390.79,395.01,399.12,403.13,407.15,414.87,421.31,423.99,426.84,428.88,429.28,428.28,426.64,424.76,423.37,422.43,421.73,420.68,419.01,417.06,415.10,413.67,413.28,412.83,412.81,414.59,417.88,419.74,417.89,411.03,401.60,398.43,397.22,396.11,395.00,393.87,393.04,392.43,391.92,391.36,390.71,390.11,389.67,389.50,389.33,389.18,389.00,388.79,388.63,388.47,388.31,388.16,388.00,387.79,387.61,387.45,387.29,387.14,387.00,386.84,386.65,386.57,386.54,386.55,386.57,386.45,386.48,386.38,386.13,385.83,385.51,385.21,384.93,384.69,384.45,384.22,383.95,383.65,383.42,383.19,382.96,382.73,382.48,382.19,382.10,382.10,382.10,382.10,382.10,382.10,382.10,382.10,382.11,382.15,382.19,382.22,382.28,382.35,382.47,382.67,382.97,383.28,383.59,383.90,384.21,384.52,384.83,385.13,385.44,385.76,386.12,386.45,386.75,387.05,387.29,387.58,387.87,388.13,388.43,388.77,389.08,389.35,389.81,390.74,391.99,393.52,395.37,397.43,399.19,400.27,400.48,400.19
426.05,423.54,421.14,419.00,417.30,416.35,415.87,415.29,414.31,413.30,413.06,412.73,412.05,411.13,409.76,407.76,405.33,402.46,398.68,392.95,387.51,384.63,387.21,389.86,392.77,396.05,399.47,401.20,402.62,403.73,404.27,404.36,404.57,404.74,404.82,404.90,404.97,405.13,405.10,404.49,403.30,402.03,400.74,399.45,398.21,397.04,395.80,394.42,392.91,391.57,389.50,386.62,383.36,381.62,383.06,385.45,387.72,389.43,390.91,392.10,393.01,393.68,394.27,394.79,395.45,396.26,396.89,397.09,397.00,396.76,396.54,396.68,397.69,399.25,401.20,403.62,405.96,408.28,410.68,413.26,415.62,417.38,418.34,418.14,417.25,415.61,413.25,410.11,406.49,402.86,399.34,395.86,392.27,388.62,385.00,380.88,376.08,372.32,373.60,376.26,378.51,379.91,380.46,380.49,380.19,379.66,379.12,378.70,378.28,377.83,377.32,375.89,374.12,372.27,370.53,369.25,368.95,369.47,370.71,372.49,374.76,377.45,380.86,385.67,390.40,394.88,399.13,403.19,407.28,414.99,421.29,423.70,426.28,427.90,427.73,426.13,424.25,422.29,420.82,419.89,419.40,418.48,416.94,414.95,412.77,411.05,410.15,409.65,409.88,411.76,414.92,417.66,416.89,410.69,401.59,398.64,397.60,396.60,395.60,394.60,393.80,393.11,392.44,391.77,391.02,390.32,389.80,389.63,389.47,389.32,389.15,388.97,388.80,388.65,388.50,388.35,388.19,388.00,387.83,387.67,387.48,387.31,387.16,387.00,386.81,386.69,386.57,386.48,386.41,386.32,386.32,386.21,385.97,385.69,385.39,385.11,384.85,384.63,384.39,384.16,383.89,383.60,383.37,383.13,382.90,382.66,382.39,382.16,382.10,382.10,382.10,382.10,382.10,382.10,382.10,382.11,382.14,382.18,382.22,382.26,382.34,382.38,382.52,382.77,383.08,383.39,383.70,384.01,384.32,384.63,384.93,385.25,385.56,385.87,386.20,386.53,386.83,387.14,387.42,387.71,388.03,388.33,388.61,388.94,389.24,389.59,390.23,391.40,392.78,394.27,395.88,397.46,398.31,398.63,398.43,397.56
421.38,419.42,417.64,415.94,414.25,412.63,411.57,410.66,409.72,409.29,409.26,409.40,409.40,408.73,407.43,405.56,403.33,400.66,396.88,391.49,386.31,383.43,385.80,388.45,391.44,395.01,399.07,400.99,402.23,402.87,402.80,402.78,402.95,403.13,403.26,403.39,403.50,403.77,403.97,403.73,402.83,401.67,400.43,399.18,397.96,396.85,395.63,394.23,392.75,391.54,389.43,386.33,382.63,380.14,381.16,383.37,385.66,387.57,389.15,390.25,391.00,391.55,392.11,392.67,393.40,394.34,395.25,395.76,395.81,395.55,395.33,395.60,396.80,398.41,400.20,402.53,404.79,406.90,408.98,411.25,413.34,414.96,415.91,415.87,415.07,413.67,411.49,408.35,404.53,400.93,397.45,394.01,390.53,386.91,383.30,379.25,374.58,370.85,371.97,374.33,376.38,378.02,378.85,379.00,378.71,378.23,377.76,377.41,377.06,376.69,376.34,375.29,373.95,372.50,370.95,369.32,368.22,368.07,369.21,370.96,373.39,376.41,380.24,385.39,390.46,395.18,399.53,403.47,407.49,415.14,421.40,423.75,426.08,427.03,426.19,424.10,421.99,419.84,418.09,417.03,416.74,416.06,414.80,412.96,410.74,408.91,407.55,407.02,407.50,409.32,412.06,415.25,415.43,410.22,401.55,398.83,397.91,396.99,396.07,395.21,394.41,393.62,392.79,392.02,391.25,390.51,389.92,389.73,389.57,389.42,389.26,389.11,388.95,388.80,388.65,388.49,388.34,388.18,388.02,387.84,387.63,387.47,387.31,387.16,387.00,386.85,386.64,386.46,386.32,386.23,386.19,386.05,385.82,385.58,385.29,385.03,384.80,384.56,384.33,384.10,383.83,383.54,383.31,383.07,382.84,382.58,382.30,382.14,382.10,382.10,382.10,382.10,382.10,382.10,382.10,382.12,382.19,382.22,382.25,382.32,382.40,382.42,382.57,382.88,383.19,383.50,383.80,384.11,384.42,384.73,385.04,385.35,385.66,385.97,386.27,386.58,386.89,387.20,387.51,387.82,388.16,388.51,388.76,389.06,389.38,389.79,390.62,391.95,393.39,394.81,396.07,397.00,396.89,396.47,395.91,394.65
418.00,416.63,415.14,413.51,411.78,409.84,408.04,406.51,405.40,405.01,405.00,405.41,405.94,405.70,404.58,402.87,400.80,398.31,394.86,389.56,384.56,381.94,384.25,386.91,389.95,393.56,397.75,400.22,401.25,401.50,401.33,401.22,401.33,401.60,401.95,402.29,402.60,402.85,402.94,402.69,402.14,401.15,400.07,399.00,397.83,396.73,395.46,394.02,392.53,391.11,388.86,385.80,382.28,379.59,379.68,381.30,383.56,385.50,386.98,388.00,388.73,389.33,389.93,390.60,391.43,392.42,393.44,394.33,394.56,394.28,394.09,394.34,395.66,397.47,399.31,401.37,403.46,405.50,407.47,409.32,411.14,412.56,413.42,413.47,412.76,411.52,409.54,406.62,403.01,399.52,396.18,392.90,389.49,385.80,382.12,377.91,373.11,369.82,370.68,372.74,374.68,376.40,377.65,377.91,377.51,376.95,376.47,376.08,375.73,375.41,375.09,374.61,373.73,372.48,371.03,369.51,367.82,366.95,367.85,369.69,372.67,376.46,381.04,386.43,391.62,396.49,400.85,404.42,407.89,415.31,421.54,423.92,426.24,426.21,424.76,422.59,420.28,417.54,414.95,413.35,413.26,413.07,412.35,410.96,409.01,407.13,405.69,405.28,406.00,407.90,410.15,412.56,413.16,409.81,401.50,398.84,397.94,397.07,396.20,395.35,394.54,393.76,392.97,392.20,391.43,390.66,390.03,389.80,389.63,389.48,389.32,389.17,389.01,388.87,388.70,388.56,388.40,388.25,388.06,387.86,387.69,387.52,387.38,387.22,387.06,386.91,386.74,386.57,386.42,386.28,386.13,385.96,385.76,385.52,385.23,384.97,384.74,384.50,384.28,384.04,383.77,383.48,383.25,383.01,382.79,382.52,382.25,382.13,382.10,382.10,382.10,382.10,382.10,382.10,382.11,382.17,382.25,382.27,382.30,382.38,382.45,382.47,382.63,382.94,383.25,383.55,383.87,384.17,384.48,384.79,385.10,385.41,385.72,386.02,386.33,386.64,386.95,387.26,387.57,387.88,388.20,388.52,388.81,389.16,389.50,389.94,390.84,392.07,393.44,394.63,395.22,395.24,394.50,393.69,392.95,391.67
414.91,413.92,412.55,410.86,408.93,406.77,404.56,402.51,400.94,400.32,400.50,401.33,402.34,402.54,401.69,400.18,398.24,395.83,392.69,387.57,382.85,380.62,382.91,385.66,388.70,392.23,396.30,399.12,400.21,400.38,400.22,400.15,400.26,400.52,400.91,401.35,401.70,401.87,401.84,401.58,401.21,400.46,399.62,398.76,397.72,396.60,395.28,393.82,392.35,390.85,388.39,385.23,381.75,378.82,378.21,379.35,381.51,383.44,384.83,385.76,386.44,387.02,387.47,388.10,389.09,390.45,391.80,392.92,393.27,393.05,392.84,392.99,394.29,396.15,398.09,399.96,401.97,403.90,405.65,407.26,408.91,410.20,410.95,410.94,410.31,409.33,407.60,404.85,401.50,398.21,395.03,391.87,388.46,384.73,381.03,376.91,372.34,369.28,369.72,371.40,373.27,374.96,376.44,376.78,376.33,375.74,375.22,374.79,374.42,374.12,373.83,373.65,373.14,372.24,371.02,369.56,367.49,366.22,367.07,369.10,372.85,377.43,382.46,387.72,392.78,397.55,401.77,405.05,408.19,415.47,421.71,424.13,426.09,425.34,423.51,421.22,418.35,415.06,412.00,410.07,409.91,409.96,409.68,408.65,406.86,404.88,403.44,403.38,404.50,406.42,408.37,410.34,410.79,408.03,401.19,398.88,398.01,397.16,396.31,395.46,394.66,393.89,393.12,392.35,391.57,390.81,390.15,389.84,389.66,389.51,389.35,389.20,389.05,388.89,388.74,388.58,388.43,388.27,388.09,387.89,387.74,387.58,387.43,387.27,387.09,386.94,386.76,386.59,386.42,386.25,386.04,385.84,385.65,385.43,385.16,384.91,384.68,384.44,384.22,383.99,383.71,383.42,383.19,382.96,382.73,382.47,382.20,382.11,382.10,382.10,382.10,382.10,382.12,382.13,382.15,382.22,382.28,382.31,382.36,382.43,382.49,382.52,382.69,383.00,383.30,383.61,383.92,384.23,384.54,384.85,385.17,385.50,385.81,386.12,386.43,386.73,387.04,387.35,387.66,387.97,388.28,388.59,388.90,389.25,389.56,389.99,390.95,391.99,393.10,393.93,394.02,393.60,392.59,391.65,390.94,389.96
411.98,411.16,409.76,407.89,405.67,403.39,401.09,398.67,396.36,395.26,395.82,397.17,398.61,399.26,398.74,397.46,395.64,393.25,390.39,385.51,381.21,379.48,381.82,384.71,387.73,391.01,394.75,397.70,399.11,399.55,399.48,399.58,399.72,399.89,400.13,400.51,400.79,400.81,400.66,400.40,400.03,399.58,399.05,398.42,397.59,396.46,395.11,393.65,392.19,390.77,388.10,384.68,381.08,377.80,376.75,377.54,379.50,381.37,382.68,383.52,384.13,384.61,384.74,385.19,386.39,388.39,390.31,391.52,391.96,391.86,391.60,391.59,392.67,394.44,396.48,398.25,400.30,402.08,403.53,405.09,406.66,407.89,408.52,408.28,407.69,407.10,405.68,403.03,399.99,396.96,393.99,390.90,387.42,383.69,380.05,376.25,372.27,369.22,369.05,370.32,372.14,373.71,375.24,375.61,375.17,374.62,374.02,373.52,373.13,372.83,372.59,372.43,372.20,371.80,370.93,369.44,367.20,365.84,366.87,369.18,373.91,379.26,384.40,389.18,393.89,398.32,402.23,405.35,408.39,415.61,421.92,424.37,425.58,424.39,422.44,419.96,416.17,412.39,409.24,407.22,406.73,406.75,406.81,406.06,404.28,402.12,400.81,401.29,402.97,404.84,406.71,408.58,408.36,404.92,400.62,398.98,398.13,397.28,396.43,395.58,394.78,394.00,393.23,392.46,391.69,390.95,390.30,389.88,389.67,389.51,389.36,389.21,389.05,388.89,388.74,388.58,388.43,388.27,388.12,387.95,387.80,387.64,387.49,387.31,387.09,386.93,386.73,386.51,386.30,386.14,385.92,385.70,385.49,385.31,385.08,384.85,384.62,384.39,384.15,383.92,383.65,383.37,383.13,382.89,382.66,382.41,382.14,382.10,382.10,382.10,382.10,382.11,382.16,382.19,382.21,382.28,382.30,382.35,382.42,382.48,382.50,382.56,382.75,383.05,383.37,383.67,383.98,384.29,384.60,384.91,385.27,385.61,385.92,386.23,386.54,386.85,387.16,387.47,387.77,388.08,388.39,388.70,389.01,389.32,389.57,389.95,390.95,391.70,392.37,392.74,392.50,392.12,391.21,390.38,389.91,389.53
406.55,405.85,404.85,403.48,401.84,399.90,397.53,394.97,392.63,391.50,391.94,393.04,394.38,395.67,395.47,394.51,392.99,390.80,388.15,383.66,379.77,378.43,381.13,384.13,387.15,390.29,393.64,396.37,398.13,398.94,398.85,398.88,398.90,398.93,399.02,399.26,399.52,399.53,399.34,399.06,398.72,398.34,397.93,397.47,396.88,396.20,395.11,393.72,392.33,391.00,389.13,386.01,381.51,377.86,375.88,375.71,377.04,378.79,380.03,380.88,381.44,381.69,381.73,382.15,383.44,385.67,387.96,389.69,390.57,390.73,390.44,390.27,390.90,392.08,393.61,395.36,397.35,399.24,400.97,402.79,404.44,405.59,406.05,405.60,404.94,404.60,403.66,401.54,398.55,395.42,392.50,389.68,386.49,383.04,379.53,375.89,372.15,368.89,368.15,369.31,371.43,372.88,374.23,374.57,374.16,373.54,372.86,372.28,371.84,371.56,371.39,371.27,371.17,370.93,370.09,368.47,366.16,365.02,366.65,369.42,374.68,380.30,385.35,389.96,394.44,398.64,402.38,405.46,408.49,415.71,422.06,424.37,424.69,423.34,421.18,418.25,413.93,409.78,406.25,404.03,403.71,403.97,404.05,403.38,401.73,399.51,398.81,399.88,401.86,403.75,405.57,407.23,406.77,403.41,400.30,399.01,398.24,397.44,396.59,395.74,394.94,394.17,393.40,392.63,391.88,391.17,390.50,389.98,389.76,389.60,389.45,389.29,389.14,388.99,388.82,388.63,388.48,388.29,388.12,387.95,387.76,387.58,387.41,387.23,387.00,386.81,386.59,386.37,386.17,385.98,385.76,385.55,385.35,385.16,384.97,384.77,384.56,384.33,384.10,383.83,383.57,383.31,383.07,382.84,382.60,382.36,382.13,382.10,382.10,382.10,382.11,382.14,382.18,382.22,382.26,382.34,382.35,382.40,382.47,382.50,382.54,382.64,382.85,383.16,383.47,383.77,384.09,384.39,384.70,385.01,385.35,385.69,386.00,386.30,386.61,386.92,387.23,387.54,387.85,388.15,388.46,388.76,389.00,389.21,389.43,389.75,390.37,390.84,391.28,391.50,391.25,390.91,390.31,389.77,389.43,389.17
400.93,400.27,399.68,398.90,397.96,396.41,394.08,391.58,389.49,388.41,388.64,389.36,390.46,392.22,392.31,391.63,390.42,388.48,385.97,381.89,378.44,377.47,380.58,383.66,386.70,389.75,392.72,395.15,397.23,398.30,398.04,397.95,397.83,397.73,397.71,397.85,398.12,398.15,397.96,397.66,397.35,396.98,396.62,396.29,395.94,395.78,395.04,393.81,392.56,391.33,390.37,387.72,382.44,378.36,375.41,374.10,374.47,375.94,377.09,378.01,378.57,378.61,378.66,379.19,380.57,382.90,385.48,387.73,389.12,389.63,389.33,388.98,389.15,389.70,390.62,392.25,394.06,396.05,398.20,400.35,402.19,403.29,403.57,402.96,402.20,402.03,401.56,400.05,397.15,393.85,390.95,388.38,385.58,382.51,379.14,375.62,372.01,368.50,367.19,368.24,370.75,372.13,373.26,373.55,373.19,372.50,371.75,371.09,370.57,370.27,370.16,370.08,370.04,369.83,368.92,367.19,364.92,364.11,366.40,369.71,375.24,380.88,385.80,390.38,394.72,398.76,402.42,405.51,408.55,415.79,422.13,424.24,423.73,422.28,419.82,416.28,411.60,407.14,403.29,400.91,400.79,401.29,401.33,400.64,399.12,396.96,397.03,398.65,400.86,402.76,404.54,405.99,405.50,402.52,400.09,399.01,398.31,397.58,396.75,395.91,395.11,394.34,393.57,392.81,392.10,391.41,390.73,390.13,389.87,389.70,389.54,389.38,389.23,389.06,388.88,388.66,388.50,388.29,388.09,387.91,387.69,387.47,387.29,387.10,386.87,386.65,386.42,386.22,386.04,385.81,385.59,385.40,385.22,385.00,384.83,384.67,384.49,384.26,384.04,383.75,383.48,383.25,383.01,382.78,382.55,382.32,382.13,382.10,382.10,382.10,382.13,382.19,382.21,382.25,382.32,382.38,382.40,382.45,382.51,382.52,382.60,382.73,382.96,383.26,383.58,383.88,384.19,384.50,384.81,385.12,385.43,385.74,386.05,386.36,386.67,386.98,387.29,387.60,387.90,388.19,388.49,388.76,388.92,389.03,389.22,389.50,389.69,389.92,390.19,390.35,390.16,389.88,389.61,389.35,389.10,388.83
397.90,396.91,396.21,395.50,394.62,393.11,391.26,389.40,387.75,386.57,386.84,387.60,388.55,389.79,390.05,389.43,388.24,386.52,383.98,380.26,377.31,376.79,380.08,383.20,386.32,389.39,392.03,394.36,396.48,397.30,396.38,396.18,396.06,395.98,395.98,396.25,396.56,396.64,396.51,396.25,395.94,395.57,395.22,394.95,394.81,394.80,394.43,393.70,392.76,391.69,390.81,388.61,384.11,379.38,375.93,373.43,372.04,372.59,373.58,374.66,375.39,375.49,375.80,376.74,378.43,380.85,383.56,385.75,387.51,388.59,388.33,387.69,387.65,388.08,388.78,389.72,390.93,392.73,395.07,397.51,399.75,400.91,401.08,400.51,399.68,399.50,399.24,398.19,395.84,392.56,389.63,387.16,384.65,381.96,378.74,375.27,371.81,368.21,366.22,366.90,369.56,371.11,372.19,372.47,372.16,371.55,370.84,370.09,369.41,368.93,368.73,368.67,368.63,368.37,367.36,365.66,363.71,363.34,366.07,369.97,375.22,380.52,385.40,390.14,394.51,398.64,402.39,405.52,408.64,415.82,422.02,423.90,422.92,421.35,418.27,413.83,408.94,404.30,400.70,398.52,398.10,398.55,398.57,397.81,396.24,394.43,395.30,397.41,399.75,401.64,403.26,404.65,404.50,402.24,400.00,398.96,398.27,397.56,396.81,396.01,395.23,394.48,393.75,393.03,392.36,391.70,391.01,390.36,389.95,389.71,389.54,389.34,389.19,388.99,388.78,388.56,388.40,388.18,387.97,387.75,387.53,387.34,387.14,386.93,386.70,386.52,386.30,386.08,385.87,385.64,385.45,385.25,385.04,384.82,384.66,384.50,384.33,384.15,383.97,383.69,383.41,383.19,382.96,382.72,382.49,382.27,382.12,382.10,382.10,382.12,382.18,382.25,382.26,382.30,382.37,382.40,382.45,382.51,382.56,382.58,382.65,382.78,383.02,383.33,383.64,383.95,384.25,384.56,384.88,385.19,385.49,385.80,386.11,386.42,386.73,387.04,387.35,387.65,387.92,388.14,388.35,388.54,388.66,388.78,388.98,389.20,389.31,389.44,389.62,389.69,389.49,389.33,389.12,388.89,388.66,388.47
395.56,394.05,393.14,392.44,391.60,390.23,388.80,387.39,386.02,384.82,385.20,386.08,386.99,387.88,388.12,387.41,386.15,384.57,382.13,378.58,376.05,376.05,379.49,382.79,386.10,389.20,391.65,393.87,395.89,396.43,394.99,394.41,394.22,394.17,394.26,394.66,395.00,395.11,395.04,394.83,394.53,394.18,393.87,393.68,393.69,393.75,393.63,393.28,392.65,391.83,390.99,389.13,385.38,380.55,376.81,373.42,370.65,370.05,370.61,371.59,372.38,372.58,373.08,374.34,376.33,378.98,381.90,384.01,385.95,387.42,387.37,386.59,386.25,386.42,386.95,387.40,388.31,390.00,392.40,394.98,397.36,398.52,398.64,398.06,397.23,397.02,396.89,396.25,394.35,391.37,388.56,386.13,383.79,381.35,378.35,375.07,371.65,367.84,365.21,365.51,368.22,369.86,370.92,371.26,371.07,370.56,369.90,369.10,368.30,367.65,367.30,367.20,367.15,366.86,365.80,364.19,362.54,362.36,365.08,369.61,374.71,379.75,384.61,389.44,393.94,398.33,402.34,405.53,408.75,415.87,421.88,423.45,422.15,420.11,416.33,411.24,406.44,401.91,398.58,396.38,395.41,395.78,395.85,395.07,393.51,392.17,393.33,395.63,398.16,400.23,401.91,403.32,403.46,401.82,399.90,398.92,398.20,397.48,396.75,395.99,395.22,394.49,393.79,393.10,392.45,391.79,391.08,390.37,389.87,389.61,389.45,389.26,389.08,388.87,388.64,388.44,388.26,388.04,387.82,387.60,387.38,387.19,386.99,386.76,386.55,386.38,386.16,385.94,385.72,385.49,385.30,385.11,384.89,384.66,384.49,384.32,384.17,384.02,383.86,383.61,383.36,383.13,382.89,382.66,382.43,382.23,382.12,382.12,382.13,382.15,382.23,382.29,382.31,382.37,382.43,382.44,382.50,382.56,382.61,382.63,382.71,382.85,383.08,383.39,383.70,384.00,384.32,384.64,384.95,385.26,385.57,385.88,386.19,386.50,386.81,387.09,387.35,387.62,387.84,388.01,388.16,388.29,388.39,388.56,388.74,388.88,388.96,389.00,389.12,389.17,388.97,388.85,388.65,388.42,388.25,388.25
393.90,391.64,390.41,389.76,389.00,387.99,386.78,385.46,384.12,383.04,383.59,384.62,385.66,386.60,386.60,385.60,384.14,382.58,380.45,376.83,374.52,375.16,378.74,382.50,386.09,389.26,391.69,393.80,395.53,395.83,394.19,392.79,392.37,392.38,392.64,393.13,393.47,393.59,393.55,393.42,393.13,392.81,392.60,392.57,392.63,392.70,392.63,392.41,392.08,391.60,390.90,389.21,385.91,381.87,378.08,374.33,370.90,368.90,368.60,369.08,369.68,370.04,370.56,371.92,374.18,377.27,380.53,382.65,384.50,386.04,386.48,385.76,384.94,384.60,384.96,385.32,386.45,388.23,390.52,393.02,395.10,396.18,396.30,395.58,394.84,394.61,394.57,394.22,392.58,390.26,387.82,385.41,383.03,380.63,378.01,375.07,371.57,367.35,364.12,364.08,366.73,368.30,369.34,369.84,369.88,369.50,368.89,368.11,367.27,366.49,365.89,365.66,365.60,365.35,364.34,362.85,361.39,361.02,363.08,368.29,373.53,378.50,383.32,388.17,392.85,397.76,402.29,405.55,408.88,415.99,421.73,422.87,421.42,418.35,413.79,408.54,404.20,400.28,397.14,394.55,392.70,392.97,393.17,392.49,391.09,390.34,390.97,393.02,395.80,398.39,400.45,402.00,402.31,401.09,399.76,398.88,398.12,397.35,396.53,395.75,395.02,394.31,393.62,392.92,392.24,391.55,390.83,390.04,389.56,389.34,389.24,389.12,388.92,388.69,388.49,388.31,388.10,387.87,387.67,387.49,387.25,387.04,386.81,386.60,386.42,386.21,385.98,385.78,385.59,385.37,385.15,384.96,384.77,384.54,384.32,384.15,384.00,383.84,383.69,383.50,383.30,383.07,382.83,382.60,382.38,382.19,382.12,382.17,382.19,382.22,382.28,382.30,382.36,382.43,382.49,382.49,382.55,382.59,382.63,382.69,382.76,382.90,383.14,383.45,383.75,384.06,384.41,384.76,385.07,385.38,385.69,386.00,386.31,386.62,386.93,387.13,387.27,387.45,387.62,387.78,387.91,388.01,388.15,388.40,388.53,388.53,388.59,388.57,388.68,388.78,388.60,388.41,388.18,387.97,387.90,388.23
392.76,390.38,388.94,388.04,387.11,386.05,384.86,383.58,382.31,381.34,381.91,383.00,384.18,385.24,385.32,384.36,382.89,381.20,378.54,374.62,372.58,373.92,377.72,381.71,385.53,388.92,391.43,393.44,395.05,395.25,393.49,391.76,390.93,390.76,391.05,391.59,391.94,392.04,392.00,391.93,391.70,391.52,391.45,391.50,391.60,391.69,391.65,391.50,391.29,390.95,390.23,388.64,385.91,382.84,379.55,375.82,371.95,368.98,367.58,367.18,367.31,367.78,368.53,369.92,372.35,375.88,379.53,381.80,383.53,384.96,385.69,384.99,383.96,383.20,383.05,383.34,384.71,386.60,388.76,391.08,393.02,394.03,394.08,393.23,392.46,392.22,392.23,392.06,390.91,389.15,387.02,384.68,382.31,379.92,377.47,374.78,371.52,367.19,363.32,362.62,364.84,366.38,367.64,368.49,368.81,368.44,367.88,367.17,366.35,365.47,364.72,364.24,364.02,363.75,362.78,361.51,360.36,360.06,361.84,367.05,372.30,377.32,382.24,387.18,392.29,397.58,402.34,405.69,409.33,416.21,421.50,422.25,420.74,416.65,411.81,407.21,403.51,400.11,396.72,393.51,391.11,390.96,391.10,390.69,389.81,389.40,389.71,391.07,393.35,396.20,398.42,400.02,400.61,399.99,399.14,398.39,397.65,396.86,396.01,395.24,394.51,393.84,393.20,392.50,391.81,391.12,390.39,389.60,389.09,388.87,388.82,388.73,388.57,388.40,388.27,388.15,387.96,387.73,387.52,387.33,387.10,386.89,386.67,386.46,386.27,386.07,385.84,385.63,385.44,385.21,385.00,384.81,384.62,384.38,384.18,384.01,383.84,383.67,383.51,383.36,383.18,382.98,382.77,382.55,382.31,382.15,382.15,382.19,382.22,382.27,382.34,382.34,382.40,382.47,382.51,382.54,382.62,382.64,382.67,382.74,382.79,382.97,383.23,383.54,383.86,384.16,384.50,384.84,385.15,385.46,385.77,386.06,386.34,386.58,386.81,386.96,387.08,387.24,387.39,387.53,387.64,387.75,387.91,388.14,388.24,388.21,388.25,388.19,388.29,388.37,388.20,387.98,387.75,387.68,387.87,388.31
391.92,389.73,388.16,386.92,385.71,384.44,383.19,381.94,380.73,379.78,380.27,381.38,382.68,383.86,384.17,383.38,381.97,380.07,376.55,372.28,370.53,372.56,376.56,380.64,384.66,388.32,391.02,392.95,394.52,394.69,392.85,391.04,389.78,389.29,389.49,390.06,390.41,390.48,390.43,390.40,390.27,390.27,390.33,390.41,390.56,390.65,390.64,390.55,390.38,390.10,389.31,387.84,385.67,383.54,380.97,377.50,373.40,369.76,367.24,365.78,365.23,365.66,366.67,368.13,370.72,374.59,378.60,381.12,382.78,384.02,384.92,384.24,383.16,382.07,381.30,381.48,383.00,384.96,387.02,389.12,391.01,391.99,391.98,391.03,390.22,389.98,389.99,389.92,389.31,388.03,386.17,383.93,381.59,379.21,376.80,374.33,371.42,367.04,362.61,361.19,362.86,364.39,365.94,367.17,367.78,367.39,366.87,366.26,365.48,364.54,363.69,362.94,362.49,362.12,361.19,360.17,359.41,359.43,361.23,366.10,371.33,376.49,381.56,386.62,392.18,397.69,402.48,405.94,409.91,416.48,421.22,421.59,420.07,415.18,410.39,406.69,403.66,400.67,396.92,393.07,390.25,389.53,389.45,389.34,389.07,388.85,388.99,389.59,391.08,393.92,396.15,397.77,398.65,398.67,398.22,397.64,396.95,396.19,395.37,394.59,393.86,393.22,392.65,391.98,391.28,390.59,389.88,389.12,388.54,388.31,388.28,388.20,388.12,388.03,387.97,387.93,387.78,387.58,387.36,387.15,386.93,386.75,386.55,386.32,386.11,385.94,385.72,385.50,385.27,385.05,384.87,384.66,384.44,384.22,384.05,383.89,383.71,383.50,383.33,383.18,383.02,382.86,382.70,382.48,382.26,382.14,382.19,382.20,382.26,382.33,382.39,382.40,382.47,382.50,382.52,382.60,382.67,382.69,382.73,382.79,382.81,383.04,383.35,383.66,383.97,384.27,384.59,384.90,385.21,385.51,385.81,386.07,386.29,386.46,386.57,386.69,386.84,387.00,387.15,387.26,387.37,387.52,387.67,387.83,387.90,387.90,387.90,387.84,387.90,387.95,387.79,387.57,387.37,387.48,387.96,388.42
391.45,389.53,388.04,386.74,385.45,384.14,382.85,381.56,380.23,378.96,379.15,380.15,381.49,382.66,383.04,382.36,380.92,378.66,374.80,370.49,369.02,371.46,375.40,379.38,383.42,387.31,390.45,392.43,393.96,394.13,392.37,390.62,389.22,388.30,388.01,388.54,388.85,388.90,388.86,388.85,388.83,388.91,389.02,389.11,389.26,389.34,389.41,389.42,389.30,389.10,388.56,387.43,385.54,383.49,381.45,378.66,375.06,371.29,368.31,365.80,364.00,363.58,364.34,366.42,369.35,372.98,377.04,380.00,381.85,383.02,383.93,383.50,382.49,381.33,380.31,380.04,381.10,382.88,385.01,387.07,388.89,389.98,390.16,389.38,388.84,388.58,388.45,388.33,387.91,386.82,385.22,383.21,380.84,378.45,376.06,373.67,370.86,366.05,361.62,360.16,361.64,363.06,364.50,365.80,366.57,366.32,365.82,365.22,364.55,363.77,362.85,361.98,361.24,360.55,359.70,358.83,358.78,359.78,362.31,366.81,372.25,377.71,382.90,388.00,393.41,398.55,402.96,406.36,410.51,416.66,420.87,420.94,419.34,415.09,410.81,407.33,404.52,401.64,398.05,394.10,390.64,389.33,388.81,388.54,388.38,388.22,388.47,389.03,390.16,392.17,394.12,395.77,396.78,396.97,396.84,396.43,395.90,395.34,394.69,393.94,393.19,392.55,392.07,391.44,390.75,390.06,389.36,388.64,388.03,387.76,387.70,387.63,387.59,387.53,387.46,387.41,387.31,387.20,387.08,386.94,386.79,386.60,386.38,386.16,385.97,385.78,385.56,385.34,385.14,384.91,384.71,384.50,384.28,384.09,383.89,383.72,383.55,383.36,383.17,383.00,382.85,382.70,382.54,382.36,382.22,382.19,382.25,382.25,382.31,382.37,382.41,382.45,382.52,382.56,382.58,382.65,382.69,382.73,382.78,382.85,382.87,383.11,383.42,383.72,384.03,384.34,384.65,384.96,385.26,385.49,385.70,385.91,386.08,386.20,386.32,386.46,386.60,386.71,386.87,387.00,387.13,387.28,387.44,387.53,387.56,387.56,387.55,387.49,387.50,387.51,387.38,387.16,387.22,387.53,388.02,388.50
391.15,389.44,388.02,386.71,385.39,384.08,382.76,381.42,379.98,378.38,378.15,378.96,380.34,381.50,381.88,381.25,379.73,377.13,373.18,368.90,367.68,370.49,374.30,378.14,382.13,386.15,389.66,391.79,393.33,393.58,392.04,390.40,388.96,387.66,386.81,387.06,387.29,387.33,387.28,387.29,387.36,387.51,387.63,387.73,387.88,387.99,388.11,388.19,388.10,387.96,387.69,386.94,385.44,383.44,381.77,379.59,376.56,372.84,369.61,366.29,363.38,361.88,362.15,364.60,367.74,371.04,374.97,378.42,380.70,382.03,382.91,382.76,381.90,380.73,379.56,378.79,379.40,380.93,382.98,384.98,386.73,388.00,388.49,387.93,387.64,387.36,387.09,386.87,386.53,385.59,384.22,382.43,380.09,377.73,375.37,373.06,370.26,364.89,360.57,359.26,360.65,361.98,363.29,364.57,365.42,365.28,364.79,364.19,363.59,362.96,362.04,361.10,360.08,359.08,358.33,357.87,358.58,360.61,364.10,368.48,374.12,379.91,385.30,390.07,395.12,399.74,403.70,407.13,411.69,417.06,420.36,420.13,418.58,415.18,411.49,408.17,405.43,402.59,399.23,395.34,391.40,389.48,388.50,387.99,387.74,387.61,387.97,388.59,389.43,390.64,392.20,393.82,394.90,395.20,395.35,395.07,394.67,394.27,393.83,393.20,392.49,391.88,391.44,390.87,390.21,389.54,388.85,388.16,387.51,387.20,387.13,387.06,387.04,386.98,386.91,386.85,386.77,386.75,386.71,386.64,386.55,386.37,386.15,385.98,385.83,385.61,385.38,385.19,385.01,384.78,384.56,384.34,384.12,383.95,383.74,383.55,383.39,383.22,383.01,382.83,382.68,382.52,382.37,382.24,382.21,382.24,382.29,382.31,382.38,382.42,382.43,382.50,382.57,382.61,382.63,382.70,382.72,382.76,382.84,382.90,382.92,383.17,383.48,383.80,384.11,384.40,384.69,384.97,385.23,385.40,385.55,385.70,385.83,385.92,386.07,386.21,386.34,386.44,386.59,386.74,386.90,387.05,387.17,387.21,387.21,387.20,387.18,387.13,387.10,387.06,386.98,386.85,387.15,387.62,388.08,388.55
391.15,389.40,387.97,386.65,385.34,384.02,382.68,381.32,379.88,378.06,377.17,377.66,379.12,380.31,380.67,379.94,378.21,375.41,371.79,367.57,366.56,369.72,373.34,377.02,380.86,384.76,388.40,390.86,392.51,393.03,392.07,390.61,389.23,387.73,386.30,385.68,385.72,385.77,385.76,385.77,385.84,386.02,386.16,386.26,386.41,386.60,386.74,386.77,386.64,386.54,386.40,386.10,385.38,383.77,382.14,380.19,377.60,374.08,370.81,367.38,363.95,361.20,360.51,362.45,365.33,368.41,371.85,375.83,379.04,381.10,381.88,382.09,381.47,380.36,379.06,377.80,378.32,379.54,381.00,382.79,384.50,386.11,387.06,386.77,386.49,386.18,385.84,385.47,385.13,384.38,383.15,381.50,379.37,377.11,374.87,372.66,369.77,363.68,359.51,358.46,359.90,361.32,362.61,363.76,364.49,364.35,363.86,363.22,362.58,361.95,361.23,360.25,359.08,357.89,357.19,357.87,359.38,362.22,366.94,371.88,377.56,383.75,389.54,393.04,397.43,401.42,404.94,408.73,414.44,418.10,419.49,418.91,417.80,415.07,411.97,408.97,406.14,403.29,400.14,396.51,392.55,389.95,388.66,387.86,387.27,387.04,387.47,387.99,388.57,389.43,390.43,391.88,392.99,393.38,393.81,393.57,393.12,392.73,392.49,392.19,391.73,391.20,390.70,390.20,389.63,389.03,388.38,387.68,386.96,386.64,386.61,386.53,386.47,386.40,386.35,386.31,386.24,386.18,386.14,386.11,386.03,385.92,385.81,385.71,385.64,385.43,385.25,385.05,384.84,384.61,384.42,384.22,383.99,383.78,383.60,383.40,383.22,383.05,382.88,382.68,382.50,382.34,382.20,382.19,382.24,382.28,382.31,382.36,382.44,382.47,382.49,382.56,382.59,382.63,382.69,382.76,382.77,382.83,382.88,382.91,382.97,383.22,383.56,383.91,384.22,384.48,384.69,384.87,385.01,385.16,385.32,385.45,385.55,385.68,385.83,385.95,386.06,386.20,386.35,386.51,386.66,386.80,386.84,386.85,386.85,386.84,386.79,386.76,386.72,386.65,386.62,386.81,387.21,387.68,388.14,388.60
390.98,389.26,387.83,386.49,385.15,383.83,382.48,381.12,379.63,377.64,376.23,376.27,377.47,378.47,378.78,378.05,376.34,373.55,370.09,366.05,365.23,368.57,372.33,375.83,379.43,383.21,386.98,389.97,391.75,392.46,392.07,390.77,389.40,387.79,386.05,384.80,384.34,384.23,384.23,384.24,384.31,384.50,384.68,384.80,384.98,385.24,385.37,385.33,385.21,385.15,385.15,385.13,384.82,383.62,382.12,380.42,378.24,374.90,371.66,368.19,364.52,361.14,359.66,360.64,362.83,365.67,368.96,373.00,376.64,379.36,380.63,381.21,380.85,379.87,378.50,376.96,377.18,378.18,379.53,381.26,382.95,384.57,385.57,385.24,384.79,384.42,384.11,383.86,383.72,383.13,382.09,380.60,378.51,376.33,374.19,371.93,368.81,363.05,359.07,357.75,358.74,360.44,361.73,362.81,363.48,363.37,362.91,362.30,361.67,361.03,360.27,359.26,358.01,356.86,356.63,357.95,360.18,363.82,369.33,374.55,380.77,387.04,392.35,395.43,399.25,402.79,406.03,409.59,414.70,417.26,417.85,417.24,416.49,414.62,412.18,409.48,406.65,403.77,400.72,397.23,393.34,390.40,388.93,387.96,387.18,386.71,386.83,387.18,387.68,388.40,389.17,390.31,391.27,391.77,392.29,392.10,391.00,389.35,388.01,387.94,388.83,389.57,389.27,388.89,388.82,388.53,387.88,387.21,386.45,386.10,386.05,386.00,385.92,385.85,385.79,385.76,385.71,385.64,385.59,385.55,385.47,385.42,385.35,385.29,385.24,385.08,384.96,384.82,384.63,384.46,384.28,384.06,383.84,383.64,383.46,383.24,383.04,382.88,382.73,382.53,382.37,382.25,382.16,382.20,382.26,382.31,382.34,382.42,382.47,382.51,382.55,382.62,382.63,382.68,382.75,382.79,382.83,382.88,382.94,382.95,383.05,383.31,383.63,383.92,384.17,384.36,384.53,384.67,384.78,384.93,385.06,385.18,385.30,385.44,385.58,385.69,385.81,385.96,386.12,386.26,386.39,386.52,386.54,386.51,386.50,386.48,386.41,386.40,386.35,386.30,386.35,386.70,387.12,387.56,388.00,388.43
390.67,389.05,387.63,386.25,384.88,383.55,382.23,380.86,379.28,377.21,375.37,374.86,375.50,376.13,376.36,375.72,374.17,371.56,368.13,364.38,363.75,367.16,371.31,374.61,377.94,381.55,385.43,389.10,391.03,391.89,392.02,390.90,389.50,387.85,386.01,384.29,383.14,382.73,382.71,382.72,382.79,382.98,383.17,383.34,383.57,383.91,384.00,383.89,383.82,383.81,383.94,384.06,383.89,383.10,381.78,380.33,378.51,375.36,372.17,368.72,365.04,361.53,359.38,359.12,360.36,362.93,366.32,370.05,373.73,377.00,379.18,380.16,380.07,379.26,377.87,376.21,375.99,376.85,378.43,380.24,381.90,383.33,384.03,383.44,382.73,382.25,382.04,382.11,382.29,381.82,380.97,379.64,377.45,375.35,373.32,370.91,367.55,362.88,359.11,357.11,357.25,359.34,360.67,361.74,362.44,362.37,361.96,361.41,360.81,360.12,359.18,358.12,356.88,355.97,356.52,358.08,360.98,365.40,371.31,376.60,383.67,389.77,393.94,397.22,400.54,403.79,406.87,409.80,413.05,415.00,415.64,415.22,414.77,413.85,412.14,409.75,406.95,404.05,401.02,397.64,393.87,390.87,389.28,388.26,387.40,386.57,386.12,386.23,386.76,387.53,388.30,389.04,389.72,390.30,390.69,390.51,388.41,384.72,381.39,381.53,384.46,387.16,387.27,387.11,387.79,388.01,387.37,386.73,385.99,385.58,385.48,385.46,385.39,385.32,385.24,385.19,385.17,385.11,385.03,384.96,384.89,384.87,384.82,384.75,384.68,384.59,384.55,384.49,384.40,384.30,384.10,383.88,383.67,383.51,383.29,383.07,382.86,382.71,382.56,382.40,382.27,382.21,382.20,382.26,382.30,382.33,382.40,382.48,382.50,382.53,382.61,382.68,382.69,382.74,382.80,382.81,382.87,382.94,383.00,383.02,383.16,383.42,383.65,383.83,384.00,384.10,384.24,384.39,384.54,384.69,384.80,384.91,385.06,385.20,385.31,385.42,385.57,385.73,385.88,385.99,386.10,386.23,386.24,386.18,386.15,386.13,386.06,386.05,386.01,386.00,386.17,386.51,386.90,387.30,387.69,388.08
390.32,388.90,387.55,386.15,384.77,383.41,382.06,380.63,379.01,377.08,375.20,373.95,373.48,373.65,373.78,373.28,371.84,369.13,365.78,362.56,362.38,366.04,370.53,373.85,376.97,380.30,383.99,387.83,390.10,391.28,391.64,390.86,389.52,387.84,385.94,384.03,382.38,381.54,381.25,381.20,381.26,381.46,381.67,381.89,382.23,382.52,382.61,382.61,382.69,382.80,382.97,383.06,382.91,382.47,381.44,380.05,378.13,375.10,371.95,368.52,364.88,361.37,359.06,358.27,358.96,361.19,364.50,368.11,371.55,374.68,377.23,378.68,378.96,378.33,376.94,375.44,374.88,375.58,377.31,379.14,380.77,382.07,382.64,381.98,381.09,380.41,380.20,380.47,380.69,380.13,378.97,377.32,375.20,373.44,371.75,369.70,366.85,363.14,359.49,356.76,355.73,357.39,359.07,360.48,361.36,361.37,361.01,360.33,359.51,358.61,357.67,356.63,355.61,355.19,356.46,358.22,361.66,366.51,372.31,377.58,384.94,390.70,393.96,396.99,399.81,402.85,405.90,408.56,410.99,412.64,413.34,413.16,412.99,412.47,411.32,409.45,406.77,403.94,401.06,398.00,394.71,391.71,389.82,388.56,387.62,386.63,385.75,385.55,385.97,386.74,387.51,388.15,388.47,388.31,387.69,387.24,385.41,381.90,377.84,379.24,382.07,384.22,384.79,385.31,386.40,387.05,386.86,386.22,385.50,385.08,384.93,384.89,384.82,384.76,384.71,384.64,384.60,384.53,384.47,384.43,384.35,384.31,384.27,384.22,384.14,384.06,384.01,383.97,383.93,383.85,383.71,383.56,383.43,383.33,383.12,382.91,382.72,382.54,382.38,382.29,382.23,382.21,382.25,382.33,382.36,382.38,382.45,382.53,382.56,382.59,382.66,382.69,382.74,382.79,382.86,382.91,382.98,383.03,383.07,383.12,383.23,383.34,383.48,383.62,383.74,383.85,383.99,384.15,384.30,384.42,384.53,384.67,384.81,384.93,385.05,385.18,385.33,385.44,385.59,385.73,385.83,385.89,385.89,385.83,385.80,385.78,385.71,385.73,385.75,385.81,386.01,386.23,386.55,386.92,387.30,387.69
389.98,388.80,387.54,386.14,384.75,383.36,382.00,380.57,378.99,377.25,375.39,373.46,371.85,371.42,371.27,370.83,369.51,366.74,363.46,360.80,361.04,364.81,369.69,373.14,376.13,379.20,382.65,386.49,389.15,390.69,391.17,390.72,389.47,387.77,385.84,383.85,381.87,380.61,379.98,379.77,379.76,379.95,380.19,380.47,380.91,381.15,381.29,381.44,381.66,381.88,382.04,382.08,381.94,381.74,381.01,379.62,377.51,374.61,371.55,368.18,364.58,361.09,358.76,357.59,357.88,359.88,363.01,366.52,369.74,372.62,375.30,377.09,377.75,377.36,376.00,374.68,373.79,374.25,376.00,377.83,379.44,380.68,381.21,380.55,379.53,378.69,378.45,378.84,378.98,378.21,376.65,374.55,372.30,370.81,369.53,368.07,366.10,363.26,359.84,356.57,354.48,355.29,357.24,358.96,359.99,360.09,359.79,358.98,357.95,356.86,355.98,355.13,354.57,354.79,356.58,358.44,362.26,367.38,372.97,378.25,385.50,390.86,393.46,396.01,398.45,401.30,404.24,406.57,408.44,409.92,410.76,410.87,410.94,410.65,409.90,408.50,406.09,403.44,400.82,398.18,395.41,392.50,390.32,388.80,387.74,386.63,385.42,384.97,385.25,386.01,386.74,387.27,387.19,386.19,384.57,383.72,382.12,379.05,374.97,377.45,379.88,381.31,382.35,383.56,384.90,385.93,386.28,385.70,385.01,384.58,384.39,384.32,384.24,384.21,384.18,384.10,384.03,383.95,383.91,383.89,383.82,383.74,383.71,383.68,383.60,383.53,383.46,383.41,383.39,383.32,383.24,383.16,383.10,383.06,382.88,382.72,382.55,382.36,382.25,382.22,382.23,382.25,382.33,382.41,382.44,382.47,382.54,382.61,382.64,382.68,382.75,382.76,382.82,382.90,382.98,383.05,383.13,383.16,383.19,383.27,383.34,383.31,383.35,383.47,383.54,383.66,383.80,383.93,384.05,384.14,384.28,384.43,384.56,384.65,384.80,384.94,385.07,385.17,385.32,385.45,385.54,385.55,385.54,385.48,385.45,385.43,385.38,385.45,385.53,385.66,385.87,385.97,386.20,386.53,386.89,387.28
389.70,388.84,387.70,386.30,384.86,383.51,382.25,381.05,379.81,378.22,376.29,374.00,371.67,370.18,369.20,368.45,367.27,364.88,361.58,359.44,359.69,362.92,368.42,372.18,375.25,378.28,381.58,385.29,388.29,390.16,390.68,390.40,389.22,387.57,385.69,383.77,381.78,380.28,379.26,378.65,378.36,378.51,378.79,379.13,379.62,379.93,380.23,380.53,380.71,380.94,381.04,381.06,380.98,380.77,380.22,378.85,376.63,373.92,371.18,367.96,364.41,360.97,358.64,356.98,357.00,359.13,362.03,365.31,368.48,371.40,373.91,375.48,376.51,376.56,375.27,373.96,372.76,372.70,373.96,375.82,377.47,378.83,379.50,378.91,377.89,377.07,376.84,377.16,377.03,375.82,373.98,371.47,368.06,366.40,365.60,365.18,364.64,362.48,359.66,356.72,354.25,353.47,355.02,356.64,357.61,357.76,357.58,356.87,355.88,354.81,353.95,353.94,354.56,355.65,357.25,358.96,362.68,367.76,373.36,378.78,385.03,389.87,392.56,394.12,396.63,399.38,401.75,403.15,404.49,406.00,407.20,407.79,407.98,407.80,407.02,405.71,404.03,401.84,399.78,397.71,395.31,392.69,390.47,388.77,387.50,386.26,384.94,384.43,384.70,385.39,385.93,386.09,385.52,384.05,382.32,380.91,378.17,374.33,371.67,373.53,376.51,379.04,380.53,381.93,383.32,384.59,385.41,385.16,384.54,384.06,383.82,383.78,383.71,383.65,383.59,383.52,383.49,383.43,383.36,383.32,383.28,383.22,383.15,383.10,383.02,383.00,382.93,382.86,382.81,382.73,382.70,382.64,382.57,382.51,382.39,382.32,382.26,382.21,382.26,382.31,382.36,382.42,382.50,382.57,382.64,382.68,382.71,382.78,382.84,382.91,382.98,383.03,383.11,383.19,383.26,383.34,383.42,383.47,383.54,383.61,383.63,383.62,383.63,383.67,383.65,383.68,383.73,383.76,383.78,383.90,384.04,384.17,384.28,384.41,384.56,384.68,384.80,384.92,385.08,385.16,385.19,385.19,385.19,385.13,385.09,385.10,385.13,385.24,385.37,385.54,385.75,385.84,386.01,386.23,386.49,386.87
389.37,388.72,387.76,386.50,385.14,383.89,382.73,381.68,380.67,379.31,377.50,375.06,372.30,370.11,368.48,367.05,365.38,363.03,360.08,358.22,358.42,361.38,366.99,371.11,374.38,377.36,380.53,383.99,387.12,389.19,389.79,389.84,388.85,387.29,385.48,383.66,381.75,380.15,378.87,377.94,377.33,377.23,377.40,377.74,378.20,378.53,378.90,379.29,379.51,379.77,379.88,379.90,379.91,379.75,379.34,378.10,375.97,373.44,371.09,368.16,364.75,361.29,358.76,356.62,356.26,358.25,361.00,364.12,367.26,370.18,372.47,373.88,375.13,375.56,374.56,373.26,371.87,371.30,371.94,373.68,375.31,376.76,377.56,377.08,376.15,375.38,375.16,375.42,375.18,373.78,371.30,367.85,363.81,362.36,362.18,362.55,362.80,361.25,358.95,356.36,353.77,351.95,352.90,354.22,355.07,355.26,355.17,354.62,353.88,353.21,353.08,353.95,355.31,356.82,358.29,360.29,363.91,368.62,373.82,379.11,384.24,388.28,390.79,391.96,394.50,397.06,398.87,399.47,400.48,401.75,402.99,403.94,404.34,404.27,403.60,402.50,401.34,399.84,398.45,396.90,394.85,392.57,390.44,388.66,387.22,385.84,384.42,383.86,384.05,384.59,384.96,384.67,383.63,381.91,380.18,378.49,375.34,371.24,368.78,370.94,373.98,376.58,378.43,380.10,381.66,383.13,384.29,384.56,384.07,383.55,383.25,383.23,383.18,383.11,383.03,382.96,382.94,382.89,382.82,382.75,382.73,382.66,382.60,382.53,382.46,382.44,382.38,382.31,382.25,382.18,382.18,382.17,382.13,382.10,382.08,382.11,382.15,382.23,382.40,382.49,382.58,382.65,382.72,382.81,382.88,382.94,382.97,383.04,383.12,383.19,383.24,383.33,383.40,383.47,383.56,383.63,383.71,383.78,383.87,383.93,383.94,383.94,383.94,383.92,383.87,383.86,383.85,383.81,383.78,383.88,383.97,384.05,384.12,384.21,384.32,384.42,384.53,384.69,384.82,384.87,384.86,384.84,384.86,384.84,384.83,384.87,384.95,385.09,385.24,385.42,385.63,385.73,385.86,386.00,386.18,386.50
388.97,388.41,387.68,386.73,385.61,384.55,383.47,382.44,381.49,380.47,379.03,376.69,373.79,371.39,369.35,366.81,363.92,361.13,359.01,357.13,357.25,360.30,365.38,369.94,373.50,376.46,379.50,382.55,385.56,387.68,388.42,389.01,388.32,386.93,385.20,383.48,381.74,380.17,378.83,377.73,376.73,376.12,375.99,376.31,376.64,376.90,377.23,377.62,377.98,378.33,378.50,378.59,378.69,378.66,378.39,377.40,375.58,373.23,371.35,368.86,365.69,362.16,359.19,356.58,355.69,357.17,359.88,362.93,366.03,368.87,370.93,372.30,373.57,374.29,373.85,372.56,371.13,370.12,370.02,371.44,372.98,374.47,375.38,375.03,374.28,373.60,373.38,373.62,373.47,372.19,368.63,363.63,359.67,358.87,359.50,360.33,360.55,359.53,357.65,355.38,352.93,350.76,350.91,351.74,352.43,352.62,352.57,352.27,351.98,352.15,353.63,355.36,356.91,358.25,359.71,362.57,366.13,370.07,374.37,379.18,383.15,386.05,387.98,389.52,392.03,394.30,395.60,395.56,396.49,397.21,398.08,399.24,399.94,400.01,399.64,398.95,397.98,397.45,396.81,395.74,394.05,392.14,390.23,388.48,386.91,385.39,383.87,383.21,383.26,383.56,383.82,382.99,381.50,379.76,378.11,376.47,373.92,370.23,366.43,370.08,372.51,373.84,375.94,378.00,379.91,381.55,382.87,383.88,383.58,383.06,382.71,382.65,382.64,382.58,382.50,382.42,382.36,382.34,382.29,382.22,382.15,382.08,382.04,382.00,381.93,381.86,381.79,381.74,381.72,381.65,381.69,381.75,381.80,381.87,381.98,382.11,382.26,382.47,382.68,382.79,382.87,382.94,383.02,383.10,383.18,383.25,383.32,383.39,383.47,383.52,383.54,383.62,383.69,383.77,383.85,383.93,384.00,384.08,384.16,384.22,384.22,384.22,384.22,384.22,384.21,384.21,384.17,384.12,384.12,384.13,384.11,384.09,384.09,384.05,384.06,384.15,384.30,384.45,384.55,384.57,384.55,384.50,384.56,384.62,384.68,384.75,384.82,384.97,385.13,385.30,385.51,385.61,385.74,385.87,385.98,386.17
388.00,387.45,386.83,386.17,385.53,384.90,384.07,383.13,382.13,381.10,379.99,378.17,375.70,373.28,371.06,368.28,364.69,360.50,358.16,356.17,356.22,359.17,363.81,368.78,372.62,375.58,378.58,381.52,384.16,386.11,387.14,387.97,387.74,386.77,385.31,383.61,381.92,380.34,378.94,377.79,376.68,375.75,375.11,374.87,375.08,375.28,375.58,375.98,376.34,376.65,376.79,376.94,377.15,377.16,377.03,376.51,375.39,373.45,371.77,369.57,366.75,363.41,360.35,357.55,355.66,355.59,358.42,361.58,364.67,367.51,369.74,371.27,372.50,373.26,373.15,371.97,370.55,369.05,368.19,369.56,371.08,372.54,373.49,373.36,372.67,371.90,371.63,371.90,371.76,369.79,365.48,360.21,356.85,355.88,356.38,356.92,356.64,356.08,355.10,353.57,351.44,349.04,348.90,349.43,349.91,350.13,350.48,351.04,351.84,353.07,355.07,356.98,358.86,360.77,362.88,365.86,368.95,372.08,375.42,379.10,382.10,384.44,386.25,387.97,389.99,391.67,392.53,392.22,392.59,392.88,393.37,394.20,394.87,395.27,395.48,395.46,395.05,395.06,394.83,394.16,392.88,391.21,389.59,388.01,386.43,384.88,383.34,382.48,382.25,382.38,382.21,381.04,379.41,377.72,376.10,374.47,372.40,369.02,363.88,366.89,369.70,371.52,373.45,375.59,377.65,379.56,381.25,382.59,382.82,382.53,382.18,382.11,382.07,382.00,381.94,381.89,381.82,381.77,381.72,381.65,381.60,381.53,381.50,381.50,381.49,381.44,381.43,381.44,381.47,381.47,381.55,381.66,381.77,381.89,382.07,382.26,382.47,382.69,382.90,383.05,383.16,383.23,383.31,383.39,383.47,383.54,383.63,383.70,383.77,383.83,383.88,383.95,384.03,384.09,384.14,384.22,384.29,384.38,384.45,384.51,384.52,384.52,384.52,384.52,384.52,384.52,384.49,384.46,384.46,384.43,384.39,384.35,384.31,384.27,384.26,384.29,384.36,384.44,384.49,384.54,384.60,384.63,384.67,384.71,384.75,384.80,384.85,384.92,385.03,385.18,385.36,385.48,385.63,385.75,385.83,385.99
386.87,386.27,385.72,385.28,385.12,384.94,384.44,383.65,382.63,381.52,380.69,379.44,377.57,375.19,372.88,370.21,366.19,360.49,357.56,355.32,355.26,358.04,362.25,367.51,371.61,374.65,377.66,380.63,382.88,384.62,385.95,386.86,387.10,386.61,385.45,383.84,382.16,380.55,379.13,377.96,376.81,375.67,374.52,373.60,373.59,373.69,373.95,374.32,374.68,374.86,374.98,375.18,375.49,375.52,375.54,375.51,375.13,373.72,372.14,370.21,367.76,364.69,361.69,358.81,355.91,354.12,356.86,360.14,363.26,366.09,368.56,370.33,371.54,372.30,372.42,371.41,370.00,368.08,366.53,367.69,369.17,370.62,371.64,371.71,370.98,370.05,369.66,369.95,369.79,367.02,362.30,357.25,354.46,353.06,353.11,353.16,352.32,352.10,352.03,351.28,349.53,347.19,347.12,347.57,347.95,348.29,349.15,350.66,352.57,354.75,356.86,358.83,361.07,363.64,366.39,369.12,371.59,373.97,376.43,378.93,381.11,383.06,384.89,386.65,388.09,389.08,389.45,389.04,388.86,388.79,388.93,389.31,389.81,390.47,391.17,391.77,392.07,392.57,392.69,392.36,391.49,390.07,388.73,387.34,385.85,384.34,382.81,381.75,381.22,381.10,380.39,378.96,377.30,375.65,374.02,372.39,370.69,367.58,361.38,363.36,366.74,369.38,371.08,373.12,375.24,377.39,379.45,381.00,381.89,381.96,381.65,381.57,381.50,381.43,381.38,381.36,381.30,381.23,381.17,381.12,381.11,381.06,381.04,381.06,381.12,381.13,381.18,381.26,381.34,381.43,381.56,381.71,381.87,382.03,382.25,382.47,382.69,382.92,383.09,383.30,383.45,383.53,383.61,383.69,383.76,383.84,383.92,383.99,384.07,384.14,384.22,384.30,384.37,384.41,384.44,384.52,384.60,384.67,384.74,384.81,384.81,384.82,384.82,384.82,384.81,384.81,384.81,384.81,384.80,384.74,384.72,384.68,384.63,384.62,384.61,384.58,384.53,384.54,384.55,384.65,384.79,384.90,384.92,384.93,384.93,384.94,384.94,384.95,385.00,385.08,385.22,385.36,385.51,385.63,385.72,385.87
385.81,385.10,384.50,384.06,383.90,383.83,383.72,383.42,382.77,381.75,380.98,380.01,378.52,376.19,373.91,371.49,367.61,361.53,357.83,354.81,354.35,357.08,360.75,365.62,369.94,373.47,376.58,379.65,381.96,383.70,385.01,385.83,386.25,386.04,385.22,384.05,382.44,380.78,379.30,378.14,376.99,375.75,374.47,373.25,372.51,372.26,372.34,372.61,372.92,373.02,373.19,373.47,373.79,373.83,374.05,374.26,374.19,373.39,372.00,370.40,368.35,365.47,362.68,359.84,356.66,354.07,355.39,358.61,361.78,364.50,366.91,368.86,370.35,371.32,371.55,370.86,369.40,367.38,365.48,365.29,366.52,368.21,369.53,369.63,368.48,367.13,366.50,366.71,366.48,363.79,359.72,355.34,352.02,350.23,349.82,349.55,348.73,348.45,348.46,347.88,346.60,345.55,346.53,347.66,348.55,349.45,350.88,352.63,354.68,356.92,358.91,361.50,364.04,366.40,368.74,370.53,372.34,374.33,376.49,378.64,380.27,381.86,383.54,385.08,386.20,386.42,386.04,385.67,385.85,385.65,385.54,385.78,385.95,386.09,386.38,386.96,388.06,389.67,390.21,390.07,389.69,388.69,387.39,386.16,385.03,383.72,382.26,381.19,380.43,379.62,378.27,376.65,374.94,373.23,371.56,369.89,368.23,365.30,359.49,362.13,365.25,367.46,369.25,370.87,372.82,374.95,377.08,378.99,380.53,381.12,381.07,380.99,380.96,380.89,380.83,380.79,380.80,380.78,380.78,380.81,380.85,380.87,380.91,380.95,380.98,381.02,381.13,381.26,381.39,381.56,381.72,381.88,382.04,382.25,382.47,382.67,382.88,383.10,383.31,383.53,383.71,383.83,383.90,383.98,384.06,384.13,384.21,384.28,384.37,384.44,384.52,384.60,384.68,384.73,384.79,384.87,384.94,384.99,385.03,385.10,385.11,385.14,385.17,385.16,385.12,385.11,385.11,385.11,385.10,385.08,385.07,385.03,384.97,384.97,384.93,384.89,384.87,384.87,384.87,384.97,385.11,385.19,385.20,385.20,385.20,385.20,385.21,385.25,385.23,385.17,385.16,385.25,385.39,385.51,385.61,385.75
384.84,384.02,383.32,382.81,382.61,382.61,382.82,382.94,382.68,381.85,381.12,380.30,379.05,376.79,374.54,372.31,368.70,362.73,358.25,354.40,353.32,355.66,359.05,363.55,368.08,372.12,375.36,378.55,381.00,382.82,384.07,384.79,385.31,385.31,384.78,384.00,382.64,381.01,379.49,378.31,377.14,375.84,374.48,373.10,371.81,371.16,370.97,371.06,371.25,371.28,371.49,371.82,372.15,372.27,372.66,373.01,373.12,372.80,371.68,370.34,368.55,365.88,363.30,360.55,357.25,354.04,353.85,356.75,359.97,362.70,365.04,367.09,368.82,370.02,370.38,369.96,368.48,366.46,364.38,363.06,363.82,365.65,367.25,367.26,365.68,364.05,363.28,363.46,363.15,360.85,357.51,353.70,349.95,347.63,346.62,346.03,345.39,345.17,345.27,345.28,345.19,345.51,347.23,348.87,350.27,351.77,353.58,355.45,357.47,359.62,361.47,364.30,366.77,368.71,370.51,371.58,372.89,374.57,376.56,378.41,379.59,380.75,382.11,383.31,384.17,383.85,382.95,382.52,382.96,382.75,382.45,382.44,382.33,382.08,382.00,382.42,383.90,386.56,387.55,387.59,387.61,387.04,385.92,384.85,383.96,382.87,381.53,380.37,379.25,377.82,375.99,374.21,372.47,370.73,369.04,367.35,365.65,362.89,357.88,361.29,363.86,365.31,367.22,368.67,370.53,372.56,374.64,376.79,378.80,379.98,380.43,380.48,380.50,380.47,380.42,380.39,380.45,380.47,380.52,380.60,380.68,380.75,380.83,380.89,380.93,381.03,381.18,381.33,381.50,381.72,381.89,382.06,382.24,382.46,382.69,382.88,383.07,383.30,383.53,383.75,383.95,384.10,384.19,384.28,384.37,384.44,384.50,384.58,384.66,384.73,384.81,384.89,384.96,385.04,385.12,385.20,385.27,385.31,385.34,385.40,385.42,385.47,385.50,385.48,385.43,385.42,385.41,385.40,385.40,385.40,385.40,385.37,385.32,385.32,385.25,385.22,385.21,385.20,385.20,385.31,385.43,385.48,385.48,385.49,385.51,385.53,385.56,385.60,385.52,385.36,385.22,385.21,385.31,385.42,385.52,385.67
384.01,383.12,382.25,381.58,381.39,381.47,381.84,382.17,382.19,381.71,381.06,380.25,379.01,376.83,374.60,372.37,369.14,364.00,358.74,354.13,352.04,353.33,356.97,361.33,366.02,370.48,373.92,377.18,379.87,381.87,383.06,383.69,384.23,384.36,384.05,383.44,382.63,381.25,379.71,378.49,377.27,375.89,374.48,373.09,371.74,370.63,370.03,369.81,369.76,369.75,369.97,370.28,370.61,370.98,371.46,371.81,371.93,371.81,371.13,369.91,368.11,365.70,363.31,360.71,357.38,353.70,352.12,354.30,357.53,360.58,362.87,364.88,366.72,368.09,368.63,368.39,366.96,365.03,363.00,361.29,361.24,362.94,364.70,364.42,362.49,360.89,360.29,360.55,360.13,358.59,355.84,352.29,348.64,345.45,343.58,342.65,342.37,342.51,342.94,344.52,346.97,348.49,350.13,351.74,353.45,355.52,357.39,359.29,361.25,363.20,364.96,367.09,368.84,370.16,371.48,372.47,373.53,374.98,376.89,378.34,379.13,379.78,380.50,381.27,381.86,381.51,380.56,379.85,380.12,380.07,379.66,379.12,378.89,378.66,378.52,378.69,379.75,383.16,384.62,384.84,385.08,384.89,384.28,383.41,382.43,381.55,380.44,378.97,377.26,375.45,373.50,371.59,369.80,368.15,366.50,364.82,363.03,360.46,356.66,360.62,362.28,362.67,364.65,366.51,368.48,370.36,372.18,374.33,376.45,378.36,379.72,380.08,380.19,380.24,380.28,380.32,380.34,380.39,380.47,380.53,380.62,380.70,380.77,380.86,381.00,381.19,381.35,381.50,381.68,381.90,382.07,382.26,382.46,382.64,382.87,383.08,383.31,383.54,383.77,383.95,384.15,384.35,384.48,384.62,384.72,384.78,384.80,384.88,384.95,385.03,385.11,385.19,385.26,385.33,385.42,385.49,385.57,385.63,385.68,385.70,385.76,385.78,385.79,385.79,385.77,385.77,385.73,385.69,385.69,385.69,385.69,385.69,385.67,385.67,385.61,385.57,385.56,385.50,385.50,385.60,385.70,385.71,385.72,385.76,385.82,385.90,386.01,385.99,385.88,385.70,385.50,385.32,385.30,385.38,385.52,385.67
383.22,382.31,381.38,380.59,380.26,380.59,381.06,381.43,381.51,381.27,380.73,379.84,378.46,376.37,374.25,372.12,369.15,364.37,358.81,353.59,350.81,351.50,354.91,358.87,363.30,367.91,372.17,375.60,378.57,380.82,382.02,382.62,383.14,383.40,383.29,382.75,382.17,381.16,379.89,378.63,377.33,375.95,374.56,373.21,371.88,370.60,369.70,369.12,368.70,368.58,368.74,368.99,369.28,369.75,370.26,370.61,370.73,370.61,370.10,369.08,367.49,365.25,362.97,360.52,357.13,353.03,350.74,351.97,354.84,358.05,360.44,362.54,364.46,365.90,366.51,366.36,365.13,363.37,361.43,359.80,359.66,361.16,362.76,362.48,360.60,358.91,358.14,358.27,357.80,356.68,354.49,351.44,347.93,343.99,341.44,340.27,340.30,340.87,343.10,346.18,349.28,351.09,352.63,354.44,356.45,358.37,359.95,361.54,363.26,365.14,367.13,368.82,370.02,370.94,372.06,373.12,374.19,375.49,377.03,377.98,378.48,378.86,379.26,379.72,380.12,379.85,379.03,378.02,377.67,377.38,376.88,376.18,375.83,375.63,375.54,375.65,376.52,379.83,381.48,382.01,382.49,382.48,382.18,381.57,380.69,379.77,378.61,376.97,375.03,373.13,371.55,370.15,368.72,367.15,365.42,363.64,361.66,359.04,355.84,359.35,360.60,360.66,362.28,364.14,366.10,367.98,369.82,371.91,374.02,376.16,378.03,379.12,379.86,380.09,380.16,380.23,380.26,380.32,380.41,380.49,380.60,380.73,380.84,380.96,381.13,381.36,381.53,381.69,381.85,382.08,382.25,382.44,382.66,382.86,383.08,383.31,383.53,383.74,383.97,384.16,384.37,384.58,384.74,384.89,385.01,385.09,385.13,385.20,385.28,385.35,385.40,385.47,385.56,385.63,385.70,385.78,385.86,385.94,385.99,386.00,386.07,386.09,386.09,386.09,386.09,386.09,386.06,386.01,385.99,385.99,385.99,385.99,385.99,385.99,385.95,385.91,385.87,385.83,385.83,385.91,385.99,386.00,386.05,386.12,386.21,386.33,386.43,386.34,386.19,386.02,385.81,385.56,385.42,385.41,385.49,385.64
382.49,381.57,380.64,379.75,379.18,379.81,380.36,380.65,380.71,380.61,380.21,379.21,377.62,375.63,373.66,371.68,368.83,364.12,358.55,352.90,349.65,349.98,352.96,356.42,360.32,364.88,370.17,373.85,377.14,379.68,380.99,381.61,382.10,382.47,382.56,382.05,381.51,380.90,380.05,378.75,377.38,376.05,374.73,373.43,372.17,370.88,369.76,368.82,367.98,367.69,367.70,367.83,368.06,368.56,369.03,369.37,369.48,369.25,368.76,368.01,366.74,364.66,362.45,360.12,356.64,352.22,349.63,349.85,352.15,355.33,357.88,360.15,362.12,363.56,364.17,364.07,363.11,361.56,359.77,358.49,358.67,359.95,361.18,361.00,359.40,357.55,356.47,356.34,355.88,354.96,353.30,350.84,347.43,342.87,339.85,338.60,338.98,340.15,344.75,349.09,351.76,353.40,354.87,356.97,359.16,360.58,361.71,362.85,364.25,366.11,368.46,369.87,370.68,371.35,372.44,373.63,374.81,375.97,376.97,377.41,377.69,377.94,378.19,378.46,378.72,378.62,377.99,376.74,375.56,374.83,374.20,373.50,373.00,372.81,372.79,372.97,373.75,376.47,378.13,379.04,379.81,379.83,379.75,379.44,378.76,377.71,376.35,374.64,372.73,370.92,369.93,369.31,368.46,367.04,365.14,363.20,360.78,357.76,354.93,357.64,358.87,359.06,360.12,361.74,363.58,365.51,367.49,369.52,371.54,373.64,375.76,377.72,379.35,379.90,380.02,380.12,380.20,380.28,380.36,380.46,380.61,380.82,380.99,381.14,381.30,381.53,381.70,381.86,382.03,382.25,382.43,382.63,382.86,383.08,383.31,383.54,383.74,383.92,384.15,384.37,384.60,384.81,384.97,385.13,385.28,385.40,385.47,385.55,385.63,385.68,385.70,385.77,385.85,385.93,386.00,386.08,386.16,386.23,386.28,386.29,386.36,386.38,386.38,386.38,386.38,386.38,386.37,386.35,386.29,386.28,386.28,386.28,386.28,386.28,386.27,386.23,386.18,386.18,386.18,386.23,386.29,386.32,386.44,386.54,386.65,386.78,386.84,386.67,386.49,386.33,386.15,385.86,385.63,385.48,385.45,385.59
381.92,381.07,380.09,378.97,378.05,378.60,379.23,379.63,379.75,379.67,379.26,378.30,376.84,375.08,373.17,371.05,367.94,362.98,357.54,352.14,348.80,348.75,351.75,355.04,358.38,362.30,367.53,371.82,375.36,378.23,380.19,380.93,381.46,381.91,382.14,381.80,381.33,380.83,380.12,378.95,377.67,376.39,375.12,373.85,372.61,371.31,370.10,369.01,368.09,367.43,366.87,366.63,366.86,367.26,367.58,367.80,367.85,367.57,367.14,366.60,365.70,364.09,362.12,359.63,356.08,351.76,349.04,348.87,350.50,353.03,355.51,357.87,359.87,361.28,361.83,361.73,360.97,359.74,358.31,357.28,357.80,358.98,359.78,359.21,357.67,355.92,354.76,354.37,353.90,353.21,351.86,349.56,345.79,341.28,338.54,337.89,339.41,342.16,346.88,350.83,353.25,355.17,356.94,358.79,360.51,361.71,362.78,363.88,365.25,367.06,369.22,370.41,371.13,371.78,372.81,373.97,374.96,375.73,376.19,376.33,376.53,376.76,376.99,377.18,377.40,377.49,377.11,375.86,374.52,373.36,372.31,371.31,370.29,369.84,369.73,369.88,370.57,372.38,373.97,375.33,376.51,376.69,376.93,376.91,376.39,375.36,374.00,372.45,370.90,369.60,368.45,367.85,367.54,366.93,364.69,362.46,358.10,352.83,351.45,355.07,357.11,357.81,358.72,359.96,361.38,363.08,365.06,367.06,369.07,371.16,373.33,375.47,377.45,378.83,379.68,380.04,380.23,380.35,380.47,380.60,380.76,380.98,381.16,381.31,381.49,381.70,381.88,382.06,382.25,382.44,382.63,382.85,383.08,383.31,383.51,383.72,383.94,384.14,384.37,384.57,384.78,385.01,385.20,385.36,385.52,385.66,385.77,385.86,385.93,385.99,386.04,386.12,386.19,386.25,386.29,386.37,386.45,386.52,386.58,386.59,386.66,386.68,386.68,386.68,386.68,386.68,386.68,386.66,386.63,386.63,386.60,386.58,386.58,386.58,386.58,386.56,386.53,386.53,386.53,386.58,386.66,386.75,386.86,386.98,387.12,387.22,387.17,387.00,386.83,386.65,386.41,386.14,385.87,385.64,385.53,385.60
381.35,380.57,379.52,378.24,377.04,377.29,377.90,378.38,378.55,378.50,378.15,377.31,376.03,374.49,372.67,370.32,366.82,361.60,356.39,351.36,348.06,347.69,350.80,353.96,356.85,360.15,364.98,369.76,373.51,376.65,379.22,380.31,380.94,381.44,381.78,381.66,381.31,380.87,380.22,379.19,377.97,376.73,375.50,374.26,373.02,371.75,370.50,369.36,368.42,367.42,366.38,365.75,365.80,365.91,366.07,366.17,366.14,365.83,365.48,365.12,364.55,363.45,361.77,359.11,355.45,351.30,348.60,348.12,349.19,351.19,353.53,355.89,357.83,359.12,359.56,359.48,358.87,357.92,356.84,356.18,356.99,358.06,358.47,357.43,355.90,354.29,353.12,352.54,352.06,351.43,350.16,347.84,343.81,339.55,337.51,337.81,340.48,344.54,348.82,352.13,354.39,356.63,358.67,360.25,361.50,362.60,363.71,364.86,366.24,367.92,369.75,370.78,371.50,372.20,373.12,374.13,374.84,375.22,375.28,375.23,375.32,375.52,375.74,375.91,376.13,376.36,376.19,375.06,373.71,372.22,370.78,369.41,367.86,366.97,366.59,366.68,367.34,368.49,370.01,371.69,373.18,373.57,374.08,374.29,373.92,372.92,371.55,370.12,368.86,367.92,366.66,366.21,366.50,366.65,364.06,361.40,355.36,348.29,348.13,352.76,355.54,356.63,357.49,358.42,359.45,360.86,362.68,364.61,366.61,368.71,370.87,373.03,375.19,377.29,378.89,379.70,380.17,380.40,380.58,380.75,380.94,381.16,381.34,381.50,381.66,381.88,382.05,382.25,382.46,382.64,382.86,383.08,383.31,383.53,383.70,383.91,384.14,384.37,384.59,384.77,384.97,385.20,385.43,385.60,385.76,385.92,386.05,386.14,386.22,386.30,386.38,386.45,386.53,386.57,386.60,386.68,386.75,386.83,386.87,386.89,386.95,386.96,386.97,386.98,386.98,386.97,386.96,386.96,386.96,386.96,386.92,386.88,386.88,386.87,386.87,386.87,386.87,386.87,386.89,386.95,387.06,387.21,387.29,387.43,387.57,387.64,387.49,387.34,387.18,386.96,386.67,386.42,386.12,385.84,385.65,385.62
380.68,379.88,378.82,377.57,376.39,376.00,376.26,376.61,376.76,376.80,376.78,376.21,375.07,373.66,372.06,369.39,365.40,360.06,355.32,350.59,347.38,346.99,350.13,353.16,355.97,359.03,363.14,367.77,371.64,374.88,377.61,379.66,380.53,381.03,381.42,381.53,381.49,381.10,380.42,379.47,378.22,376.97,375.73,374.50,373.27,372.10,370.94,369.83,368.88,367.84,366.81,365.90,365.19,364.52,364.48,364.54,364.43,364.08,363.84,363.59,363.21,362.52,361.25,358.50,354.69,350.62,348.19,347.32,348.31,350.46,352.59,354.81,356.37,357.25,357.49,357.51,357.00,356.12,355.27,355.32,356.28,357.20,357.28,355.90,354.36,352.83,351.70,351.13,350.67,349.58,347.78,345.19,341.52,337.70,337.15,339.07,342.44,346.26,349.84,352.77,355.12,357.44,359.46,361.00,362.23,363.43,364.62,365.87,367.18,368.55,369.93,370.96,371.79,372.53,373.31,373.80,374.14,374.35,374.41,374.34,374.20,374.23,374.46,374.67,374.90,375.13,375.06,374.20,372.89,371.43,369.86,368.14,366.28,364.51,363.47,363.34,364.28,365.72,367.26,368.79,370.15,370.88,371.42,371.66,371.40,370.44,368.86,367.26,365.81,364.56,363.80,364.42,365.54,365.83,363.03,359.57,353.65,347.35,347.09,351.89,354.56,355.46,356.32,357.24,358.20,359.28,360.58,362.20,364.14,366.24,368.40,370.56,372.73,374.88,376.83,378.47,379.80,380.30,380.57,380.83,381.09,381.33,381.51,381.67,381.83,382.06,382.23,382.42,382.65,382.86,383.09,383.29,383.48,383.71,383.92,384.15,384.36,384.54,384.77,384.98,385.21,385.44,385.66,385.83,386.02,386.19,386.30,386.43,386.51,386.60,386.67,386.75,386.83,386.89,386.95,387.03,387.11,387.14,387.18,387.23,387.25,387.26,387.29,387.33,387.33,387.28,387.26,387.26,387.26,387.26,387.24,387.23,387.22,387.17,387.16,387.16,387.16,387.17,387.27,387.39,387.53,387.67,387.76,387.90,388.00,387.99,387.85,387.69,387.46,387.21,386.95,386.66,386.32,386.01,385.80,385.64
379.94,379.11,378.04,376.83,375.66,374.80,374.71,374.91,375.08,375.19,375.33,375.01,374.12,372.84,371.38,368.15,363.57,358.46,354.07,349.75,346.47,345.62,349.05,352.22,355.08,358.01,361.55,365.80,369.69,373.06,375.91,378.45,379.88,380.64,381.09,381.53,381.71,381.34,380.61,379.70,378.48,377.24,376.02,374.83,373.64,372.51,371.39,370.33,369.38,368.35,367.31,366.26,365.18,364.14,363.75,363.44,363.02,362.56,362.33,362.12,361.85,361.38,360.33,357.65,353.99,350.15,347.75,346.61,347.56,349.85,351.82,353.74,354.82,355.30,355.41,355.50,355.10,354.41,353.91,354.52,355.56,356.31,356.15,354.59,353.06,351.62,350.24,349.03,348.27,346.95,345.05,342.50,339.18,336.09,336.93,340.02,343.65,347.26,350.43,353.21,355.67,358.04,360.03,361.57,362.88,364.14,365.32,366.51,367.68,368.80,369.84,370.80,371.63,372.36,372.99,373.20,373.34,373.48,373.55,373.49,373.25,373.12,373.21,373.43,373.64,373.90,373.94,373.36,372.12,370.65,368.94,367.02,365.27,362.94,361.22,360.66,361.63,363.19,364.75,366.18,367.42,368.29,368.73,368.87,368.56,367.43,365.78,364.20,362.85,361.94,362.29,363.81,364.96,364.42,361.46,357.80,352.23,346.69,346.65,351.08,353.47,354.26,355.12,356.06,357.00,357.92,358.93,360.24,361.87,363.79,365.90,368.04,370.18,372.38,374.56,376.61,378.49,379.56,380.23,380.68,380.99,381.25,381.47,381.68,381.89,382.16,382.40,382.63,382.85,383.06,383.29,383.49,383.69,383.92,384.15,384.37,384.56,384.75,384.98,385.21,385.43,385.64,385.87,386.06,386.27,386.46,386.56,386.69,386.80,386.89,386.96,387.04,387.12,387.19,387.27,387.35,387.43,387.45,387.48,387.55,387.56,387.56,387.59,387.65,387.65,387.61,387.57,387.56,387.56,387.56,387.56,387.56,387.54,387.49,387.48,387.48,387.48,387.50,387.63,387.82,388.00,388.12,388.23,388.35,388.40,388.35,388.17,387.99,387.75,387.46,387.18,386.88,386.51,386.19,385.96,385.77
