369.10,371.17,373.95,377.10,380.25,383.14,386.15,388.67,390.17,390.98,391.58,391.82,391.92,392.54,393.26,393.93,394.62,395.24,394.89,393.43,390.93,387.34,382.83,376.69,370.71,367.74,371.74,376.89,381.49,385.05,387.47,389.58,391.35,392.80,394.02,395.20,396.58,397.33,397.63,397.88,398.17,398.04,397.58,396.85,395.95,394.93,394.37,394.49,395.65,398.13,401.77,405.90,409.91,413.02,415.47,418.48,422.33,426.52,430.80,434.53,437.90,440.86,442.15,440.88,438.45,435.60,432.66,429.50,426.10,422.70,419.75,417.37,415.40,413.77,412.49,411.40,410.82,410.37,409.92,409.48,408.82,408.10,407.42,406.84,406.29,405.89,405.77,405.86,405.72,405.11,404.22,403.09,401.66,400.12,398.75,398.18,398.93,400.23,402.29,404.52,406.65,408.65,410.47,412.11,413.66,415.23,416.80,418.33,419.98,421.87,423.98,426.08,428.14,430.23,432.36,434.33,436.26,438.20,440.12,441.74,443.27,444.50,445.38,446.02,446.08,446.45,447.37,448.78,449.91,452.88,456.53,460.06,463.52,466.95,470.82,475.36,480.82,486.74,492.88,498.52,503.02,506.84,511.12,515.96,520.95,525.09,529.43,534.48,540.16,546.28,552.49,557.73,562.31,566.67,571.51,577.13,582.63,587.57,591.49,594.57,597.47,601.72,608.79,617.18,627.77,637.16,644.09,649.73,653.95,658.07,662.23,666.18,670.38,674.49,678.67,683.08,687.61,691.80,695.81,699.77,703.78,707.65,710.05,711.24,711.49,710.80,709.84,708.88,708.01,707.39,707.25,707.91,709.21,710.76,711.67,712.40,713.02,713.46,713.82,714.46,715.02,715.42,715.77,716.22,716.60,716.86,716.89,716.53,716.13,715.46,714.46,713.36,712.00,710.36,708.54,706.67,704.68,701.85,698.29,694.07,689.34,684.92,681.30,678.49,675.97,673.39,670.46,667.33,664.09,660.46,656.62,652.79,649.33,647.00,645.31,643.83,642.32,640.56,638.88,636.99,634.85,632.38,629.52,626.30,622.86,618.95,613.95,609.51,606.22,603.79,601.88,600.40,599.26,598.30,597.41,596.49
367.62,369.14,371.58,374.91,378.74,382.28,385.56,388.38,390.45,391.75,392.98,393.62,393.81,394.49,395.39,396.15,396.91,397.75,397.61,396.26,393.87,390.50,386.43,381.88,376.96,374.14,377.56,382.43,386.94,390.46,392.80,394.78,396.31,397.65,399.02,400.73,402.78,403.65,403.68,403.42,402.60,401.90,401.01,399.87,398.86,397.73,397.01,396.96,398.08,400.84,405.50,410.12,413.35,416.12,418.94,422.42,426.55,430.71,434.19,437.27,440.28,443.16,444.81,443.53,441.01,438.14,435.09,432.14,428.99,425.65,422.44,419.99,418.04,416.52,415.49,414.54,413.83,413.22,412.66,412.14,411.01,409.97,409.19,408.68,408.45,408.38,408.49,408.70,408.63,408.41,407.78,406.79,405.47,403.21,401.05,399.62,399.43,400.47,402.35,404.42,406.44,408.43,410.25,411.88,413.44,415.06,416.67,418.27,420.00,421.99,424.21,426.44,428.76,431.14,433.43,435.52,437.61,439.96,442.62,444.94,446.62,447.89,448.89,449.68,449.89,449.99,450.20,450.58,450.91,453.13,456.16,459.31,462.58,465.92,469.62,473.98,479.61,486.30,492.77,498.44,502.93,506.68,510.91,515.78,520.87,524.98,529.41,534.79,540.77,546.80,553.18,558.50,562.96,567.00,571.74,576.95,582.20,587.13,591.17,594.24,597.14,601.28,608.02,616.45,627.13,636.57,643.51,649.22,653.51,657.76,662.24,666.72,671.00,674.96,678.94,683.21,687.73,691.92,695.93,699.86,703.64,706.79,708.91,709.99,709.87,708.72,707.35,705.99,704.82,704.25,704.08,704.50,705.49,706.93,707.94,708.99,709.84,710.27,710.57,710.96,711.28,711.51,711.77,712.11,712.31,712.35,712.17,711.63,710.95,710.14,709.20,708.25,707.19,705.95,704.52,702.83,700.75,697.64,693.89,689.78,685.49,680.80,676.50,672.85,669.73,667.05,664.43,661.63,658.55,655.32,651.88,648.78,646.28,644.29,642.84,641.43,639.75,637.50,635.46,633.74,631.90,629.50,626.53,623.40,620.25,616.69,611.87,607.72,604.36,601.74,599.95,598.88,598.03,597.16,596.25,595.32
367.31,368.72,371.09,374.48,378.58,382.21,385.20,387.73,389.80,391.28,392.65,393.88,395.01,396.20,397.26,398.18,399.06,399.83,399.78,399.25,397.54,394.38,390.53,386.23,381.98,379.77,382.81,387.30,391.45,394.84,397.38,399.40,401.22,403.09,405.06,407.00,408.68,409.26,409.16,408.81,407.82,406.91,405.97,404.92,403.82,402.39,401.17,400.72,402.04,405.21,409.39,413.34,416.40,419.36,422.74,426.59,430.77,434.95,438.46,442.11,445.31,447.08,447.91,446.48,443.82,440.56,437.30,434.39,431.45,428.36,425.26,422.95,421.00,419.48,418.55,417.80,417.22,416.69,416.20,415.67,414.54,413.41,412.51,411.92,411.32,410.83,410.71,410.93,410.94,410.85,410.41,409.68,408.74,407.12,405.08,403.18,401.94,401.44,402.75,404.62,406.52,408.40,410.16,411.78,413.34,414.93,416.51,418.09,419.86,421.98,424.56,426.97,429.45,432.06,434.66,436.84,439.53,442.70,445.91,448.08,449.62,450.90,452.01,452.92,453.52,453.79,453.97,454.36,454.55,455.59,457.25,459.54,462.79,466.26,470.03,474.23,479.30,486.00,492.43,498.05,502.63,506.41,510.67,515.54,520.64,524.80,529.11,534.89,541.41,547.41,553.73,559.09,563.56,567.48,571.96,576.79,581.77,586.65,590.81,593.92,596.82,600.81,607.22,615.57,626.30,635.79,642.71,648.33,652.86,657.44,662.23,666.96,671.31,675.19,679.09,683.32,687.80,691.99,696.02,699.85,703.12,705.96,707.79,708.40,707.56,706.16,704.61,703.02,701.63,700.93,700.67,701.01,701.71,702.41,702.84,703.31,703.77,704.22,704.98,706.02,706.78,707.19,707.59,708.07,708.26,708.17,707.85,707.30,706.55,705.71,704.82,703.91,702.84,701.48,699.80,697.69,695.21,692.14,688.65,684.80,680.51,676.01,672.00,668.60,665.48,662.59,659.80,656.87,653.60,650.58,647.78,645.27,643.13,641.19,639.42,637.70,635.87,633.69,631.65,629.88,627.97,625.59,622.96,620.35,617.63,614.46,610.32,606.45,603.05,600.38,598.85,597.77,596.91,596.05,595.11,594.15
367.39,368.85,371.26,374.66,378.73,382.21,384.78,386.91,388.83,390.41,391.80,393.58,395.68,397.45,398.75,399.92,400.99,401.73,401.84,402.21,401.35,398.64,395.10,390.85,387.11,385.43,388.03,392.10,395.79,398.98,401.70,403.84,406.07,408.54,411.07,413.02,414.10,414.33,414.15,413.80,412.89,411.92,411.04,410.20,409.15,407.62,406.15,405.53,407.07,410.40,413.65,416.68,419.69,422.93,426.77,430.85,435.01,439.21,443.02,447.26,450.57,451.14,450.99,449.39,446.61,442.98,439.47,436.48,433.66,430.85,428.06,425.97,424.04,422.49,421.59,420.94,420.50,420.11,419.70,419.14,418.14,417.05,416.13,415.44,414.42,413.44,412.95,413.02,413.08,413.01,412.71,412.20,411.57,410.77,409.11,407.04,404.98,402.96,403.44,404.94,406.71,408.48,410.20,411.80,413.33,414.87,416.41,417.96,419.75,422.04,424.97,427.59,430.23,433.01,435.92,438.31,441.75,445.71,449.15,450.98,452.39,453.70,454.93,456.04,457.18,457.79,458.16,458.74,458.93,458.89,459.21,460.52,463.50,467.02,470.92,475.04,479.47,485.70,491.90,497.50,502.19,506.07,510.37,515.21,520.23,524.49,528.71,534.93,542.02,547.95,554.18,559.56,564.06,567.92,572.14,576.58,581.30,586.12,590.44,593.62,596.50,600.34,606.41,614.60,625.30,634.85,641.85,647.37,652.24,657.18,662.23,667.10,671.48,675.29,679.11,683.32,687.84,692.05,696.12,699.84,702.61,705.21,706.64,706.64,705.15,703.61,701.80,699.89,698.21,697.36,697.01,697.24,697.65,697.59,697.41,697.22,697.24,697.70,698.90,700.59,701.90,702.69,703.33,704.03,704.22,704.01,703.61,703.11,702.35,701.41,700.41,699.44,698.21,696.59,694.55,691.98,689.19,686.31,683.26,679.79,675.52,671.45,668.00,665.05,662.06,658.94,655.85,652.62,649.12,646.16,643.84,641.74,639.69,637.70,635.51,633.45,631.50,629.50,627.56,625.69,623.72,621.52,619.34,617.32,615.06,612.31,608.91,605.35,601.98,599.37,598.07,596.89,595.91,594.98,594.00,593.00
367.78,369.50,372.06,375.30,378.71,381.61,383.83,385.77,387.58,389.24,390.75,392.67,394.99,397.19,399.03,400.71,402.23,403.36,403.98,404.89,404.97,403.59,400.96,397.32,393.88,392.02,393.70,397.21,400.44,403.25,405.80,408.23,410.76,413.44,415.94,417.36,417.99,418.03,417.80,417.43,416.59,415.77,414.99,414.28,413.81,413.07,412.65,412.98,414.63,416.94,419.13,421.45,424.28,427.63,431.36,435.29,439.33,443.49,447.77,451.52,453.94,454.13,453.54,451.86,449.13,445.47,441.63,438.30,435.36,432.77,430.65,428.88,427.10,425.53,424.42,423.47,422.99,422.66,422.23,421.51,420.69,419.93,419.26,418.61,417.74,416.67,415.72,415.16,415.14,415.04,414.70,414.13,413.37,412.56,411.44,409.97,408.05,405.85,404.89,405.42,407.11,408.83,410.53,412.11,413.58,415.04,416.57,418.11,420.00,422.49,425.50,428.38,431.23,434.10,437.04,440.22,444.56,448.75,451.41,453.10,454.59,456.05,457.52,459.12,461.08,462.34,462.99,463.41,463.47,463.18,462.95,463.27,464.93,467.96,471.97,476.38,480.48,485.23,490.94,496.65,501.43,505.59,509.93,514.54,519.28,523.78,528.21,534.98,542.52,548.20,554.42,559.78,564.24,568.04,572.11,576.20,580.66,585.45,590.10,593.32,596.21,599.88,605.53,613.39,623.76,633.46,640.99,646.52,651.90,657.11,662.20,667.18,671.42,675.10,678.77,682.91,687.76,692.13,696.25,699.95,702.47,704.78,705.34,704.57,703.07,701.52,698.93,696.16,693.96,693.02,692.66,692.58,692.54,692.35,692.13,691.89,691.86,692.27,693.32,694.79,696.38,697.88,698.94,699.87,699.99,699.62,699.19,698.85,698.09,696.77,695.03,693.62,692.03,690.20,688.05,685.42,682.92,680.58,678.19,675.39,671.66,668.49,665.61,662.76,659.71,656.53,653.03,649.40,645.86,642.53,639.88,637.52,635.27,633.07,630.71,628.55,626.57,624.62,622.73,620.87,619.24,617.89,616.12,614.51,612.69,610.42,607.60,604.32,601.30,598.99,597.73,596.46,595.28,594.11,592.95,591.89
368.00,369.70,372.21,375.25,378.14,380.68,382.72,384.55,386.34,388.10,389.82,391.87,394.27,396.71,398.94,400.97,402.77,404.29,405.52,406.95,407.88,407.77,406.28,403.65,400.80,398.88,399.62,402.26,405.07,407.75,410.35,413.03,415.96,418.94,421.47,422.53,422.96,422.96,422.73,422.33,421.56,420.65,419.77,419.11,419.03,418.97,419.44,420.52,422.06,423.49,424.81,426.46,428.87,432.06,435.89,440.10,444.40,448.41,452.67,455.69,457.21,457.08,456.08,454.16,451.41,447.86,443.88,440.18,437.11,434.73,433.03,431.50,429.89,428.41,427.22,426.09,425.50,425.04,424.46,423.57,422.82,422.24,421.71,421.10,420.39,419.42,418.37,417.53,417.33,417.07,416.61,415.94,415.11,414.32,413.56,412.47,410.70,408.65,406.92,406.53,407.61,409.27,411.07,412.70,414.17,415.58,417.09,418.71,420.79,423.50,426.54,429.47,432.41,435.37,438.41,442.37,447.13,451.16,453.31,455.05,456.65,458.56,460.84,463.18,465.56,467.10,467.91,468.31,468.33,467.82,467.16,466.74,467.11,469.38,473.29,477.90,481.66,485.34,490.25,495.58,500.37,504.60,509.11,513.70,518.34,523.17,528.18,535.19,542.72,548.32,554.47,559.75,564.16,567.95,571.89,575.76,579.98,584.67,589.52,592.88,595.85,599.42,604.69,612.31,622.19,631.85,639.89,645.73,651.54,656.94,662.07,667.12,671.29,674.85,678.33,682.32,687.63,692.13,696.23,699.84,702.17,704.00,703.91,702.65,701.03,698.89,695.52,691.92,688.95,687.68,687.46,687.55,687.61,687.40,687.09,686.75,686.52,686.58,687.39,688.76,690.59,692.56,694.02,695.08,695.30,695.02,694.64,694.41,693.55,691.88,689.62,687.80,685.80,683.88,681.93,679.63,677.62,675.73,673.71,671.28,668.25,665.71,663.19,660.43,657.36,654.17,650.55,646.77,643.19,639.52,636.46,633.65,630.89,628.21,625.70,623.41,621.28,619.26,617.50,615.99,614.90,614.22,613.00,611.90,610.64,609.00,606.69,603.77,601.13,599.09,597.76,596.38,594.96,593.56,592.25,591.07
367.95,369.29,371.50,374.28,376.90,379.39,381.43,383.28,385.13,387.03,389.06,391.26,393.63,396.09,398.51,400.62,402.50,404.32,406.26,408.22,409.90,410.94,410.80,409.64,407.76,406.01,405.81,407.18,409.65,412.54,415.50,418.36,421.84,425.28,427.94,428.90,429.41,429.55,429.40,428.97,428.23,426.93,425.71,425.00,425.03,425.42,426.49,427.94,429.13,429.92,430.63,431.64,433.36,436.06,440.31,445.38,450.41,454.14,457.75,459.83,460.52,460.10,458.66,456.29,453.41,450.10,446.23,442.15,438.97,436.76,435.19,433.75,432.36,431.08,429.98,428.89,428.10,427.30,426.37,425.35,424.55,423.88,423.30,422.75,422.18,421.50,420.81,420.20,419.68,419.13,418.45,417.65,416.88,416.20,415.56,414.52,412.84,411.24,409.61,408.43,408.23,409.83,411.84,413.63,415.16,416.57,418.04,419.85,422.24,425.23,428.24,430.94,433.81,436.87,440.12,444.80,449.32,452.80,454.85,456.85,458.60,461.34,465.13,468.47,470.75,472.08,472.89,473.46,473.59,472.84,471.84,470.94,470.18,471.38,474.93,479.62,482.96,486.20,489.95,494.26,498.94,502.95,507.78,512.67,517.43,522.75,528.72,535.62,542.56,548.33,554.30,559.42,563.79,567.63,571.45,575.25,579.29,583.75,588.66,592.26,595.41,598.94,603.88,611.39,620.60,629.98,638.50,644.97,651.13,656.65,661.79,666.88,671.06,674.55,677.79,681.53,687.42,692.03,696.00,699.42,701.64,702.77,702.33,700.96,699.00,695.50,691.43,687.09,683.09,681.11,681.23,682.17,683.00,682.84,682.35,681.79,681.11,680.48,680.96,682.47,684.47,686.62,688.44,689.53,690.08,690.20,689.95,689.77,688.65,686.72,684.28,682.10,679.66,677.81,676.41,674.90,673.55,671.98,669.97,667.49,665.33,663.05,660.60,657.92,654.89,651.79,648.40,644.82,641.16,637.25,633.75,630.27,626.66,623.16,620.52,618.05,615.58,613.35,611.83,611.09,610.74,610.46,609.97,609.49,608.99,608.15,606.29,603.83,601.59,599.73,598.22,596.66,594.99,593.40,591.99,590.64
367.92,369.11,371.03,373.48,375.92,378.34,380.51,382.74,385.10,387.22,389.29,391.33,393.36,395.46,397.81,399.96,401.94,403.89,406.02,408.09,409.94,411.47,412.52,413.01,412.30,411.32,411.93,413.65,416.14,418.98,421.88,424.61,427.48,430.19,432.27,433.11,433.69,433.90,433.86,433.61,433.22,432.21,431.24,430.68,430.52,430.70,431.41,432.48,433.52,434.23,434.98,436.09,437.98,441.07,445.33,450.02,454.61,458.42,462.11,463.76,463.86,463.13,461.35,458.72,455.70,452.42,448.73,444.77,441.53,439.16,437.55,436.12,434.76,433.53,432.48,431.47,430.62,429.53,428.22,427.12,426.26,425.53,424.90,424.39,423.86,423.28,422.70,422.13,421.58,421.00,420.27,419.45,418.74,418.25,417.68,416.75,415.27,413.74,412.14,410.63,409.74,410.63,412.56,414.48,416.13,417.58,419.19,421.50,424.28,427.27,429.99,432.41,435.08,438.21,442.07,446.76,450.86,454.15,456.67,459.04,461.63,465.03,469.05,472.39,474.67,476.35,477.69,478.68,479.06,478.88,478.29,477.35,476.35,476.72,478.87,482.15,485.27,488.66,491.69,494.59,497.75,501.39,506.40,511.51,516.38,521.75,528.70,535.33,541.43,547.49,553.57,558.80,563.26,567.11,570.93,574.62,578.42,582.65,587.66,591.53,594.84,598.34,603.05,610.30,619.02,628.14,636.86,643.97,650.55,656.21,661.29,666.29,670.57,673.94,676.96,680.54,686.49,691.42,695.49,698.78,700.92,701.64,700.77,698.83,695.88,691.19,685.79,680.36,675.99,675.07,675.70,676.61,677.17,676.86,675.86,674.72,673.77,673.32,673.77,675.38,677.50,679.74,681.69,683.13,683.74,683.82,683.65,683.50,682.28,680.41,678.18,675.88,673.55,671.87,670.72,669.72,668.59,667.20,665.50,663.49,661.52,659.34,657.04,654.58,651.77,648.92,645.78,642.46,639.04,635.06,631.19,627.15,622.89,618.95,615.95,613.40,611.03,608.85,607.52,607.08,607.21,607.56,607.31,606.92,606.60,606.26,605.54,604.23,602.45,600.64,599.23,597.64,595.81,594.03,592.46,590.94
368.01,369.16,370.85,372.96,375.28,377.59,379.95,382.60,385.53,387.88,389.90,391.70,393.35,395.02,397.17,399.29,401.29,403.30,405.44,407.42,409.23,410.98,413.00,415.01,415.56,415.67,417.64,420.21,422.87,425.57,428.29,430.75,432.73,434.45,435.89,436.70,437.38,437.73,437.86,437.89,437.91,437.39,436.82,436.38,435.83,435.52,435.59,436.15,437.32,438.26,439.30,440.72,442.91,446.45,450.41,454.35,458.25,462.33,466.15,467.53,467.21,466.19,464.15,461.32,458.13,454.74,451.24,447.58,444.35,441.79,440.07,438.60,437.17,435.91,434.92,433.99,433.12,431.84,430.22,429.01,428.03,427.19,426.50,426.02,425.50,424.95,424.38,423.82,423.35,422.81,422.10,421.30,420.67,420.33,419.83,418.99,417.75,416.20,414.58,412.95,411.64,411.62,413.29,415.28,417.08,418.63,420.53,423.41,426.53,429.37,431.74,433.89,436.32,439.49,444.10,448.57,452.28,455.55,458.67,461.48,465.00,468.87,472.67,475.73,478.11,480.32,482.35,483.86,484.60,485.16,485.17,484.41,483.48,483.23,483.83,485.45,488.51,492.19,494.73,496.31,497.70,500.79,505.62,510.65,515.43,520.59,528.28,534.59,539.92,546.27,552.55,557.99,562.58,566.46,570.30,573.90,577.50,581.54,586.62,590.78,594.25,597.71,602.19,609.14,617.40,626.25,635.08,642.73,649.81,655.62,660.60,665.47,669.90,673.20,676.07,679.51,685.28,690.56,694.77,697.92,699.98,700.38,699.13,696.56,692.54,686.83,680.13,673.62,668.96,669.10,670.09,670.68,670.74,670.28,668.77,667.06,665.96,665.96,666.54,668.25,670.46,672.74,674.67,676.43,677.00,676.91,676.80,676.57,675.25,673.54,671.72,669.57,667.68,666.22,665.14,664.31,663.19,661.93,660.62,659.18,657.20,655.13,653.05,650.87,648.36,645.83,642.97,639.95,636.83,632.88,628.72,624.21,619.42,615.16,611.78,609.20,607.05,605.02,603.84,603.54,604.02,604.98,604.79,604.30,603.95,603.97,604.44,604.40,603.21,601.59,600.36,598.80,596.86,594.93,593.17,591.47
368.73,370.06,371.73,373.68,375.87,378.08,380.49,383.21,386.17,388.62,390.57,392.32,393.97,395.58,397.31,399.08,400.86,402.72,404.81,406.68,408.38,410.10,412.22,414.67,416.59,418.43,421.28,424.32,427.19,429.87,432.34,434.51,436.31,438.05,439.77,441.17,442.20,443.07,443.76,444.12,444.19,443.96,443.45,442.57,441.16,440.23,439.99,440.77,443.11,444.99,446.32,447.58,449.26,451.77,454.57,458.13,462.50,467.11,469.97,470.85,470.47,469.36,467.35,464.22,460.65,457.00,453.52,450.11,447.19,444.85,443.12,441.44,439.81,438.41,437.44,436.59,435.75,434.65,433.23,431.59,430.09,428.95,428.13,427.63,427.18,426.62,426.09,425.63,425.24,424.70,424.01,423.31,422.78,422.42,421.84,421.00,419.88,418.51,416.91,415.31,413.94,413.19,414.16,415.99,417.97,419.81,422.48,425.65,428.64,431.11,433.31,435.42,437.66,440.77,446.00,450.46,454.22,457.67,461.06,464.46,468.09,471.77,475.34,478.60,481.43,484.11,486.61,488.65,490.07,490.75,490.90,490.59,489.87,489.55,489.83,491.26,494.90,498.21,500.72,502.38,503.36,505.16,508.17,511.61,515.31,519.79,526.82,532.89,538.26,544.56,551.02,556.66,561.42,565.39,569.21,572.95,576.62,580.58,585.54,590.07,593.79,597.20,601.32,607.97,615.62,624.13,633.04,640.74,648.48,654.50,659.29,664.09,668.80,672.36,675.37,678.75,683.94,689.28,693.40,696.24,698.28,698.24,696.97,694.45,690.06,684.03,677.28,670.47,664.72,662.53,662.70,663.19,663.43,663.31,661.86,660.31,659.41,659.56,660.52,662.42,664.70,666.89,668.43,669.80,670.26,670.19,670.01,669.28,667.48,665.82,664.77,663.83,663.03,661.93,660.39,658.47,657.19,656.02,654.88,653.65,651.86,650.28,648.62,646.76,644.70,642.48,640.04,637.41,634.41,630.57,626.44,621.80,616.69,611.97,608.64,606.09,603.91,601.96,600.81,600.77,601.49,602.46,602.31,601.73,601.38,601.53,602.24,602.76,602.73,602.14,601.02,599.58,597.69,595.68,593.75,591.88
369.49,371.05,372.80,374.68,376.75,378.90,381.34,384.06,386.90,389.35,391.26,392.99,394.69,396.31,397.76,399.24,400.80,402.50,404.46,406.14,407.69,409.33,411.43,414.14,417.06,420.23,423.88,427.44,430.53,433.24,435.64,437.85,439.90,441.99,444.08,445.88,447.24,448.49,449.57,450.21,450.37,450.34,449.89,448.73,446.77,445.47,445.02,445.88,448.84,451.23,452.75,454.04,455.59,457.47,459.54,462.78,467.16,471.48,473.46,473.97,473.56,472.34,470.44,467.24,463.41,459.44,455.85,452.65,450.04,447.94,446.18,444.31,442.48,441.02,440.15,439.34,438.48,437.54,436.35,434.50,432.68,431.24,430.18,429.48,428.99,428.41,427.89,427.50,427.17,426.63,425.99,425.37,424.90,424.44,423.76,422.88,421.80,420.59,419.05,417.54,416.16,414.92,415.11,416.68,418.88,421.12,424.35,427.64,430.49,432.72,434.82,436.90,439.18,442.40,447.82,452.24,456.12,459.81,463.53,467.38,470.98,474.44,477.86,481.33,484.59,487.82,490.91,493.48,495.40,496.14,496.46,496.67,496.41,496.24,496.52,498.08,502.23,505.22,507.58,509.31,510.23,511.16,512.68,514.75,517.43,521.16,526.90,532.30,537.38,543.21,549.68,555.41,560.27,564.33,568.10,571.92,575.70,579.69,584.57,589.45,593.37,596.74,600.58,606.88,613.96,622.06,630.85,638.60,646.84,653.08,657.75,662.39,667.43,671.35,674.62,677.99,682.66,688.03,692.05,694.58,696.44,696.02,694.75,692.37,687.95,681.91,675.37,668.35,661.46,656.84,655.71,655.87,656.33,656.52,655.29,654.05,653.40,653.70,654.99,656.96,659.19,661.24,662.50,663.45,663.76,663.65,663.25,662.08,659.99,658.37,657.80,657.79,657.85,657.12,655.38,652.77,651.28,650.16,649.12,648.00,646.49,645.31,644.08,642.63,641.03,639.15,637.11,634.78,631.88,628.16,624.00,619.23,613.96,609.31,606.12,603.56,601.33,599.54,598.37,598.35,599.03,599.87,599.81,599.31,599.01,599.22,600.03,600.93,601.78,602.06,601.11,599.65,597.63,595.51,593.53,591.69
370.15,372.00,373.93,375.89,377.88,380.01,382.49,385.14,387.78,390.08,391.93,393.66,395.41,397.07,398.61,400.07,401.50,403.00,404.70,406.05,407.36,408.92,411.03,413.92,417.02,420.52,424.97,429.22,432.59,435.41,438.06,441.03,444.00,446.81,449.23,450.82,452.39,453.66,454.65,455.40,455.81,455.88,455.56,454.64,453.00,451.87,451.29,451.69,453.82,455.63,457.13,458.94,461.43,463.96,466.46,469.39,472.51,474.74,476.29,476.78,476.28,474.87,473.19,470.38,466.63,462.27,458.39,455.27,452.92,451.01,449.06,447.09,445.17,443.80,443.21,442.35,441.39,440.44,439.38,437.90,436.26,434.63,433.10,431.87,431.11,430.47,429.92,429.49,429.11,428.64,428.07,427.48,426.99,426.34,425.55,424.59,423.41,422.22,420.83,419.44,418.10,416.83,416.16,417.38,419.84,422.63,425.88,429.04,431.81,434.12,436.22,438.31,441.06,444.74,449.50,453.73,457.73,461.80,466.06,470.01,473.51,476.89,480.34,483.92,487.44,491.44,495.45,498.55,500.42,501.32,502.01,502.80,503.49,503.74,504.34,506.23,510.57,513.53,515.38,516.72,517.87,519.02,520.29,521.86,523.95,526.97,530.57,534.30,538.19,542.72,548.86,554.47,559.32,563.42,567.07,570.83,574.70,578.89,583.88,589.01,592.98,596.34,600.13,605.95,612.66,620.22,628.41,636.39,644.75,651.16,655.87,660.22,665.64,670.06,673.67,677.11,681.55,686.97,690.96,693.21,694.52,693.90,692.55,690.30,686.34,680.79,674.54,667.27,659.39,653.15,650.06,649.38,649.90,650.23,649.40,648.52,648.15,648.66,650.08,651.88,653.80,655.65,656.99,657.66,657.78,657.44,656.54,655.20,653.30,651.71,650.91,650.99,651.20,650.78,649.54,647.53,645.78,644.59,643.59,642.50,641.36,640.30,639.43,638.60,637.37,635.98,634.20,632.00,629.18,625.56,621.19,616.13,610.97,607.56,604.58,601.90,599.68,598.23,596.96,596.42,596.54,597.08,597.29,597.20,597.06,597.20,598.14,599.26,600.25,600.75,600.18,598.37,595.79,593.42,591.68,590.29
370.48,372.39,374.36,376.36,378.34,380.50,383.02,385.67,388.26,390.54,392.43,394.24,396.05,397.80,399.47,401.07,402.59,404.06,405.67,406.82,407.94,409.39,411.49,414.22,417.21,420.75,425.45,429.89,433.45,436.61,439.86,443.60,447.16,450.29,452.87,454.72,456.56,458.13,459.47,460.60,461.12,461.13,460.69,459.81,458.54,457.58,457.05,457.25,458.77,460.48,462.56,465.03,467.80,470.46,473.09,475.86,478.40,479.58,480.33,480.35,479.56,477.92,476.11,473.38,469.68,465.21,461.14,457.90,455.51,453.64,451.80,449.77,447.85,446.56,446.12,445.41,444.49,443.55,442.55,441.20,439.65,437.93,436.17,434.64,433.82,433.15,432.51,431.90,431.33,430.77,430.16,429.55,428.93,428.15,427.27,426.21,424.95,423.73,422.41,421.06,419.76,418.50,417.44,418.25,420.57,423.64,426.86,429.97,432.80,435.26,437.54,439.93,442.91,446.56,450.74,454.82,459.00,463.44,468.08,472.07,475.55,478.99,482.55,486.25,490.42,494.96,499.30,502.61,504.80,506.53,508.20,509.95,511.75,513.37,515.09,517.41,521.14,524.02,525.57,526.46,527.25,528.04,529.10,530.43,532.12,534.47,536.99,539.66,542.48,545.66,550.20,554.65,558.91,562.96,566.54,570.29,574.30,578.68,583.69,588.86,592.86,596.23,600.00,605.61,611.92,618.75,626.17,634.21,642.33,648.99,654.12,658.23,663.44,668.60,673.02,676.64,680.83,685.78,689.54,691.69,692.61,692.04,690.63,688.33,684.59,679.27,673.01,665.61,657.39,650.25,645.62,643.58,643.41,644.11,643.65,643.07,642.87,643.41,644.90,646.70,648.54,650.26,651.51,652.10,652.16,651.78,650.87,649.57,647.76,645.99,644.79,644.88,645.27,645.26,644.58,642.99,641.13,639.31,637.69,636.43,635.74,635.12,634.67,634.28,633.56,632.51,630.95,628.89,626.18,622.75,618.21,613.12,608.38,605.88,603.31,600.80,598.63,597.13,595.64,594.53,594.02,594.24,594.61,594.87,594.95,595.13,596.12,597.32,598.42,599.00,598.39,596.21,593.27,590.43,588.18,586.75
370.62,372.45,374.36,376.35,378.36,380.56,383.11,385.81,388.44,390.77,392.77,394.70,396.61,398.47,400.32,402.16,403.90,405.46,407.07,408.14,409.14,410.46,412.50,414.87,417.60,421.02,425.59,429.89,433.58,437.20,441.19,445.61,449.54,452.81,455.51,457.90,460.05,462.11,464.06,465.66,466.21,466.10,465.47,464.46,463.63,462.87,462.49,462.69,463.79,465.69,468.61,471.73,474.43,476.94,479.53,482.20,484.53,485.33,485.13,484.44,483.25,481.36,479.19,476.34,472.65,468.25,464.04,460.56,457.96,456.04,454.46,452.44,450.61,449.40,448.99,448.52,447.70,446.79,445.82,444.44,442.91,441.18,439.33,437.66,436.87,436.17,435.38,434.52,433.71,432.96,432.27,431.59,430.77,429.93,428.93,427.77,426.46,425.16,423.84,422.52,421.24,420.01,418.88,419.24,421.15,424.32,427.41,430.55,433.51,436.19,438.76,441.60,444.65,447.95,451.60,455.53,459.88,464.65,469.62,473.66,477.23,480.81,484.56,488.40,493.38,498.29,502.62,505.98,508.77,511.72,514.71,517.62,520.58,524.02,527.25,530.13,532.87,535.61,536.96,537.39,537.50,537.64,538.50,539.70,541.10,542.82,544.93,546.98,548.87,550.76,553.10,555.87,559.20,563.05,566.55,570.33,574.49,579.04,583.99,589.00,592.98,596.38,600.16,605.69,611.59,617.65,624.23,632.15,639.82,646.76,652.49,656.47,661.19,667.17,672.58,676.44,680.33,684.51,687.89,690.02,690.66,690.26,688.79,686.37,682.72,677.39,670.97,663.56,655.44,647.92,642.10,638.45,637.09,638.11,637.99,637.66,637.57,638.08,639.61,641.52,643.41,645.04,646.10,646.71,646.82,646.53,645.84,644.70,642.88,640.79,639.10,639.14,639.76,640.25,640.16,638.88,637.00,634.30,631.73,630.14,629.89,629.86,629.84,629.79,629.62,628.82,627.44,625.54,622.96,619.75,615.14,610.18,606.01,604.17,602.13,599.96,597.88,596.09,594.35,592.65,591.50,591.29,591.69,592.26,592.60,592.93,594.00,595.21,596.40,597.00,596.12,593.61,590.38,586.90,583.68,581.86
370.88,372.56,374.32,376.15,378.00,380.15,382.69,385.42,388.09,390.47,392.63,394.70,396.75,398.78,400.94,403.10,405.12,406.88,408.45,409.62,410.77,412.14,414.00,415.96,418.49,421.79,426.02,430.02,433.76,437.56,441.69,446.08,450.30,454.07,457.35,460.19,462.92,465.60,467.93,469.40,470.04,470.34,469.91,468.83,468.36,468.05,468.00,468.42,469.71,471.78,474.40,477.27,480.28,483.35,485.89,488.19,489.99,490.42,490.06,489.02,487.46,485.37,482.86,479.84,476.06,471.49,467.01,463.41,460.74,458.78,457.25,455.60,454.11,453.01,452.41,451.82,450.97,450.04,449.00,447.61,446.06,444.33,442.46,440.63,439.56,438.62,437.70,436.81,435.93,435.13,434.33,433.50,432.63,431.68,430.52,429.24,427.89,426.57,425.16,423.87,422.74,421.67,420.66,420.51,421.68,424.54,427.35,430.36,433.49,436.66,439.70,442.60,445.46,448.40,451.58,455.04,459.08,463.91,469.48,474.19,478.35,482.25,486.09,490.23,495.53,500.49,504.85,508.77,512.57,516.52,520.49,524.33,527.99,531.89,535.95,539.82,542.75,544.73,545.73,546.05,545.97,546.07,546.38,547.07,548.14,549.42,551.22,553.08,554.77,556.24,558.03,560.13,562.64,565.60,568.65,572.47,576.69,581.21,586.03,590.22,593.88,597.40,601.30,606.48,612.09,617.79,623.82,631.04,638.33,645.29,651.36,655.86,660.68,666.90,672.51,676.29,679.74,683.25,686.06,687.82,688.28,687.67,686.20,683.90,680.31,674.50,668.25,661.31,653.67,646.30,640.34,635.66,632.68,632.35,632.38,632.32,632.40,633.08,634.74,636.78,638.74,640.32,641.24,641.75,641.93,641.75,640.98,639.68,637.59,635.18,633.16,632.94,634.16,635.29,635.67,634.77,632.94,630.11,627.21,625.16,624.76,624.96,625.20,625.33,625.27,624.71,623.54,621.85,619.50,616.30,612.06,607.50,603.52,601.85,600.15,598.30,596.40,594.55,592.73,590.75,588.92,587.72,587.52,588.25,589.08,590.00,591.77,593.17,594.52,595.22,594.27,591.99,588.01,583.50,579.38,576.77
371.43,372.94,374.56,376.22,377.87,379.92,382.38,385.00,387.60,390.01,392.31,394.55,396.76,398.98,401.41,403.86,406.18,408.20,409.84,411.20,412.53,413.97,415.64,417.30,419.61,422.68,426.47,430.13,433.87,437.71,441.69,445.89,450.21,454.50,458.51,461.82,465.04,468.21,470.89,472.49,473.41,474.27,474.25,473.34,473.24,473.60,474.03,474.73,476.32,478.45,480.54,482.95,486.02,489.40,491.74,493.62,495.00,495.23,494.85,493.59,491.70,489.38,486.56,483.36,479.49,474.86,470.17,466.42,463.73,461.84,460.43,459.19,457.98,456.87,455.98,455.13,454.22,453.25,452.17,450.76,449.18,447.44,445.55,443.58,442.25,441.08,440.04,439.12,438.14,437.27,436.33,435.35,434.44,433.35,432.06,430.66,429.26,427.92,426.50,425.29,424.32,423.42,422.56,421.98,422.40,424.75,427.29,430.19,433.46,437.01,440.38,443.23,445.90,448.59,451.41,454.46,458.09,462.77,468.69,474.05,478.88,483.19,487.20,491.72,497.22,502.17,506.57,511.03,515.74,520.44,525.11,529.71,534.08,538.28,542.88,547.46,550.67,552.01,552.88,553.40,553.40,553.73,553.67,553.87,554.59,555.55,557.03,558.82,560.58,562.07,563.83,565.58,567.41,569.47,572.06,575.83,579.97,584.24,588.57,591.89,595.17,598.74,602.88,607.79,613.32,618.89,624.52,630.91,637.73,644.62,650.98,656.01,660.86,666.98,672.43,675.96,679.02,681.95,684.21,685.58,685.83,685.00,683.43,681.08,677.33,671.32,665.43,659.07,651.99,644.99,639.17,633.82,629.45,627.50,627.42,627.35,627.43,628.18,629.91,632.12,634.20,635.80,636.62,636.98,637.14,636.94,636.00,634.50,632.13,629.46,627.24,626.81,628.40,630.04,630.90,630.42,628.69,625.97,622.96,620.47,619.73,619.95,620.40,620.76,620.80,620.49,619.56,618.08,615.95,612.75,608.94,604.82,601.08,599.43,597.95,596.37,594.66,592.84,590.96,588.76,586.40,584.28,583.36,584.05,585.15,586.55,588.96,590.88,592.60,593.55,592.71,590.71,586.09,580.64,575.69,572.30
372.79,374.18,375.74,377.32,378.78,380.66,382.75,384.87,387.00,389.43,391.84,394.26,396.67,399.02,401.56,404.16,406.75,409.18,411.30,412.98,414.44,415.84,417.42,419.13,421.14,423.63,426.81,430.12,433.76,437.32,440.69,444.70,448.58,453.12,458.04,461.93,465.15,468.28,471.44,474.38,476.24,477.70,478.48,478.55,478.86,480.44,481.72,482.77,484.54,486.39,488.12,489.91,492.01,494.30,495.95,497.53,499.00,499.61,499.11,497.68,495.59,492.97,489.95,486.51,482.70,478.48,473.87,469.77,467.16,465.76,464.81,463.80,462.46,460.98,459.55,458.38,457.35,456.38,455.32,453.88,452.29,450.47,448.48,446.51,445.18,444.00,442.86,441.71,440.46,439.33,438.23,437.14,436.09,434.78,433.44,432.02,430.50,429.12,427.99,427.04,426.21,425.39,424.60,423.88,423.81,425.23,427.73,430.68,433.91,437.31,440.41,443.19,445.88,448.59,451.40,454.45,457.72,461.73,466.96,472.50,477.93,482.81,487.28,492.30,497.97,502.95,507.39,511.97,516.94,521.71,526.45,531.43,536.88,541.86,546.51,550.66,553.55,555.11,556.71,558.07,558.77,559.73,560.07,560.22,560.52,561.35,562.53,564.27,566.42,568.74,570.94,572.65,574.18,575.88,578.19,581.66,585.35,588.75,591.50,594.27,597.12,600.55,605.13,610.34,616.32,622.21,627.73,633.29,639.26,646.01,652.70,657.88,661.98,667.28,672.01,675.03,678.02,680.51,682.42,683.54,683.44,682.57,680.62,677.44,672.84,667.93,662.78,656.97,650.48,644.20,638.62,633.34,628.64,625.53,624.49,623.56,622.98,623.37,624.92,627.37,629.75,631.57,632.37,632.58,632.35,631.72,630.56,628.88,626.34,623.64,621.53,621.29,622.24,623.86,625.30,625.25,623.82,621.42,618.55,615.81,614.52,614.38,614.97,615.85,616.21,616.25,615.60,614.29,612.28,609.25,605.65,602.01,598.88,597.12,595.61,594.10,592.55,590.92,588.91,586.57,584.08,581.74,580.19,580.18,580.79,581.92,584.37,587.70,590.48,592.05,591.75,589.87,585.24,579.43,573.79,570.00
374.26,375.55,377.09,378.82,380.79,382.90,384.81,386.49,388.07,390.25,392.58,394.81,396.95,399.18,401.55,404.09,406.73,409.33,411.62,413.67,415.63,417.53,419.25,421.05,422.94,425.05,427.66,430.48,433.76,436.94,439.79,443.43,447.00,451.43,456.56,461.10,464.44,467.56,470.97,474.81,478.07,480.24,481.69,482.62,483.37,485.69,487.61,489.05,490.93,492.89,494.79,496.50,498.09,500.04,501.44,502.65,503.70,504.13,503.36,501.73,499.40,496.37,493.16,489.56,485.67,481.49,476.96,473.09,470.75,469.65,468.97,468.06,466.71,465.11,463.40,461.81,460.60,459.57,458.48,457.00,455.45,453.67,451.65,449.53,447.72,446.33,445.07,443.77,442.42,441.19,440.00,438.78,437.52,436.17,434.92,433.75,432.55,431.21,430.20,429.26,428.27,427.32,426.50,425.71,425.24,425.83,428.29,431.23,434.27,437.30,440.12,442.99,445.93,448.86,451.68,454.65,457.70,461.28,465.89,471.09,476.59,481.71,486.44,491.57,497.25,502.36,507.00,511.69,516.74,521.51,526.28,531.51,537.86,543.55,548.46,552.57,555.57,557.64,559.74,561.59,562.87,564.38,565.41,566.09,566.62,567.50,568.73,570.53,572.72,575.00,577.17,578.67,580.05,581.75,583.93,586.77,589.68,592.25,594.13,596.50,599.42,603.21,608.28,614.16,620.63,626.57,631.66,636.57,641.82,648.11,654.60,659.72,663.44,667.81,671.67,674.25,676.95,678.99,680.38,681.02,680.55,679.32,676.96,673.46,668.93,664.76,660.16,654.89,649.05,643.33,637.98,632.82,628.02,624.21,621.95,620.25,619.23,619.31,620.49,622.69,624.89,626.62,627.59,627.85,627.57,626.82,625.51,623.78,621.36,618.91,617.13,617.05,617.74,619.25,620.79,620.91,619.64,617.29,614.46,611.78,610.48,610.09,610.43,611.20,611.74,612.00,611.71,610.83,609.21,606.85,603.70,600.41,597.42,595.16,593.35,591.63,589.91,588.20,586.34,584.15,581.80,579.47,577.55,577.21,577.61,578.61,580.74,584.05,587.29,589.64,590.09,588.45,584.24,578.61,572.67,568.47
375.82,377.02,378.60,380.73,383.86,386.59,388.51,389.81,390.82,392.50,394.54,396.23,397.63,399.48,401.41,403.69,406.19,408.67,410.83,413.25,416.08,419.04,421.11,423.05,424.99,426.95,429.03,431.23,433.92,436.58,439.04,442.13,445.53,449.49,454.15,459.38,462.97,466.13,469.57,473.84,478.86,481.83,483.86,485.50,486.72,489.31,491.62,493.47,495.48,497.91,500.49,502.64,504.25,506.61,508.22,509.01,509.14,508.84,507.63,505.76,503.15,499.60,496.20,492.53,488.43,483.93,479.54,476.42,474.51,473.47,472.85,471.91,470.68,469.21,467.50,465.44,463.98,462.80,461.63,460.12,458.67,457.02,455.05,452.65,449.92,448.10,446.68,445.31,444.00,442.85,441.64,440.28,438.77,437.54,436.54,435.87,435.42,434.20,433.14,431.94,430.53,429.24,428.30,427.44,426.67,426.54,428.95,431.84,434.56,437.05,439.62,442.72,446.11,449.44,452.28,455.11,458.06,461.44,465.53,469.87,474.95,479.98,484.74,489.58,495.08,500.42,505.45,510.24,515.18,519.91,524.66,530.03,537.08,543.40,548.79,553.30,556.82,559.70,562.04,564.01,565.75,567.71,569.71,571.46,572.84,573.94,575.55,577.50,579.38,580.80,582.42,583.57,584.93,586.96,589.15,591.06,592.89,594.71,596.50,598.63,602.17,606.82,612.38,619.26,626.17,631.85,636.21,640.63,645.33,650.84,656.61,661.48,665.14,668.51,671.40,673.63,675.80,677.37,678.09,678.00,677.16,675.25,672.45,669.17,665.62,661.81,657.55,652.83,647.68,642.37,637.20,632.20,627.51,623.41,619.76,617.40,616.17,616.00,616.62,618.10,619.62,620.99,622.29,622.80,622.82,622.26,620.87,619.25,617.19,615.27,614.00,614.05,614.91,616.22,617.38,617.44,616.20,613.63,610.71,608.41,607.60,607.09,606.81,606.87,607.41,607.76,607.92,607.69,606.74,605.51,603.05,599.96,596.65,593.57,591.16,588.94,586.74,584.69,583.22,581.52,579.54,577.41,575.41,575.11,575.63,576.60,578.14,579.98,583.11,586.32,587.68,586.42,583.05,578.12,572.28,567.66
377.57,378.62,380.60,383.40,386.86,389.74,391.76,393.28,394.61,396.18,397.78,399.05,400.08,401.43,402.90,404.37,405.97,407.86,409.85,412.71,416.21,419.86,422.43,424.71,426.88,428.96,430.86,432.83,434.99,437.09,439.17,442.13,445.17,448.57,452.55,457.19,461.16,464.66,468.26,472.70,478.35,481.78,484.44,487.00,489.01,491.69,494.22,496.54,499.09,501.88,504.74,507.36,509.76,512.75,514.61,515.39,515.31,514.64,512.88,510.28,507.11,503.47,499.56,495.74,491.99,488.33,484.80,481.53,478.76,476.75,475.86,474.81,473.55,472.14,470.57,468.76,467.27,465.88,464.42,462.83,461.46,460.00,458.30,456.15,453.12,450.43,448.34,446.85,445.56,444.36,443.12,441.77,440.32,439.60,439.04,438.64,438.41,437.63,436.86,435.75,434.23,432.50,430.99,429.48,428.11,427.54,429.34,432.55,435.73,438.35,441.23,444.66,448.13,451.33,454.02,456.72,459.56,462.65,466.16,470.01,474.44,479.00,483.49,488.00,493.11,498.33,503.45,508.35,513.26,517.69,522.13,527.36,534.56,541.85,548.00,552.87,556.68,560.16,563.00,565.44,567.71,570.30,572.88,575.17,576.99,578.22,579.61,581.25,582.95,584.44,585.98,587.34,588.83,590.64,592.47,594.07,595.66,597.50,600.10,603.26,608.52,614.41,619.58,625.55,631.50,636.38,640.04,643.60,647.84,652.75,657.73,661.88,665.11,667.94,670.41,672.42,674.07,674.83,674.84,674.20,672.94,670.93,668.27,665.31,662.15,658.50,654.43,650.22,645.80,640.80,635.89,631.06,626.36,621.94,617.74,614.83,613.25,612.96,613.09,613.85,614.89,616.11,617.40,618.19,618.41,618.03,616.88,615.28,613.36,611.62,610.58,610.90,612.27,613.77,614.85,614.93,613.83,611.26,608.23,605.75,604.97,604.47,603.93,603.47,603.51,603.95,604.47,604.70,604.26,603.52,601.71,599.10,595.88,592.57,589.21,586.07,583.35,581.37,579.99,578.50,576.76,574.83,573.20,573.12,573.73,574.70,576.08,577.45,579.80,582.48,584.14,583.70,581.33,577.33,572.10,567.32
379.78,380.56,382.82,386.13,389.69,392.59,394.77,396.67,398.50,400.06,401.29,402.24,403.05,403.95,404.96,405.59,406.22,407.42,409.20,412.33,416.26,420.37,423.39,426.08,428.61,430.94,432.82,434.71,436.45,438.07,439.88,442.82,445.56,448.44,451.68,455.41,459.57,463.40,467.21,471.71,477.50,481.28,484.54,487.93,490.74,493.50,496.16,498.95,502.26,505.48,508.54,511.60,514.87,518.43,520.44,521.28,521.24,520.36,518.11,514.88,511.26,507.59,503.24,499.26,495.97,493.34,490.76,487.20,483.47,480.40,478.98,477.57,476.12,474.66,473.25,471.82,470.37,468.78,467.07,465.43,464.08,462.75,461.31,459.50,456.53,453.12,450.31,448.54,447.14,445.81,444.55,443.29,442.12,442.01,441.88,441.68,441.49,441.14,440.65,439.70,438.15,436.13,434.04,431.83,429.84,428.83,429.78,433.29,437.06,440.07,443.37,447.06,450.49,453.48,456.04,458.67,461.41,464.23,467.23,470.76,474.60,478.66,482.88,487.07,491.73,496.70,501.75,506.61,511.39,515.53,519.62,524.53,531.54,539.54,546.38,551.65,555.77,559.81,563.25,566.27,569.15,572.41,575.49,578.12,580.15,581.47,582.53,583.84,585.43,587.22,588.84,590.54,592.19,593.70,595.19,596.84,598.65,601.01,604.77,609.11,615.77,622.43,626.89,631.44,636.11,640.11,643.18,645.96,649.77,654.08,658.26,661.65,664.39,666.85,669.05,670.82,671.94,671.87,671.19,670.10,668.48,666.52,664.13,661.44,658.47,654.99,651.17,647.43,643.66,638.99,634.34,629.70,625.03,620.28,615.68,612.16,610.14,609.71,609.47,609.68,610.40,611.53,612.75,613.78,614.15,613.93,613.10,611.51,609.61,607.92,606.94,607.50,609.40,611.25,612.48,612.67,611.72,609.24,606.12,603.35,602.31,601.79,601.10,600.24,599.76,600.29,601.07,601.63,601.61,601.16,600.02,598.01,595.13,591.87,587.69,583.63,580.31,578.30,576.75,575.36,573.85,572.19,571.00,571.16,571.86,572.82,574.11,575.28,576.83,578.68,580.41,580.81,579.41,576.38,571.93,567.18
383.84,383.77,385.25,388.14,391.85,394.86,397.33,399.50,401.42,403.02,404.26,405.18,405.93,406.75,407.34,407.70,408.08,408.84,410.19,412.85,416.42,420.39,423.60,426.66,429.79,432.65,434.65,436.65,438.39,440.05,441.98,444.83,447.73,450.41,453.01,456.05,459.38,463.06,467.08,471.58,476.87,481.00,484.65,488.19,491.38,494.37,497.14,500.29,504.77,508.78,512.28,515.62,519.11,522.73,524.41,525.05,525.05,524.25,522.03,519.19,515.91,512.03,507.87,503.86,500.70,498.53,496.33,493.07,489.59,486.38,483.75,481.02,478.76,476.97,475.57,474.13,472.67,471.15,469.57,467.98,466.52,465.01,463.42,461.70,459.53,456.62,453.58,450.84,448.71,447.23,445.96,444.93,444.60,444.99,445.07,444.95,444.80,444.41,443.77,442.72,441.28,439.64,437.61,435.25,432.86,431.02,430.82,433.96,437.98,441.54,444.98,448.51,451.88,454.98,457.84,460.58,463.29,465.99,468.88,472.42,476.14,480.19,484.46,488.38,492.68,497.31,501.89,506.04,510.30,514.43,518.41,522.66,528.63,535.75,542.57,548.51,553.32,558.06,562.11,565.77,569.47,573.42,577.10,579.87,581.64,583.00,584.21,585.59,587.21,589.06,590.90,592.73,594.47,596.10,597.81,600.13,603.18,607.19,612.52,616.99,622.14,627.05,630.58,633.95,637.81,641.36,644.32,647.13,650.43,653.96,657.43,660.43,662.94,665.17,667.00,668.23,668.85,668.21,667.11,665.79,664.13,662.14,659.71,656.99,654.10,651.08,647.90,644.61,641.04,636.78,632.37,628.06,623.66,618.74,613.20,608.74,605.99,605.16,605.01,605.39,606.21,607.33,608.55,609.63,610.11,610.06,609.42,607.86,605.88,604.01,602.79,603.15,605.22,607.70,609.69,610.19,609.37,606.92,603.91,601.18,599.20,598.36,597.45,596.40,596.17,596.72,597.46,598.02,598.15,598.04,597.65,596.54,594.49,591.76,587.73,583.29,579.16,576.10,573.64,572.21,571.11,569.90,568.96,569.27,570.04,570.91,571.85,572.77,574.10,575.77,577.41,578.13,577.28,575.07,571.59,567.32
388.21,387.51,388.17,390.33,393.79,397.00,399.76,402.13,404.11,405.80,407.35,408.57,409.50,410.28,410.68,410.80,410.93,411.37,412.34,414.31,417.20,420.76,423.99,427.28,430.90,434.30,436.52,438.65,440.51,442.27,444.26,446.87,449.82,452.45,454.80,457.48,460.42,463.97,468.02,472.43,477.14,481.17,484.79,488.20,491.57,495.01,498.37,502.24,507.52,512.03,516.11,520.00,523.82,527.64,529.07,529.51,529.47,528.51,526.25,523.66,520.65,516.78,512.64,508.60,505.40,503.26,501.18,498.13,494.84,491.60,488.39,485.00,482.22,479.96,478.07,476.38,474.86,473.42,471.99,470.52,468.92,467.19,465.44,463.74,462.10,459.68,456.63,453.29,450.60,448.77,447.41,446.68,447.24,448.09,448.38,448.33,448.17,447.70,446.85,445.69,444.34,443.00,441.08,438.64,435.98,433.61,432.37,434.69,438.50,442.42,445.94,449.38,452.81,456.18,459.29,462.14,464.88,467.63,470.65,474.19,477.94,482.07,486.44,490.42,494.55,498.87,503.06,506.79,510.97,515.28,519.26,522.98,527.65,533.60,539.69,545.49,550.91,556.09,560.62,564.86,569.24,573.87,578.10,581.05,582.68,584.16,585.58,587.08,588.74,590.66,592.66,594.58,596.44,598.34,600.59,603.62,607.54,612.44,618.32,622.57,626.46,629.99,632.85,635.41,638.52,641.59,644.38,647.19,650.07,652.97,655.84,658.57,661.10,663.19,664.66,665.34,665.37,664.38,663.05,661.56,659.70,657.58,655.22,652.71,650.13,647.49,644.76,641.78,638.39,634.43,630.34,626.34,622.03,616.62,610.39,605.38,602.23,601.21,601.18,601.63,602.38,603.38,604.58,605.71,606.27,606.33,605.82,604.34,602.26,600.24,598.85,599.07,601.18,603.99,606.45,607.31,606.85,604.69,601.79,598.83,596.18,594.86,593.65,592.50,592.48,592.88,593.53,594.18,594.62,594.85,595.06,594.76,593.59,591.47,587.83,583.47,579.02,575.13,571.58,569.81,568.87,567.98,567.16,567.44,568.12,568.83,569.50,570.27,571.49,573.03,574.57,575.52,575.32,573.92,571.21,567.45
392.78,391.84,391.82,392.94,395.48,399.04,402.05,404.50,406.59,408.43,410.72,412.74,414.17,414.94,415.47,415.32,415.04,415.33,416.04,417.09,418.94,421.72,424.83,428.06,432.00,435.93,438.48,440.74,442.80,444.72,446.58,448.74,451.47,454.25,456.92,459.73,463.14,466.70,470.50,474.69,478.78,482.04,484.96,487.91,491.23,495.42,500.17,505.33,510.77,515.23,520.11,525.00,529.43,533.74,535.14,535.45,535.20,533.69,531.19,528.42,525.45,521.95,517.50,513.38,509.93,507.25,504.97,501.88,498.47,495.21,492.54,489.69,486.97,484.06,480.91,478.61,476.97,475.59,474.33,473.04,471.30,469.34,467.43,465.73,464.04,461.92,459.16,455.89,453.00,450.53,448.95,448.62,450.01,451.31,451.81,451.83,451.62,451.06,449.98,448.70,447.40,446.16,444.33,441.81,439.07,436.69,434.63,435.54,438.46,442.42,445.94,449.45,453.20,456.97,460.21,463.18,466.02,469.05,472.47,476.03,479.94,484.18,488.69,493.24,497.49,501.59,505.53,509.41,514.31,519.02,523.15,526.59,529.71,534.27,538.63,542.98,548.83,554.01,558.80,563.48,568.31,573.59,578.30,581.52,583.31,585.02,586.66,588.27,590.01,592.05,594.06,596.05,598.10,600.44,603.62,607.33,611.38,615.79,620.52,624.20,627.66,630.85,633.48,635.77,638.16,640.59,643.08,645.73,648.32,650.83,653.30,655.85,658.79,660.83,661.95,662.13,661.44,660.39,659.13,657.50,655.13,652.73,650.66,648.81,646.91,644.47,641.80,638.95,635.76,631.93,628.29,624.54,619.97,613.59,607.13,602.22,599.25,598.40,598.50,598.70,599.09,599.79,600.90,602.09,602.72,602.80,602.27,601.00,598.84,596.72,595.34,595.60,597.61,600.20,602.56,603.84,604.09,602.63,599.83,596.18,593.37,591.39,589.76,588.59,588.61,588.62,589.13,590.05,591.07,591.65,592.22,592.54,592.26,590.79,587.75,584.10,580.19,575.94,571.15,568.59,567.38,566.57,565.74,565.71,566.02,566.47,567.05,567.85,569.00,570.41,571.86,573.00,573.65,573.06,570.80,567.51
397.97,396.75,396.26,396.68,398.32,401.28,404.18,407.04,410.02,412.94,416.05,418.77,420.79,421.80,422.24,421.72,420.71,419.96,420.53,421.16,422.21,424.04,426.63,429.77,433.76,437.78,440.45,442.76,444.94,447.01,448.94,450.73,453.03,455.67,458.60,461.94,465.71,469.66,473.69,477.66,481.05,483.88,486.66,489.75,493.48,498.14,503.41,508.87,514.02,518.95,524.81,530.70,535.72,539.83,541.20,541.33,540.70,538.96,536.74,534.24,531.40,527.90,523.42,518.71,514.57,511.38,508.86,505.81,502.46,499.20,496.64,494.32,491.90,489.16,486.13,483.76,481.44,479.10,477.00,475.68,474.04,472.05,469.87,467.77,466.02,463.92,461.44,458.73,456.24,454.20,453.01,452.85,453.97,454.93,455.38,455.41,455.05,454.48,453.48,452.23,450.87,449.54,447.75,445.23,442.27,439.36,436.76,436.39,438.22,441.84,445.30,448.81,452.93,457.27,460.73,463.83,466.82,470.09,473.86,477.61,481.76,486.16,490.81,495.79,500.35,504.57,508.64,512.89,517.94,522.70,526.97,530.70,534.16,538.30,541.93,545.28,549.64,553.65,557.82,562.18,566.72,571.66,577.40,581.50,583.46,585.39,587.23,589.03,590.91,593.05,595.13,597.20,599.51,602.32,605.86,609.66,613.57,617.52,621.40,624.63,627.72,630.55,632.89,635.02,637.07,639.14,641.31,643.71,646.14,648.37,650.50,652.87,655.60,657.61,658.73,658.85,658.07,657.04,655.63,653.80,651.54,649.31,647.38,645.68,643.97,641.62,639.08,636.30,633.20,629.71,626.39,622.46,617.33,610.45,603.96,599.67,597.14,596.08,596.11,596.20,596.38,596.78,597.61,598.73,599.22,599.04,598.22,596.72,594.64,592.77,591.77,592.38,594.46,596.98,599.34,600.93,601.41,600.07,597.19,593.29,590.40,588.16,586.23,584.69,584.00,583.52,584.05,585.25,586.60,587.47,588.26,589.00,589.42,588.77,587.15,584.54,581.26,577.54,572.00,568.75,566.96,565.58,564.50,564.00,563.90,564.10,564.58,565.50,566.65,567.92,569.23,570.52,571.57,571.58,570.02,567.21
403.74,402.29,401.41,401.23,401.91,403.86,406.57,410.00,414.17,418.43,422.26,425.51,428.00,429.28,429.55,428.71,426.99,424.99,425.37,425.76,426.19,427.06,429.01,432.02,435.86,439.70,442.39,444.71,446.97,449.22,451.32,452.83,454.61,456.97,460.07,464.06,468.15,472.63,477.05,480.77,483.53,486.19,489.12,492.54,496.80,501.75,507.10,512.40,517.16,522.89,529.73,536.51,542.06,545.63,547.00,546.99,545.96,544.15,542.38,540.31,537.65,534.09,529.76,524.41,519.51,515.80,512.88,509.89,506.63,503.37,500.69,498.82,496.81,494.60,492.33,490.17,487.09,483.54,480.33,478.77,477.17,475.09,472.61,469.99,468.10,465.92,463.73,461.76,459.97,458.88,458.36,458.29,458.67,458.96,459.22,459.18,458.63,458.02,457.19,456.01,454.54,453.06,451.25,448.74,445.55,441.91,438.92,437.37,438.03,441.05,444.42,447.88,452.32,457.23,460.99,464.25,467.42,470.93,475.00,479.02,483.43,488.02,492.85,498.15,503.07,507.55,511.92,516.60,521.54,526.26,530.69,534.97,539.60,543.77,547.14,549.79,552.00,554.37,557.44,561.03,564.98,569.16,575.97,581.07,583.31,585.46,587.50,589.51,591.58,593.80,595.98,598.14,600.72,603.97,607.55,611.17,614.81,618.37,621.59,624.45,627.18,629.66,631.70,633.71,635.62,637.46,639.35,641.45,643.77,645.77,647.63,649.81,652.08,654.01,655.26,655.53,654.97,654.00,652.43,650.41,648.51,646.61,644.75,642.99,641.26,638.93,636.49,633.76,630.70,627.65,624.55,620.21,614.38,607.21,600.94,597.47,595.40,593.98,593.86,593.91,593.97,594.10,594.56,595.48,595.72,595.20,594.00,592.16,590.23,588.75,588.24,589.30,591.52,594.06,596.49,598.34,598.84,597.38,594.41,590.50,587.35,584.95,582.76,580.69,579.03,578.11,578.67,580.10,581.58,582.66,583.60,584.63,585.64,585.97,586.03,584.61,582.10,579.27,573.42,569.63,567.17,564.99,563.49,562.44,561.84,561.71,562.08,563.13,564.32,565.48,566.64,568.03,569.26,569.76,569.02,566.68
411.40,410.20,408.88,407.63,406.86,408.11,411.19,415.35,420.11,424.69,428.26,431.04,433.08,434.16,434.42,433.80,432.44,430.66,430.14,429.95,430.01,430.56,432.17,434.88,438.19,441.50,444.07,446.43,448.86,451.35,453.70,455.18,456.55,458.56,461.57,465.79,470.24,474.92,479.28,482.67,485.53,488.49,491.67,495.18,499.20,503.97,509.19,514.48,519.63,526.58,534.01,540.96,546.49,549.64,550.98,551.23,550.52,548.65,546.69,544.63,542.33,539.44,535.58,530.87,526.14,521.73,517.46,514.25,510.99,507.55,504.53,502.69,500.98,499.25,497.59,495.93,493.27,490.13,487.03,484.54,481.59,478.68,475.87,473.13,470.79,468.63,466.76,465.35,464.47,464.29,464.45,464.66,464.61,464.50,464.40,464.04,463.20,462.19,461.16,459.88,458.32,456.73,454.70,452.17,449.00,445.07,441.54,439.18,438.77,440.68,443.86,447.22,451.54,456.47,460.81,464.31,467.72,471.49,475.84,480.13,484.62,489.47,494.68,500.01,505.12,509.82,514.37,519.16,524.12,529.15,534.01,538.81,544.25,548.36,551.52,553.99,555.70,556.96,558.41,560.69,564.26,568.08,574.30,579.54,582.64,585.01,587.30,589.57,591.85,594.13,596.38,598.67,601.37,604.69,608.13,611.55,614.93,618.23,621.25,623.78,626.15,628.36,630.27,632.15,633.98,635.77,637.57,639.44,641.44,643.26,645.01,647.00,648.97,650.58,651.73,652.22,651.88,651.08,649.76,648.02,646.25,644.41,642.56,640.83,639.18,636.76,634.13,631.36,628.47,625.66,622.70,617.87,611.13,603.45,598.68,595.68,593.45,591.86,591.60,591.60,591.63,591.71,591.89,592.27,592.08,591.36,590.20,588.57,586.89,585.63,585.24,586.28,588.68,591.39,593.95,595.96,596.61,595.36,592.77,589.01,584.25,581.12,578.49,575.96,573.91,573.11,573.52,574.58,575.76,576.74,577.67,578.84,580.38,582.16,583.03,582.88,581.78,579.38,574.72,571.02,568.20,565.78,563.62,561.77,560.19,559.15,559.38,560.39,561.65,562.87,564.00,565.39,566.68,567.63,567.69,565.76
419.42,418.60,417.07,415.05,413.06,413.35,416.42,420.88,425.80,430.31,433.57,435.94,437.62,438.56,438.85,438.50,437.59,436.15,434.85,434.03,433.69,433.99,435.33,437.87,440.80,443.68,446.16,448.51,450.99,453.59,456.10,457.72,459.00,460.88,463.81,468.00,472.59,477.14,481.15,484.22,487.24,490.57,494.03,497.57,501.38,505.91,510.98,516.38,522.17,529.96,537.71,544.66,550.07,552.99,554.45,555.11,554.88,553.19,551.05,548.86,546.70,544.41,541.16,537.18,532.75,527.94,522.81,519.20,515.67,511.94,508.60,506.52,504.87,503.42,502.16,500.91,498.84,496.33,493.53,490.30,486.36,482.76,479.58,476.67,473.95,471.81,470.21,469.22,469.08,469.53,470.17,470.60,470.35,470.03,469.65,469.01,467.93,466.55,465.26,463.79,462.12,460.40,458.21,455.68,452.55,448.45,444.43,441.40,439.97,440.72,443.61,446.80,450.87,455.65,460.38,464.10,467.81,471.90,476.50,481.08,485.67,490.75,496.31,501.69,506.91,511.76,516.46,521.33,526.43,531.90,537.35,542.68,548.42,552.41,555.55,558.15,559.85,560.41,560.56,561.55,564.31,567.49,572.62,577.69,581.63,584.25,586.78,589.32,591.80,594.14,596.49,598.87,601.64,604.92,608.15,611.37,614.55,617.68,620.61,622.91,625.00,626.96,628.78,630.54,632.30,634.07,635.83,637.50,639.20,640.80,642.39,644.06,645.70,647.04,648.15,648.92,648.84,648.27,647.23,645.81,644.13,642.33,640.54,638.89,637.31,634.86,632.08,629.26,626.50,623.81,620.59,615.06,607.64,600.17,596.76,594.07,591.57,589.66,589.04,588.90,588.92,588.98,588.97,588.92,588.46,587.68,586.64,585.26,583.81,582.69,582.31,583.25,585.81,588.71,591.42,593.60,594.42,593.50,591.25,587.41,581.24,577.25,574.14,571.33,569.13,568.46,568.76,569.54,570.50,571.31,572.15,573.30,575.04,577.69,579.23,580.32,580.63,578.88,575.63,572.28,569.32,566.81,564.10,561.53,559.06,557.09,556.69,557.40,558.65,559.92,560.96,562.52,564.01,565.37,566.12,564.86
427.45,427.13,426.04,424.27,421.92,420.47,422.17,425.73,430.00,433.81,437.05,439.73,441.79,442.98,443.31,443.11,442.34,440.87,439.41,438.00,437.08,437.00,438.06,440.89,444.06,446.99,449.52,451.69,453.88,456.19,458.56,460.67,462.63,465.00,468.01,471.69,475.85,479.51,482.63,485.43,488.41,492.08,495.79,499.38,503.43,507.75,512.73,518.51,525.27,532.64,540.14,546.99,552.30,555.41,557.46,558.68,559.00,558.14,556.19,553.65,551.06,548.77,546.32,542.71,538.52,534.18,529.98,525.61,521.18,516.94,513.35,510.54,508.41,506.72,505.35,504.13,502.50,500.41,497.86,494.70,491.44,487.90,484.25,480.79,478.04,475.95,474.43,473.58,473.56,474.01,474.56,474.94,474.91,474.82,474.45,473.75,472.61,471.14,469.55,467.78,465.90,464.07,461.89,459.40,456.28,452.11,447.85,444.28,441.97,441.64,444.04,446.89,450.58,455.00,459.50,463.29,467.49,472.07,476.84,481.76,486.54,491.78,497.52,503.06,508.36,513.23,517.97,523.01,528.53,534.65,540.93,546.86,551.65,555.44,559.04,562.39,564.59,565.26,565.19,565.20,565.96,567.50,571.05,575.52,579.92,582.90,585.65,588.42,591.13,593.56,595.99,598.44,601.18,604.28,607.22,610.26,613.38,616.50,619.38,621.72,623.71,625.52,627.25,628.91,630.62,632.37,634.10,635.68,637.14,638.46,639.62,640.67,641.76,643.09,644.51,645.67,645.96,645.68,644.87,643.61,642.01,640.35,638.78,637.29,635.71,633.46,630.73,627.91,625.13,622.27,617.83,611.09,603.67,598.43,595.40,592.75,590.00,587.31,585.69,585.21,585.17,585.23,585.23,585.21,584.97,584.43,583.49,582.29,580.88,579.73,579.30,580.16,582.78,585.84,588.80,591.23,592.16,591.74,589.52,584.84,578.52,573.57,569.98,567.37,565.29,564.57,564.97,565.98,567.10,567.73,568.35,569.14,570.28,571.99,574.22,576.40,577.87,577.58,575.59,572.97,570.32,567.79,564.99,562.01,559.11,556.40,554.15,553.88,554.92,556.12,556.86,559.17,561.23,562.88,564.02,564.20
433.37,433.12,432.20,430.67,428.52,426.62,427.39,430.07,433.84,437.49,440.80,443.65,445.92,447.37,447.90,447.89,447.42,446.40,445.14,443.75,442.68,442.26,442.86,445.03,447.64,450.22,452.57,454.61,456.64,458.87,461.33,463.73,466.32,469.31,472.63,475.94,479.37,482.24,484.72,487.33,491.08,495.13,498.98,502.59,506.46,510.55,515.37,521.13,528.09,535.09,542.62,549.40,554.32,557.95,560.54,562.24,562.99,562.58,561.17,558.69,555.83,553.33,551.08,547.95,544.34,540.52,536.62,532.12,527.64,523.43,519.62,516.35,513.60,511.29,509.39,507.63,505.90,503.91,501.53,498.67,495.87,492.52,488.77,485.08,482.20,480.11,478.89,478.62,478.83,479.33,479.91,480.41,480.63,480.82,480.45,479.51,477.97,475.97,474.03,472.06,470.02,467.95,465.65,463.14,460.13,456.19,451.83,447.75,444.75,443.60,444.89,447.28,450.65,454.69,458.93,462.90,467.39,472.18,477.02,482.12,487.22,492.74,498.63,504.20,509.47,514.35,519.15,524.41,530.51,537.35,544.10,550.01,554.33,558.68,562.94,566.70,569.05,569.81,569.87,569.56,569.08,569.41,571.00,574.17,578.41,581.67,584.58,587.39,590.09,592.55,595.06,597.62,600.38,603.35,606.15,609.08,612.09,615.11,617.90,620.26,622.25,624.02,625.69,627.32,628.96,630.63,632.28,633.72,635.01,636.17,637.18,638.02,638.98,640.17,641.47,642.63,643.08,643.03,642.44,641.40,640.08,638.64,637.17,635.69,634.11,632.06,629.40,626.59,623.74,620.44,614.70,607.42,600.62,596.90,594.11,591.41,588.47,585.36,582.94,581.80,581.41,581.41,581.44,581.51,581.45,581.09,580.30,579.27,577.97,576.77,576.15,576.85,579.37,582.45,585.57,588.35,589.63,589.87,588.03,583.31,577.77,572.63,568.65,565.68,562.90,561.51,561.75,562.83,563.93,564.56,565.11,565.71,566.49,567.77,570.14,572.64,574.63,575.35,574.67,573.04,570.95,568.55,565.61,562.40,559.22,556.01,552.63,551.21,551.48,552.26,552.78,554.76,557.49,560.16,562.22,563.08
437.63,437.13,436.16,434.87,433.30,431.92,432.15,434.02,437.46,441.36,444.82,447.73,450.09,451.78,452.61,452.83,452.75,452.49,451.70,450.77,449.83,449.12,449.14,449.92,451.42,453.33,455.32,457.27,459.27,461.56,464.25,466.82,469.99,473.64,477.40,480.50,483.03,485.26,487.38,489.94,494.96,499.37,503.30,506.96,510.38,514.19,518.74,524.17,530.75,537.45,545.17,551.88,556.25,560.60,563.69,565.78,566.87,566.65,566.01,563.91,560.96,558.11,555.59,552.97,550.12,546.87,542.86,538.69,534.78,531.02,527.08,523.59,520.18,517.03,514.29,511.51,509.25,507.06,504.72,502.28,499.76,496.70,493.17,489.51,486.45,484.31,483.56,484.16,484.66,485.23,485.93,486.63,487.11,487.57,487.20,485.95,483.82,481.07,478.80,476.68,474.47,472.01,469.50,466.91,464.05,460.56,456.25,451.71,448.16,446.35,446.08,447.94,451.00,454.68,458.62,462.82,467.43,472.24,477.09,482.24,487.75,493.62,499.63,505.13,510.32,515.19,520.07,525.60,532.40,540.00,546.93,552.34,556.58,562.03,567.09,570.98,573.23,574.09,574.59,574.48,573.41,572.86,572.28,573.62,577.11,580.52,583.53,586.25,588.78,591.21,593.79,596.50,599.31,602.17,604.96,607.82,610.69,613.54,616.22,618.60,620.65,622.47,624.09,625.71,627.29,628.85,630.35,631.63,632.83,633.95,634.98,635.94,637.10,638.06,638.95,639.79,640.25,640.36,639.98,639.21,638.29,637.13,635.68,634.11,632.52,630.63,628.06,625.27,622.29,618.31,611.26,604.03,598.35,595.53,592.88,590.05,586.98,583.72,580.71,578.65,577.69,577.57,577.65,577.84,577.90,577.69,577.08,576.23,575.07,573.82,572.92,573.39,575.67,578.65,581.88,585.07,586.86,587.87,586.75,582.64,578.55,573.80,569.53,565.78,561.73,559.24,559.03,560.00,560.93,561.67,562.26,562.79,563.44,564.67,566.72,568.91,570.89,572.29,573.00,572.54,571.21,569.05,566.00,562.73,559.41,555.90,551.98,549.30,548.36,548.42,548.81,549.69,553.08,557.19,560.51,561.52
441.20,440.75,439.88,438.68,437.14,435.86,436.01,438.04,442.01,446.22,449.89,452.83,455.05,456.64,457.59,457.94,458.02,457.98,457.33,456.33,455.23,454.23,453.69,453.65,454.33,455.63,457.33,459.29,461.38,463.65,466.22,469.04,472.49,476.24,480.01,483.40,486.01,488.55,491.33,494.78,499.59,503.84,508.12,512.52,516.04,519.26,522.99,527.73,534.11,541.11,548.34,554.55,559.07,563.68,566.95,569.25,570.66,570.95,570.65,569.08,566.68,563.95,560.88,557.76,554.93,552.29,549.08,545.20,541.44,537.99,534.69,531.58,528.44,525.25,521.92,518.05,514.63,511.44,508.38,505.57,503.04,500.33,497.33,494.05,491.01,489.10,488.65,489.47,489.93,490.31,490.72,491.13,491.51,491.83,491.57,490.66,489.08,487.34,485.39,482.90,479.81,476.44,473.64,470.95,468.09,464.77,460.82,456.38,452.32,449.30,447.65,448.82,451.50,454.86,458.37,462.50,467.31,472.31,477.22,482.51,488.23,494.19,500.21,505.94,511.12,515.92,520.87,526.78,534.33,542.47,549.38,554.25,558.63,564.59,570.08,574.18,576.46,578.07,579.32,579.75,578.85,577.47,575.80,575.38,576.81,579.52,582.30,584.88,587.30,589.72,592.31,595.11,597.97,600.81,603.60,606.44,609.22,611.87,614.37,616.75,618.91,620.75,622.23,623.81,625.36,626.85,628.23,629.44,630.70,631.84,632.92,634.13,635.33,636.26,637.06,637.77,638.07,637.97,637.58,637.04,636.55,635.58,634.28,632.81,631.15,628.94,626.35,623.61,620.28,614.80,607.11,600.96,596.90,594.27,591.65,588.67,585.47,582.19,579.10,576.45,574.67,573.86,573.94,574.28,574.45,574.32,573.81,573.03,572.02,570.88,569.97,570.23,572.29,575.20,578.47,581.73,583.87,585.41,585.36,582.96,579.73,575.37,570.91,566.54,561.95,558.70,557.27,557.19,557.96,558.49,559.02,559.60,560.28,561.21,562.47,563.79,565.43,567.97,570.33,570.82,570.05,568.52,566.30,563.25,559.98,556.53,552.44,548.94,546.64,545.59,545.87,546.61,549.48,553.24,556.81,558.87
444.48,444.22,443.54,442.48,440.95,439.73,440.02,442.38,446.90,451.31,455.02,457.84,459.86,461.28,462.33,462.85,463.11,463.29,462.71,461.56,460.23,458.93,457.86,457.13,457.13,457.87,459.34,461.28,463.44,465.70,468.11,471.05,474.49,478.10,481.83,485.72,488.77,491.78,495.31,499.72,504.25,508.51,513.35,518.61,522.27,524.91,527.86,531.97,538.19,545.31,551.84,557.50,562.33,566.96,570.29,572.74,574.46,575.25,575.18,574.14,572.37,569.90,566.41,562.84,559.88,557.64,555.20,551.62,547.95,544.66,541.99,539.36,536.78,533.94,530.40,525.79,521.26,516.87,512.72,509.13,506.22,503.72,501.23,498.44,495.56,493.95,493.68,494.44,494.75,494.92,495.00,495.07,495.27,495.38,495.24,494.78,493.99,493.43,491.95,489.24,485.44,481.32,478.11,475.13,472.10,468.85,465.28,461.07,456.65,452.56,449.88,450.15,452.16,455.05,458.20,462.26,467.28,472.53,477.55,482.94,488.73,494.68,500.69,506.71,511.89,516.61,521.63,528.00,536.24,544.67,551.43,555.93,560.57,566.73,572.53,576.96,579.33,581.73,583.73,584.78,584.26,582.42,580.07,578.10,577.34,578.94,581.22,583.57,585.89,588.30,590.88,593.70,596.59,599.42,602.24,605.16,607.84,610.24,612.51,614.87,617.13,619.01,620.36,621.86,623.38,624.82,626.13,627.35,628.70,629.87,631.00,632.39,633.59,634.53,635.34,635.95,636.03,635.66,635.20,634.86,634.75,633.98,632.88,631.49,629.64,627.08,624.40,621.55,617.71,610.89,603.10,598.17,595.52,592.91,590.31,587.24,583.94,580.69,577.67,574.64,572.17,570.67,570.64,571.02,571.24,571.14,570.63,569.87,568.97,567.99,567.16,567.22,568.96,571.79,575.16,578.44,580.92,582.90,583.91,583.28,580.79,576.84,572.27,567.44,562.63,558.81,556.10,554.74,555.04,555.22,555.72,556.40,557.16,557.77,558.29,558.74,559.89,563.09,566.63,567.97,567.93,567.30,566.28,563.76,560.77,557.47,553.29,549.13,545.58,543.36,543.28,544.03,546.22,549.27,552.75,555.76
447.35,447.48,447.23,446.60,445.56,444.71,445.35,447.83,452.14,456.37,459.34,461.57,463.32,464.69,465.94,466.80,467.60,468.50,468.08,466.91,465.42,463.81,462.24,460.87,460.34,460.74,462.09,463.79,465.85,468.16,470.66,473.18,475.75,478.92,482.86,487.42,491.31,494.57,498.11,502.92,508.17,513.69,519.67,525.50,528.92,531.34,534.19,538.26,544.22,550.30,555.91,561.27,566.41,570.55,573.74,576.33,578.31,579.36,579.55,578.79,577.32,575.20,572.18,569.12,566.28,563.64,560.91,557.79,554.33,550.86,547.93,545.68,543.83,541.93,539.37,535.45,530.52,524.98,519.21,513.99,509.73,506.71,504.38,502.14,499.82,498.53,498.14,498.38,498.48,498.54,498.56,498.59,498.65,498.69,498.61,498.42,498.12,497.80,496.66,494.43,491.18,487.50,483.52,479.61,475.94,472.61,469.19,465.20,460.91,456.88,454.24,452.84,453.19,455.10,458.23,462.53,467.77,473.29,478.60,483.80,489.40,495.17,501.15,507.55,512.63,517.24,522.40,529.37,538.02,546.05,552.47,557.20,562.23,568.09,574.10,579.20,581.76,584.49,586.97,588.54,588.55,587.51,584.99,582.13,579.95,579.78,580.90,582.73,584.91,587.27,589.77,592.51,595.31,598.10,601.04,604.33,606.94,608.85,610.79,613.07,615.39,617.36,618.68,620.01,621.43,622.88,624.33,625.70,627.09,628.28,629.42,630.71,631.88,632.83,633.56,634.00,633.90,633.35,632.86,632.63,632.59,632.23,631.38,629.84,627.38,624.80,621.94,618.40,613.60,606.82,600.31,596.13,593.59,591.07,588.60,585.65,582.44,579.23,576.29,573.37,570.94,569.30,568.75,568.79,568.87,568.65,567.91,566.96,566.10,565.25,564.53,564.42,565.50,568.30,572.04,575.38,578.37,580.72,582.30,582.65,581.01,577.60,573.15,568.24,563.69,559.61,556.16,553.56,552.25,551.92,552.54,553.46,554.30,554.77,555.15,555.31,555.70,557.37,560.05,562.11,563.53,564.51,565.16,564.11,561.96,558.86,554.49,549.87,545.63,542.36,540.95,541.39,543.39,546.16,549.26,552.01
450.95,451.38,451.33,450.88,450.13,449.59,450.44,452.87,456.74,460.48,462.92,464.84,466.72,468.81,470.85,472.26,473.39,474.39,473.98,472.68,470.87,468.76,466.79,465.01,463.94,463.82,464.95,466.55,468.67,471.18,473.87,476.08,478.20,481.08,485.01,489.80,494.09,497.66,501.44,506.52,512.62,519.47,526.19,531.90,535.33,538.04,541.08,545.07,550.58,556.02,561.08,566.03,570.86,574.61,577.86,580.50,582.44,583.58,583.87,583.27,581.99,580.04,577.41,574.65,571.84,568.99,566.25,563.55,560.35,556.88,553.92,551.81,550.16,548.54,546.50,543.23,538.40,532.53,526.07,519.78,514.20,510.33,507.72,505.72,503.87,502.91,502.57,502.63,502.75,502.87,503.00,503.11,503.11,503.11,502.95,502.74,502.50,502.04,501.05,499.16,496.35,492.95,488.54,484.06,479.91,476.23,472.72,468.89,464.77,460.72,457.71,455.26,454.38,455.34,458.37,462.86,468.33,474.13,479.72,484.83,490.20,495.76,501.70,508.45,513.45,518.17,523.75,531.31,539.77,547.24,553.34,558.26,563.55,569.40,575.52,580.88,583.63,586.51,589.20,591.13,591.68,591.11,588.84,585.96,583.36,582.23,582.46,583.49,584.90,586.60,588.96,591.64,594.39,597.19,600.21,603.46,605.89,607.54,609.26,611.34,613.65,615.69,617.05,618.32,619.67,621.13,622.64,624.12,625.51,626.74,627.89,629.09,630.22,631.13,631.78,632.07,631.77,631.11,630.55,630.21,629.95,629.82,628.88,627.00,624.26,621.68,618.83,615.02,609.80,603.23,597.80,594.12,591.55,589.14,586.76,583.92,580.94,578.08,575.30,572.50,570.18,568.49,567.45,566.92,566.69,566.31,565.34,564.14,563.28,562.57,561.97,561.74,562.39,564.86,568.50,572.04,575.44,578.20,580.38,581.61,580.77,577.89,573.64,568.76,564.38,560.12,556.13,552.66,550.24,549.15,549.45,550.24,551.05,551.49,551.74,551.69,551.64,552.32,554.26,556.71,559.21,561.52,563.47,563.76,562.55,559.89,555.75,551.02,546.38,542.31,539.63,539.34,540.89,543.31,546.11,548.70
455.52,456.07,455.92,455.32,454.56,454.25,455.16,457.31,460.50,463.42,465.63,467.66,470.12,473.93,477.43,479.64,480.81,481.14,480.52,478.95,476.60,473.79,471.53,469.62,467.99,467.11,467.89,469.56,471.97,474.84,477.80,479.93,482.15,484.96,488.57,493.07,497.15,501.16,505.50,510.77,517.76,525.94,532.90,537.66,541.42,545.03,548.55,552.37,557.20,562.58,567.55,571.93,575.68,579.22,582.79,585.39,586.90,587.98,588.14,587.58,586.36,584.37,581.97,579.19,576.27,573.48,571.17,568.84,565.92,562.72,560.06,557.80,555.68,553.57,551.32,548.56,544.39,539.20,533.22,526.63,519.85,514.77,511.34,509.19,507.69,507.07,507.03,507.36,507.75,508.15,508.57,508.92,508.92,508.92,508.52,507.92,507.26,506.27,505.20,503.44,500.79,497.40,493.00,488.47,484.04,479.72,475.81,472.07,468.13,463.91,459.93,457.25,455.76,455.81,458.65,463.22,468.92,475.00,480.88,486.04,491.15,496.46,502.37,509.44,514.39,519.48,525.82,533.94,541.50,548.26,554.08,559.09,564.49,570.71,576.83,581.93,584.83,587.70,590.28,592.39,593.53,592.86,591.34,589.44,587.57,586.56,586.26,586.15,586.07,586.34,588.49,591.14,593.90,596.78,599.83,602.51,604.62,606.29,607.95,609.71,611.89,613.98,615.46,616.78,618.15,619.58,621.07,622.59,623.95,625.21,626.41,627.57,628.61,629.42,629.98,630.16,629.65,628.98,628.28,627.55,626.77,626.62,625.13,622.72,620.13,617.58,614.97,611.45,606.50,600.24,595.52,592.08,589.41,587.13,584.81,582.04,579.44,577.29,574.73,572.08,569.90,568.23,566.78,565.39,564.67,564.08,562.91,561.41,560.54,559.96,559.48,559.17,559.69,561.48,564.44,568.33,572.01,575.23,578.07,580.15,580.04,577.67,573.71,568.95,564.60,560.23,555.87,551.98,549.17,547.04,546.44,546.68,547.33,547.83,547.91,547.74,547.63,548.17,549.67,552.11,555.13,558.40,561.15,562.60,562.39,560.46,557.04,552.64,547.91,543.31,539.52,538.02,538.75,540.68,543.32,545.99
460.60,461.38,461.32,460.73,459.93,459.62,460.12,461.60,464.04,466.34,468.85,471.45,474.40,478.32,481.89,484.23,485.55,485.95,485.47,483.75,481.19,478.23,475.80,473.50,471.62,470.56,471.05,472.49,475.00,478.24,481.80,484.51,487.34,490.46,494.10,498.64,502.78,506.91,511.64,517.80,525.51,533.27,539.74,544.41,548.06,551.65,555.21,559.15,564.14,569.06,573.54,577.57,581.17,584.59,587.74,589.97,591.32,592.41,592.55,592.16,591.23,589.49,587.29,584.66,581.52,578.07,575.25,572.84,570.21,567.41,564.82,562.27,559.73,557.19,554.67,552.07,548.67,544.15,538.36,531.38,524.28,519.12,515.77,513.77,512.57,512.25,512.49,513.09,513.71,514.18,514.54,514.76,514.76,514.76,514.39,513.71,512.72,511.30,509.72,507.67,504.92,501.22,496.78,492.07,487.33,482.72,478.40,474.68,471.02,467.09,463.00,459.74,457.53,456.88,459.14,463.84,469.88,476.23,482.18,487.43,492.43,497.77,503.82,510.69,515.85,521.49,528.13,535.57,542.64,549.01,554.67,559.78,565.25,571.74,578.29,583.90,587.14,589.75,592.02,594.04,595.42,594.92,593.74,592.29,590.80,589.69,589.20,588.81,588.31,587.83,588.72,590.75,593.36,596.28,599.33,601.60,603.41,605.03,606.69,608.38,610.31,612.25,613.90,615.29,616.67,618.09,619.56,621.03,622.40,623.67,624.84,625.90,626.87,627.75,628.44,628.74,628.40,627.59,626.56,625.47,624.50,623.74,622.07,619.87,617.61,615.12,612.53,608.92,603.91,598.22,593.74,590.29,587.53,585.19,582.87,580.43,578.20,576.31,574.09,571.65,569.57,567.89,566.31,564.66,563.53,562.60,561.44,560.05,559.05,558.25,557.60,557.33,557.91,559.24,561.25,564.03,567.31,571.07,574.60,577.25,578.78,577.04,573.52,569.20,564.87,560.54,555.92,551.68,548.66,546.35,544.67,543.68,543.45,543.70,543.67,543.56,543.70,544.60,546.25,548.53,551.21,554.31,558.02,560.67,561.52,560.41,557.57,553.76,549.49,544.90,540.35,537.78,537.33,538.49,540.88,543.41
465.76,466.80,466.95,466.47,465.63,465.17,465.12,465.84,467.50,469.24,472.06,475.28,478.68,482.36,485.61,487.90,489.38,490.03,489.70,487.84,485.19,482.27,479.71,477.07,475.08,474.05,474.29,475.45,477.95,481.50,485.69,489.12,492.64,496.20,500.03,504.72,508.97,513.20,518.38,525.54,533.70,540.52,546.30,551.09,554.54,557.82,561.37,565.59,570.91,575.32,579.26,583.06,586.75,590.02,592.57,594.42,595.76,596.92,597.13,596.97,596.35,594.88,592.82,590.35,587.03,582.91,579.40,576.57,574.02,571.54,568.94,566.11,563.21,560.31,557.48,554.85,552.11,548.20,542.63,535.31,528.21,523.32,520.31,518.60,517.80,517.88,518.46,519.34,520.19,520.70,520.86,520.82,520.80,520.78,520.48,519.76,518.49,516.67,514.46,511.97,508.98,504.91,500.31,495.31,490.24,485.43,480.68,476.92,473.54,470.06,466.20,462.38,459.54,458.31,459.85,464.69,471.05,477.59,483.52,488.84,493.82,499.31,505.56,512.12,517.58,523.71,530.34,536.78,543.50,549.59,555.15,560.38,565.90,572.61,579.70,586.01,589.64,592.00,593.99,595.88,597.36,597.16,596.18,594.93,593.60,592.34,591.79,591.40,590.83,589.93,589.47,590.74,592.98,595.74,598.75,600.75,602.33,603.85,605.52,607.20,608.87,610.60,612.39,613.83,615.23,616.66,618.11,619.52,620.89,622.12,623.22,624.23,625.13,626.13,627.00,627.50,627.42,626.50,625.19,623.82,622.72,621.25,619.49,617.62,615.68,613.29,610.54,606.73,601.76,596.77,592.44,588.95,586.05,583.47,581.04,578.92,577.02,575.22,573.33,571.13,569.16,567.50,565.87,564.19,562.72,561.44,560.28,559.02,557.85,556.76,555.89,555.73,556.43,557.44,558.56,559.93,562.50,566.54,570.60,573.86,577.15,576.38,573.53,569.69,565.41,561.11,556.30,551.74,548.51,546.24,543.58,541.29,540.04,539.89,539.71,539.70,540.14,541.45,543.33,545.41,547.57,550.17,554.54,558.16,560.01,559.83,557.70,554.57,550.93,546.62,541.56,538.04,536.34,536.54,538.54,540.84
470.38,471.74,472.32,472.22,471.48,470.46,469.94,470.06,470.89,472.09,474.39,477.53,481.40,485.82,489.30,491.77,493.31,493.70,493.03,490.92,488.16,485.24,482.68,480.29,478.46,477.45,477.61,478.63,480.92,484.45,488.91,492.63,496.37,500.33,504.60,509.28,513.46,518.35,524.45,532.03,539.55,545.87,551.22,555.66,559.16,562.30,566.29,571.16,576.29,580.49,584.53,588.32,591.60,594.40,596.83,598.79,600.35,601.70,602.35,602.41,601.85,600.34,598.04,595.49,592.46,588.90,585.36,581.16,577.62,574.80,572.14,569.41,566.41,563.24,560.06,557.11,554.16,550.66,545.90,538.79,531.77,526.88,524.00,522.85,522.88,523.94,525.27,526.52,527.73,528.43,528.33,527.80,527.67,527.57,527.05,526.13,524.65,522.37,519.67,516.71,513.33,509.06,503.64,498.06,492.66,487.49,482.26,478.20,474.91,471.92,468.52,464.88,462.07,460.58,461.27,466.20,472.61,479.00,484.75,490.08,495.13,500.89,507.50,514.03,519.89,525.75,531.68,537.60,543.87,549.82,555.41,560.75,566.25,573.18,580.57,587.23,591.21,593.75,595.92,597.92,599.45,599.82,599.04,597.66,596.03,594.56,593.99,593.58,592.93,592.02,591.64,592.41,593.60,595.11,598.07,600.20,601.80,603.22,604.78,606.33,607.87,609.44,611.05,612.52,613.95,615.40,616.87,618.29,619.53,620.60,621.59,622.65,623.73,624.75,625.64,626.28,626.36,625.74,624.62,623.24,621.91,620.23,618.12,615.97,614.03,611.75,608.36,604.54,600.59,596.47,592.74,589.40,586.20,582.79,579.71,577.51,575.69,573.91,572.10,570.19,568.47,566.92,565.25,563.56,562.02,560.58,559.07,557.28,555.93,554.77,553.95,554.08,554.89,555.89,556.89,557.95,559.41,562.17,565.98,570.41,574.38,576.22,574.99,571.29,567.17,562.67,557.77,553.03,549.20,546.69,543.79,541.13,539.31,538.50,537.89,537.82,538.38,539.55,541.06,542.97,545.10,547.46,550.63,554.01,556.45,557.51,557.13,554.61,551.58,547.90,543.08,539.08,536.28,535.18,536.07,538.14
474.29,476.00,477.04,477.29,476.55,475.08,474.15,473.82,474.09,474.88,476.70,479.79,484.12,489.35,493.22,495.79,497.21,497.27,496.20,493.84,490.96,488.03,485.50,483.46,482.11,481.43,481.53,482.19,484.16,487.42,491.72,495.54,499.50,503.85,508.49,513.05,517.20,522.62,529.41,537.19,544.22,550.14,555.16,559.33,562.88,566.13,570.79,576.40,581.35,585.45,589.55,593.27,596.17,598.65,601.05,603.15,604.92,606.43,607.40,607.63,607.10,605.60,603.20,600.48,597.54,594.34,590.85,586.00,581.71,578.27,575.23,572.44,569.33,565.95,562.46,559.13,555.91,552.66,548.59,541.97,535.06,530.27,527.76,527.44,528.40,530.47,532.60,534.29,535.66,536.36,535.93,534.83,534.11,533.78,533.15,532.18,530.72,528.19,525.20,521.87,518.08,513.44,507.33,501.13,495.26,489.80,484.31,479.83,476.36,473.64,470.61,467.26,464.59,462.91,463.00,467.73,474.03,480.27,485.80,491.19,496.43,502.48,509.38,515.97,521.96,527.40,532.67,538.20,544.02,549.81,555.49,561.03,566.46,573.44,581.02,587.96,592.28,595.14,597.73,600.14,602.01,602.91,602.41,600.93,598.83,596.86,596.13,595.67,595.05,594.29,594.17,594.59,594.92,595.35,597.66,599.75,601.37,602.70,604.14,605.60,607.06,608.51,609.96,611.39,612.83,614.28,615.74,617.15,618.25,619.21,620.15,621.22,622.39,623.44,624.35,625.05,625.30,624.91,624.03,622.80,621.32,619.54,617.20,614.77,612.67,610.37,606.75,603.24,600.24,596.85,593.53,590.31,586.86,582.77,579.09,576.48,574.43,572.55,570.75,569.01,567.47,566.05,564.44,562.81,561.26,559.65,557.77,555.56,553.92,552.72,552.08,552.47,553.33,554.26,555.16,556.04,556.67,558.56,562.07,567.03,571.31,575.03,575.71,573.17,569.28,564.91,559.98,554.99,550.71,547.71,544.58,541.61,539.24,537.93,536.89,536.51,536.85,537.90,539.08,540.78,542.80,544.96,547.17,550.12,552.82,554.83,555.88,554.31,551.92,548.78,544.32,540.08,536.55,534.23,533.72,535.38
476.95,479.05,480.52,481.03,480.03,478.41,477.22,476.70,476.93,477.54,479.23,482.46,487.28,493.21,497.61,500.05,501.03,500.76,499.30,496.73,493.76,490.79,488.29,486.65,486.28,486.60,486.63,486.48,487.89,490.51,493.90,497.56,501.90,506.63,511.40,515.70,519.91,525.46,532.31,540.03,547.17,552.83,557.63,561.78,565.34,569.16,574.80,581.25,586.17,590.26,594.20,597.68,600.38,602.96,605.35,607.50,609.39,611.00,611.98,612.21,611.73,610.42,608.29,605.31,601.94,598.40,594.91,591.11,586.84,582.38,578.34,575.08,571.76,568.25,564.57,560.82,557.46,554.19,550.35,544.66,537.93,533.53,531.88,532.87,534.79,537.78,540.75,542.95,544.13,544.34,543.47,541.69,539.47,538.63,538.14,537.57,536.51,534.18,531.24,527.76,523.54,518.15,511.77,504.95,498.38,492.78,487.47,482.40,478.30,475.39,472.47,469.48,466.92,465.14,465.14,469.09,475.09,481.23,486.55,492.04,497.73,504.08,511.06,517.83,523.41,528.37,533.24,538.46,543.86,549.41,555.25,561.18,566.44,573.19,580.79,587.97,592.64,595.97,599.29,602.64,605.47,606.77,606.72,605.25,602.47,599.45,598.26,597.71,597.28,596.90,596.98,597.27,597.39,597.33,597.85,599.44,600.99,602.27,603.63,605.08,606.50,607.91,609.30,610.60,611.97,613.38,614.77,616.10,617.08,618.06,619.07,620.04,621.08,622.22,623.18,623.81,624.25,623.88,623.19,622.28,620.90,619.12,616.82,614.28,611.79,609.26,606.36,603.70,601.29,598.23,594.88,591.60,588.10,583.81,579.74,576.23,573.35,571.17,569.30,567.47,565.93,564.65,563.31,561.87,560.33,558.54,556.33,554.05,551.96,550.66,550.43,550.92,551.73,552.44,553.04,553.66,554.18,556.38,559.77,563.82,567.93,571.71,574.57,575.30,571.73,568.23,563.31,557.96,553.60,549.68,546.15,542.73,539.74,538.33,536.96,535.75,535.28,536.41,537.53,538.89,540.52,542.47,544.73,547.17,549.62,551.88,553.49,553.54,551.92,548.96,544.88,540.81,537.21,533.92,531.64,532.59
479.00,481.44,483.29,484.29,483.93,482.75,481.63,480.94,480.84,481.29,482.89,486.11,490.95,496.92,501.11,503.47,504.48,504.24,502.94,500.08,496.89,494.01,491.78,490.44,490.32,490.88,491.12,490.71,491.58,493.49,496.22,499.79,504.33,509.13,513.79,518.04,522.43,528.12,534.96,542.50,549.44,555.09,559.84,563.94,567.86,573.21,579.46,585.67,590.58,594.69,598.28,601.39,604.06,606.79,609.29,611.51,613.47,615.17,616.19,616.39,615.97,614.85,612.74,609.69,606.18,602.44,598.74,595.12,591.01,586.46,581.85,577.75,574.02,570.37,566.56,562.59,558.96,555.52,551.92,547.33,541.11,537.41,536.77,538.88,541.61,544.78,547.72,549.86,550.75,550.73,549.88,548.20,545.71,544.38,543.41,542.61,541.76,540.07,537.60,534.39,530.10,523.89,517.41,510.18,502.98,496.97,491.78,486.80,482.40,478.81,475.43,472.15,469.21,467.05,466.90,470.56,476.21,482.08,487.29,492.95,499.06,505.72,512.75,519.34,524.40,528.97,533.60,538.63,543.78,549.25,555.20,561.36,566.45,573.05,580.34,587.24,592.20,596.08,600.18,604.41,608.07,609.91,610.09,608.99,606.75,603.80,601.88,600.95,600.56,600.37,600.54,600.53,600.29,599.86,599.51,600.35,601.63,603.00,604.32,605.51,606.70,607.92,609.13,610.29,611.49,612.73,613.96,615.11,616.05,617.02,618.06,619.08,620.11,621.14,622.01,622.62,623.16,622.82,622.23,621.51,620.33,618.49,616.27,613.96,611.79,609.65,607.57,605.59,603.45,600.43,597.03,593.52,589.72,585.22,580.69,576.61,573.06,570.17,567.97,565.98,564.35,563.04,561.86,560.47,558.85,557.00,554.84,552.64,550.46,549.03,548.71,549.13,549.77,550.32,550.79,551.27,551.69,553.73,556.76,560.23,563.97,568.24,572.45,575.13,573.44,570.75,566.76,562.05,557.27,552.78,548.67,544.75,541.25,539.10,537.33,535.66,534.45,534.62,535.61,536.80,538.04,539.42,541.44,543.64,545.96,548.43,551.02,552.09,551.10,548.58,545.04,541.33,537.60,533.72,530.44,530.21
480.60,483.34,485.59,487.23,488.00,487.64,486.91,486.13,485.57,485.84,487.36,490.40,494.92,500.47,504.04,506.37,507.66,507.66,506.88,503.83,500.43,497.68,495.80,494.64,494.35,494.71,495.32,495.03,495.38,496.56,498.76,502.25,506.83,511.51,515.96,520.32,524.93,530.70,537.45,544.71,551.28,557.04,561.90,566.00,570.57,577.76,584.35,589.78,594.67,598.76,601.90,604.64,607.42,610.34,613.01,615.30,617.29,619.11,620.12,620.29,619.89,618.91,616.75,613.75,610.27,606.43,602.39,598.42,594.49,590.34,585.51,580.41,576.17,572.35,568.44,564.37,560.39,556.73,553.37,549.88,544.49,541.74,542.13,545.15,548.50,551.44,553.92,555.73,556.34,556.27,555.69,554.50,552.45,550.63,548.88,547.49,546.69,545.81,544.02,541.37,537.27,530.38,523.86,516.40,508.66,502.04,496.83,492.24,487.76,483.32,479.19,475.18,471.57,468.86,468.48,472.04,477.33,482.83,488.02,493.88,500.38,507.31,514.34,520.57,525.09,529.35,533.88,538.80,543.84,549.31,555.34,561.58,566.53,573.01,579.82,586.17,591.37,595.81,600.64,605.64,610.05,612.59,612.89,612.36,611.28,609.02,606.37,604.95,604.54,604.41,604.56,604.18,603.51,602.76,602.11,602.08,602.97,604.48,605.76,606.57,607.43,608.40,609.38,610.40,611.39,612.40,613.42,614.36,615.26,616.23,617.27,618.36,619.42,620.25,620.94,621.56,622.13,621.84,621.29,620.68,619.74,617.85,615.75,613.86,612.39,610.98,609.71,608.27,606.24,603.11,599.65,595.79,591.54,586.87,581.84,577.39,573.29,569.53,566.81,564.56,562.72,561.29,560.18,558.73,557.02,555.17,553.27,551.28,549.23,547.67,546.96,547.20,547.60,548.05,548.50,548.89,549.21,550.83,553.39,556.48,559.81,564.74,569.76,573.59,574.51,572.68,570.12,566.62,561.43,556.62,551.85,547.36,543.41,540.20,537.99,536.03,534.17,532.85,533.52,534.59,535.43,536.10,537.69,539.78,542.02,544.66,548.36,550.11,549.72,547.82,544.89,541.67,537.81,533.61,529.82,528.24
481.54,484.65,487.43,489.75,491.37,492.15,492.66,492.62,491.98,491.90,492.91,495.26,498.90,503.36,506.70,509.01,510.41,510.81,510.56,508.62,505.82,502.85,500.71,499.38,498.93,499.30,500.30,500.30,500.32,500.93,502.58,505.58,509.71,514.26,518.88,523.40,528.15,533.61,539.79,546.55,552.89,558.73,563.89,568.70,574.57,581.38,587.76,593.38,598.14,601.71,604.62,607.50,610.70,614.02,616.71,618.95,620.92,622.77,623.61,623.61,623.08,622.01,620.08,617.37,613.97,609.96,605.69,601.08,596.80,592.74,588.25,582.88,578.18,573.99,569.93,565.73,561.63,557.96,554.75,551.69,548.19,546.80,547.72,550.63,553.74,556.80,559.55,561.60,562.52,562.55,561.94,560.77,558.90,556.80,554.57,552.73,551.68,550.90,549.54,547.43,544.03,538.17,531.46,523.98,516.08,508.42,502.27,497.38,492.94,488.59,484.28,479.08,474.67,471.55,470.19,473.20,478.01,483.26,488.61,494.69,501.40,508.37,515.18,521.04,525.44,529.73,534.35,539.36,544.53,550.04,555.96,561.99,566.99,573.27,579.81,585.97,591.17,595.67,600.67,606.05,611.19,614.84,615.73,615.54,614.72,612.81,610.67,609.53,609.19,609.00,608.85,608.28,607.36,606.18,605.13,604.68,605.22,606.45,607.47,608.15,608.91,609.77,610.68,611.71,612.73,613.76,614.70,615.29,616.04,616.91,617.81,618.63,619.50,620.16,620.75,621.37,621.95,621.69,621.15,620.53,619.71,618.09,616.32,614.81,613.76,612.74,611.80,610.56,608.69,605.81,602.07,597.81,593.26,588.50,583.24,578.48,574.09,570.00,566.47,563.44,561.05,559.26,557.87,556.38,554.73,553.02,551.34,549.70,547.99,546.46,545.42,545.21,545.48,545.89,546.34,546.79,546.87,548.16,550.42,553.41,556.87,561.70,567.12,571.90,573.81,573.57,572.04,569.54,565.84,560.94,555.73,550.68,546.07,542.23,539.38,537.11,535.02,532.88,531.93,532.29,532.97,533.44,534.25,535.98,538.07,540.69,544.54,547.01,547.71,546.72,544.10,541.45,537.84,533.75,529.92,527.70
482.17,485.66,488.97,491.93,494.28,496.12,497.78,498.57,498.14,497.82,498.31,499.94,502.64,506.06,509.17,511.41,512.91,513.76,514.01,513.30,511.31,508.29,505.80,504.19,503.68,504.17,505.44,505.77,505.62,505.81,507.04,509.58,513.29,517.70,522.45,527.13,531.96,537.11,542.71,548.89,555.00,560.84,566.29,571.75,578.56,584.69,590.87,596.77,601.21,604.26,607.18,610.48,614.26,617.92,620.63,622.77,624.66,626.43,627.03,626.83,626.10,624.87,623.08,620.62,617.35,613.24,608.75,603.54,598.80,594.65,590.55,585.25,580.12,575.48,571.27,566.97,562.88,559.28,556.23,553.55,551.84,551.60,552.84,555.55,558.55,561.98,565.24,567.78,569.12,569.41,568.85,567.61,565.74,563.47,560.96,558.69,557.09,556.02,554.76,552.95,550.17,545.54,539.00,531.71,523.84,515.34,508.01,502.44,497.78,493.53,489.24,483.31,478.21,474.50,472.23,474.37,478.58,483.59,489.08,495.33,502.17,509.09,515.64,521.21,525.63,530.19,535.13,540.31,545.57,551.09,556.86,562.65,567.75,573.90,580.21,586.17,591.35,595.87,601.10,606.87,612.54,616.98,618.43,618.50,617.80,616.22,614.79,614.06,613.79,613.55,613.13,612.43,611.31,609.78,608.44,607.62,607.74,608.54,609.30,609.96,610.69,611.49,612.36,613.38,614.43,615.47,616.35,616.66,617.22,617.95,618.66,619.22,619.88,620.43,620.96,621.54,622.10,621.87,621.32,620.68,619.93,618.68,617.35,616.26,615.58,614.77,613.87,612.63,610.83,608.25,604.25,599.63,594.81,590.00,584.59,579.55,574.95,570.72,566.49,562.67,559.61,557.29,555.46,553.90,552.32,550.72,549.25,548.05,546.69,545.25,543.95,543.30,543.41,543.78,544.23,544.67,544.52,545.55,547.66,550.68,554.34,558.90,564.47,569.94,572.57,573.76,573.23,571.73,569.57,565.03,559.67,554.18,548.95,544.60,541.14,538.46,536.05,533.24,530.72,530.22,530.64,531.00,531.15,532.39,534.20,536.67,540.52,543.68,545.41,545.36,543.18,541.05,537.74,533.90,530.17,527.50
482.32,486.14,489.86,493.27,496.19,498.65,500.59,501.86,502.29,502.16,502.49,503.63,505.67,508.61,511.19,513.24,514.93,516.30,516.97,516.91,515.79,513.52,510.81,508.90,508.58,509.45,510.61,511.23,511.21,511.42,512.64,515.12,518.82,523.05,527.55,532.36,537.21,542.26,547.56,553.15,558.87,564.48,569.98,575.54,581.63,587.68,594.01,599.82,603.46,606.33,609.84,614.11,618.77,622.44,625.20,627.28,628.89,630.24,630.58,630.09,629.08,627.60,625.47,623.02,619.97,616.05,611.26,605.73,600.55,596.04,592.11,587.46,581.95,576.70,572.46,568.15,564.26,560.87,558.08,556.11,555.10,555.07,556.26,559.23,563.19,567.46,571.56,574.93,576.69,577.65,577.54,576.30,574.01,571.82,569.45,566.73,563.77,561.74,559.67,557.40,554.63,550.69,545.51,539.04,531.51,523.06,514.41,507.41,501.68,496.94,492.86,487.97,482.62,477.70,475.16,475.83,479.13,483.83,489.32,495.57,502.35,509.09,515.42,520.96,525.59,530.95,536.79,542.21,547.27,552.68,558.34,563.97,569.18,575.49,581.55,587.05,592.29,597.00,603.06,609.57,615.12,619.06,620.65,620.96,620.46,619.43,618.49,618.00,617.81,617.60,617.22,616.44,615.18,613.56,612.30,611.05,610.47,610.64,611.37,612.14,612.91,613.69,614.50,615.35,616.25,617.17,617.96,618.27,618.62,619.07,619.59,620.09,620.71,621.30,621.83,622.28,622.70,622.48,621.93,621.27,620.61,619.73,619.03,618.58,618.29,617.33,615.95,614.26,612.25,609.86,605.79,600.97,595.98,591.06,585.57,580.34,575.64,571.46,567.12,562.79,558.91,555.67,553.21,551.43,549.77,548.17,546.88,546.30,545.28,543.96,542.60,541.68,541.45,541.74,542.19,542.31,542.04,543.00,545.24,548.58,552.23,556.56,561.80,567.22,570.84,572.45,573.07,572.74,570.99,568.09,563.29,557.78,552.25,547.42,543.57,540.18,536.87,533.40,530.38,528.96,528.61,528.78,528.88,529.50,530.62,532.66,536.62,540.37,542.68,543.37,542.31,540.48,537.39,533.87,530.42,527.36
482.18,486.09,490.06,493.87,497.39,500.32,502.56,504.33,505.57,506.03,506.43,507.26,508.77,511.14,513.12,514.98,516.87,518.72,520.04,520.51,519.92,518.14,515.57,513.35,512.89,513.77,514.92,515.87,516.48,517.22,518.58,521.04,524.78,529.14,533.76,538.46,543.44,548.64,553.91,559.14,564.40,569.62,574.65,579.59,585.01,590.96,596.97,602.25,605.64,609.06,613.50,618.47,623.27,626.84,629.62,631.63,633.00,634.03,634.18,633.46,632.11,630.24,627.81,625.21,622.16,618.35,613.44,607.68,602.17,597.39,593.63,589.56,583.82,578.11,573.74,569.44,565.77,562.68,560.25,558.75,558.14,558.32,559.69,563.00,567.66,572.76,577.77,582.08,584.43,585.88,586.01,584.80,582.41,580.23,577.43,573.92,569.99,567.13,564.45,561.66,558.58,554.91,550.55,544.91,538.18,530.40,521.18,513.09,506.26,500.69,496.15,491.74,486.70,481.57,478.13,477.23,479.67,484.08,489.52,495.70,502.47,509.12,515.34,521.03,526.37,532.31,538.46,543.95,548.94,554.30,559.84,565.36,570.82,577.16,583.07,588.41,593.85,599.14,605.49,611.94,617.15,620.51,622.31,623.07,622.99,622.35,621.83,621.52,621.33,621.07,620.63,619.84,618.69,617.26,616.11,614.71,613.64,613.21,613.66,614.36,615.13,615.91,616.69,617.44,618.24,618.97,619.52,619.82,620.06,620.37,620.75,621.16,621.64,622.23,622.77,623.15,623.51,623.22,622.64,622.00,621.47,620.84,620.47,620.32,620.13,619.00,617.25,615.23,613.09,610.76,606.67,601.73,596.62,591.75,586.28,581.02,576.32,572.23,567.93,563.38,559.05,555.16,551.96,549.28,547.17,545.56,544.57,544.37,543.66,542.56,541.28,540.25,539.72,539.89,540.28,540.10,539.74,540.64,542.82,546.15,549.83,554.07,558.86,563.82,567.93,570.41,572.05,572.72,571.85,570.12,566.17,561.02,555.31,549.83,545.63,541.88,538.16,534.30,530.79,528.63,527.44,526.92,526.66,526.90,527.61,529.19,532.68,536.56,539.44,540.99,540.92,539.48,536.73,533.62,530.49,527.23
481.75,485.54,489.59,493.77,497.94,501.16,503.75,506.02,508.01,509.45,510.14,510.86,511.98,513.68,514.99,516.69,518.78,521.07,523.22,524.11,523.73,522.16,520.04,517.55,516.63,517.20,518.43,519.73,521.40,523.11,524.78,527.25,531.10,535.88,540.97,545.40,550.63,556.18,561.66,566.75,571.46,576.11,580.20,583.89,588.72,594.49,599.75,604.13,607.82,612.46,618.07,623.46,627.73,631.09,633.84,635.77,636.95,637.76,637.81,636.89,635.19,632.79,630.10,627.20,623.98,620.16,615.30,609.41,603.68,598.74,595.15,591.55,585.78,579.78,575.17,570.89,567.41,564.69,562.70,561.46,560.97,561.42,563.16,566.88,571.97,577.82,583.79,589.08,592.17,593.91,594.09,592.93,590.80,588.53,584.79,580.23,575.71,572.17,569.06,565.75,562.08,558.28,554.17,549.35,543.84,537.30,528.24,519.41,511.51,504.81,499.14,494.63,490.43,486.00,481.12,478.61,480.24,484.37,489.68,495.72,502.52,509.19,515.43,521.47,527.93,534.20,540.10,545.48,550.54,555.90,561.33,566.78,572.63,578.86,584.71,590.22,595.96,602.20,608.31,613.96,618.61,621.38,623.43,624.83,625.40,624.99,624.83,624.65,624.38,623.99,623.37,622.66,621.83,620.85,619.82,618.54,617.22,616.21,616.20,616.62,617.33,618.14,618.90,619.61,620.38,620.88,621.06,621.29,621.52,621.80,622.13,622.44,622.66,623.20,623.76,624.15,624.50,624.07,623.43,622.87,622.50,621.98,621.66,621.48,621.09,619.77,617.79,615.59,613.36,611.00,606.93,601.93,596.77,592.09,586.77,581.61,577.00,573.01,568.87,564.40,559.96,555.71,551.68,547.52,544.61,542.92,542.32,542.28,541.84,541.03,539.99,538.99,538.23,538.23,538.49,538.03,537.63,538.48,540.42,543.39,547.14,551.40,555.65,559.78,563.92,567.66,570.21,571.72,572.20,571.16,568.31,563.89,558.08,551.81,547.32,543.56,539.87,535.88,531.91,529.14,527.10,525.45,524.52,524.58,525.12,526.24,528.73,532.29,535.70,538.21,539.00,538.06,535.80,533.16,530.39,527.10
481.13,484.87,488.90,493.12,497.51,501.11,504.05,506.75,509.33,511.65,513.38,514.63,515.69,516.99,517.81,519.25,521.40,524.08,526.50,527.59,527.28,525.73,523.83,521.66,520.65,520.91,522.14,523.57,525.46,527.59,529.93,533.09,537.28,542.23,547.74,553.51,559.06,564.66,570.03,574.61,578.37,581.90,585.18,588.51,592.99,597.95,602.47,606.60,611.07,616.82,622.54,627.52,631.39,634.70,637.08,638.63,639.51,640.07,640.13,639.36,637.74,635.20,632.25,629.05,625.64,621.85,617.21,611.25,605.58,600.76,597.02,593.50,588.64,583.22,578.09,573.57,569.63,566.84,565.19,563.99,563.58,564.35,566.50,570.47,575.53,581.54,587.51,592.70,596.35,597.77,597.90,597.26,595.90,593.46,589.88,585.52,580.75,576.42,572.86,569.32,565.41,560.97,556.69,552.46,547.90,542.14,533.91,524.97,516.39,508.70,501.97,496.83,492.80,489.02,484.45,481.30,482.06,485.38,490.04,495.42,502.16,509.26,516.23,522.85,529.40,535.44,541.10,546.62,551.96,557.27,562.44,567.69,573.92,580.28,586.21,591.86,597.87,604.76,610.60,615.52,619.69,622.41,624.69,626.54,627.73,627.89,627.88,627.62,627.16,626.57,625.89,625.20,624.47,623.65,622.66,621.53,620.34,619.33,619.01,619.22,619.72,620.33,621.01,621.73,622.46,622.81,622.73,622.75,622.94,623.22,623.50,623.72,623.82,624.21,624.70,625.13,625.38,624.90,624.32,623.88,623.56,623.12,622.76,622.25,621.28,619.87,617.84,615.61,613.33,610.91,606.80,601.81,596.73,592.15,587.14,582.13,577.55,573.53,569.38,565.08,560.82,556.66,552.56,548.04,543.67,540.66,540.20,540.14,539.83,539.33,538.69,537.78,536.89,536.63,536.63,536.10,535.63,536.49,538.27,540.70,543.89,547.95,552.08,556.04,559.96,563.87,567.34,570.07,571.50,571.34,569.63,565.86,559.96,553.61,548.69,544.65,540.93,537.05,533.12,530.02,527.56,525.51,523.84,522.93,522.61,523.13,525.31,528.54,531.83,534.50,535.90,536.19,534.67,532.47,529.94,526.63
480.61,484.27,488.20,492.32,496.81,500.76,504.03,507.06,510.14,513.25,516.12,518.12,519.34,520.45,520.98,522.24,524.43,527.37,529.86,531.05,530.83,529.35,527.58,525.89,524.90,524.88,526.04,527.55,529.46,531.83,534.89,538.87,543.52,548.67,554.58,561.74,567.56,573.03,578.03,581.96,584.87,587.42,590.11,593.28,597.35,601.39,605.30,609.48,614.78,621.29,626.70,631.05,634.63,637.88,639.78,640.88,641.48,641.81,641.97,641.40,639.96,637.42,634.28,630.82,627.25,623.48,619.08,613.16,607.66,603.04,599.08,595.50,591.64,587.00,581.52,576.71,572.21,569.15,567.57,566.35,566.06,567.16,569.64,573.69,578.62,584.52,590.15,594.89,598.92,599.95,600.04,599.96,599.39,597.03,593.91,590.03,585.18,580.17,576.23,572.59,568.62,563.67,558.98,555.11,551.32,546.24,539.00,530.18,521.08,512.45,504.74,498.88,494.78,491.57,487.81,484.40,484.26,486.59,490.53,495.19,501.79,509.40,517.30,524.56,530.87,536.48,541.91,547.62,553.27,558.49,563.36,568.37,574.90,581.45,587.52,593.30,599.55,606.88,612.43,616.74,620.52,623.38,625.90,628.13,629.88,630.74,630.92,630.63,630.05,629.32,628.61,627.87,627.09,626.24,625.25,624.24,623.27,622.43,621.93,621.96,622.22,622.60,623.13,623.84,624.50,624.71,624.43,624.24,624.36,624.63,624.88,625.02,625.04,625.25,625.63,626.09,626.23,625.75,625.26,624.94,624.62,624.23,623.67,622.72,621.15,619.63,617.63,615.40,613.11,610.65,606.44,601.49,596.52,592.01,587.33,582.48,577.91,573.84,569.60,565.49,561.49,557.55,553.56,549.08,543.44,538.97,538.18,538.01,537.77,537.55,537.30,536.56,535.62,535.08,534.76,534.19,533.65,534.52,536.14,538.06,540.60,544.29,548.36,552.36,556.00,559.83,564.21,568.23,570.57,571.22,570.51,567.33,561.45,555.20,549.84,545.47,541.71,537.97,534.20,530.88,528.13,525.93,523.62,521.70,520.35,520.12,522.12,525.03,528.05,530.73,532.66,534.14,533.39,531.62,529.28,526.00
480.70,484.11,487.70,491.58,496.17,500.31,503.67,506.81,510.13,513.78,517.35,520.18,522.19,523.62,524.45,525.98,528.28,531.07,533.36,534.57,534.73,533.80,532.06,530.70,529.78,529.54,530.50,532.08,534.23,536.90,540.32,544.85,550.20,556.05,562.32,568.97,574.83,579.67,583.65,586.85,589.81,592.62,595.42,598.30,601.39,604.78,608.70,613.34,619.07,625.03,629.72,633.58,637.01,639.93,641.40,642.15,642.59,642.99,643.38,642.82,641.37,639.08,635.87,632.37,628.76,624.98,620.74,615.17,610.04,605.62,601.50,597.76,594.07,590.01,585.28,580.25,575.64,571.95,569.42,568.20,568.30,569.68,572.08,575.61,580.56,586.07,591.08,595.26,599.18,600.21,600.41,600.47,600.12,599.01,596.33,592.52,587.88,582.72,578.75,575.21,571.57,567.34,561.75,557.48,554.03,549.72,543.35,534.85,525.38,515.83,507.48,501.05,496.84,493.99,490.86,487.63,486.49,487.71,491.30,495.61,501.87,509.81,518.67,526.49,532.33,537.47,542.70,548.52,554.31,559.35,563.93,568.69,575.17,581.89,588.20,594.20,600.51,607.69,612.97,617.05,620.81,623.94,626.79,629.31,631.42,633.08,633.86,634.05,633.80,633.13,632.39,631.39,630.20,628.91,627.84,626.90,626.04,625.31,624.93,624.87,625.00,625.21,625.45,625.94,626.37,626.43,626.13,625.87,625.84,626.03,626.27,626.32,626.33,626.40,626.66,627.06,627.09,626.70,626.30,626.00,625.67,625.21,624.01,622.35,620.63,618.91,616.87,614.70,612.50,610.04,605.63,600.70,595.87,591.38,586.82,582.17,577.68,573.48,569.17,565.25,561.43,557.60,553.71,549.46,544.15,539.18,536.41,535.92,535.75,535.63,535.52,535.24,534.42,533.64,532.94,532.18,531.61,532.36,533.81,535.55,537.83,540.76,544.48,548.55,551.98,556.10,561.26,566.40,569.93,570.86,570.51,567.81,562.36,556.13,550.46,545.90,542.09,538.34,534.68,531.22,528.26,525.98,523.60,521.39,519.19,517.77,519.20,521.88,524.91,527.86,530.37,531.90,531.67,530.37,528.19,525.12
481.36,484.33,487.57,491.18,495.69,499.91,503.37,506.59,510.05,513.98,517.95,521.51,524.39,526.38,527.95,529.98,532.42,534.97,537.00,538.24,538.79,538.54,537.39,536.43,535.71,535.43,536.12,537.51,539.70,542.45,545.93,550.79,556.68,563.07,569.56,575.60,581.15,585.47,588.87,591.78,594.80,597.60,600.26,602.80,605.26,608.42,612.47,617.38,623.06,628.25,632.31,635.79,639.03,641.63,642.93,643.57,643.94,644.38,644.84,644.21,642.68,640.50,637.30,633.79,630.15,626.36,622.27,617.17,612.40,608.12,603.93,600.02,596.33,592.61,588.46,583.25,578.49,574.42,571.44,570.50,571.09,572.65,574.83,577.72,582.09,587.06,591.57,595.30,599.01,600.18,600.54,600.67,600.44,600.15,597.97,594.41,589.99,585.05,581.11,577.67,574.36,570.67,565.11,560.55,556.90,552.89,547.30,539.10,529.55,519.69,511.06,504.54,500.11,497.07,494.26,491.21,489.35,489.48,492.20,496.15,502.11,510.23,519.73,528.04,533.80,538.74,543.79,549.48,555.35,560.19,564.44,568.91,575.28,582.07,588.53,594.67,601.02,608.04,613.23,617.27,621.02,624.34,627.49,630.31,632.77,635.09,636.48,637.19,637.35,636.90,636.31,635.36,634.10,632.66,631.41,630.32,629.32,628.52,628.27,628.12,628.03,627.98,628.01,628.26,628.38,628.24,627.87,627.56,627.38,627.46,627.62,627.62,627.62,627.62,627.76,628.03,627.98,627.70,627.38,627.07,626.69,625.88,624.07,621.90,620.02,618.12,616.03,613.91,611.69,608.92,604.44,599.68,595.08,590.64,586.12,581.45,576.80,572.36,568.18,564.47,560.81,557.10,553.36,549.29,544.44,539.33,535.12,534.02,533.80,533.76,533.79,533.85,533.21,532.33,531.39,530.47,529.87,530.42,531.60,533.09,535.20,537.79,541.25,545.24,548.67,553.07,558.76,564.52,568.59,570.18,570.21,567.95,563.05,556.98,551.37,546.57,542.40,538.62,534.97,531.35,528.19,525.74,523.27,520.89,518.23,515.99,516.37,518.71,521.65,524.70,527.53,529.19,529.56,528.94,527.26,524.47
482.77,485.09,487.93,491.30,495.45,499.62,503.17,506.49,509.97,513.83,517.85,521.94,525.74,528.55,531.47,534.29,536.88,539.12,540.83,542.13,543.04,543.59,543.90,543.47,543.12,543.09,543.41,544.22,546.08,548.58,551.77,556.66,562.80,569.41,575.90,581.46,586.22,590.25,593.83,597.10,600.05,602.27,604.32,606.46,608.92,612.45,616.74,621.53,626.50,630.79,634.41,637.68,640.63,642.94,644.49,645.38,645.80,646.19,646.44,645.65,643.98,641.65,638.55,635.05,631.36,627.57,623.62,619.09,614.67,610.48,606.31,602.25,598.41,594.71,590.75,585.36,580.33,576.32,573.83,573.59,574.74,576.35,578.16,580.32,583.13,587.42,591.65,595.13,598.51,599.98,600.56,600.74,600.56,600.27,598.69,595.72,591.46,587.21,583.35,580.02,576.97,573.34,569.26,564.73,560.10,555.66,550.75,542.80,533.55,524.32,515.92,510.01,505.23,501.19,498.23,495.31,493.15,492.23,493.27,496.80,502.53,510.58,520.28,529.00,535.28,540.44,545.32,550.55,556.44,561.05,564.91,569.03,575.25,581.97,588.40,594.56,600.95,607.89,613.26,617.49,621.21,624.56,627.93,631.09,633.96,636.70,638.64,639.84,640.42,640.47,640.30,639.85,639.13,638.07,636.46,634.90,633.39,632.25,632.10,631.86,631.37,630.96,630.91,630.90,630.65,630.21,629.68,629.31,629.02,628.91,628.90,628.90,628.90,628.90,628.94,628.99,628.92,628.75,628.49,628.17,627.67,626.09,623.81,621.41,619.32,617.27,615.19,613.06,610.63,607.11,602.73,598.38,594.18,589.85,585.23,580.20,575.03,570.16,566.48,562.96,559.43,555.92,552.39,548.39,543.93,539.12,534.52,532.42,531.92,531.99,532.22,532.38,531.98,531.22,530.25,529.25,528.59,528.85,529.59,530.66,532.75,535.66,539.04,542.69,546.45,551.03,556.91,562.55,566.14,569.01,569.58,567.75,563.50,557.82,552.80,547.65,542.68,538.84,535.02,531.26,527.89,525.14,522.43,519.98,517.43,514.96,513.62,515.45,518.15,520.97,523.73,525.79,526.91,527.31,526.67,524.18
